ply
format ascii 1.0
comment Kinect v1 generated
element vertex 1435
property double x
property double y
property double z
property uchar red
property uchar green
property uchar blue
end_header
-1.97958 1.75389 8.5372 11 11 9
-1.96932 1.75389 8.5372 15 15 13
-1.95907 1.75389 8.5372 14 14 12
-1.94881 1.75389 8.5372 14 14 12
-1.93856 1.75389 8.5372 13 13 11
-1.9283 1.75389 8.5372 12 12 10
-1.91805 1.75389 8.5372 12 12 10
-1.90779 1.75389 8.5372 12 12 10
-1.89754 1.75389 8.5372 12 12 10
-1.88728 1.75389 8.5372 11 11 9
-1.87703 1.75389 8.5372 11 11 9
-1.86677 1.75389 8.5372 12 12 10
-1.85652 1.75389 8.5372 13 13 11
-1.84626 1.75389 8.5372 14 14 12
-1.83601 1.75389 8.5372 14 14 12
-1.78299 1.7128 8.33722 13 13 11
-1.99334 1.9257 9.37349 13 13 11
-1.96739 1.91142 9.30401 11 11 9
-1.79499 1.75389 8.5372 12 12 10
-1.78473 1.75389 8.5372 14 14 12
-1.77448 1.75389 8.5372 15 15 13
-1.76422 1.75389 8.5372 16 16 14
-1.75397 1.75389 8.5372 16 16 14
-1.91453 1.9257 9.37349 15 15 13
-1.88916 1.91142 9.30401 15 15 13
-1.87798 1.91142 9.30401 16 16 14
-1.86681 1.91142 9.30401 15 15 13
-1.85563 1.91142 9.30401 13 13 11
-1.84445 1.91142 9.30401 12 12 10
-1.83328 1.91142 9.30401 11 11 9
-1.8221 1.91142 9.30401 11 11 9
-1.81093 1.91142 9.30401 11 11 9
-1.79975 1.91142 9.30401 11 11 9
-1.17965 2.05794 10.0172 18 18 16
-1.16761 2.05794 10.0172 17 17 15
-0.877123 2.08246 10.1365 8 13 9
-0.864947 2.08246 10.1365 7 12 8
-0.852771 2.08246 10.1365 6 11 7
-0.79189 2.08246 10.1365 4 9 5
-0.779714 2.08246 10.1365 4 9 5
-0.767538 2.08246 10.1365 6 8 5
-0.755362 2.08246 10.1365 6 8 5
-0.743186 2.08246 10.1365 6 8 5
-0.73101 2.08246 10.1365 6 8 5
-0.718834 2.08246 10.1365 6 8 5
-0.706658 2.08246 10.1365 6 8 5
-0.694482 2.08246 10.1365 5 7 4
-0.682306 2.08246 10.1365 5 7 4
-0.657954 2.08246 10.1365 6 8 5
-0.645778 2.08246 10.1365 6 8 5
-0.633602 2.08246 10.1365 7 9 6
-0.621426 2.08246 10.1365 7 9 6
-0.319125 1.87967 9.14946 9 11 8
-0.165259 1.87967 9.14946 6 12 12
-3.51369 1.64686 7.96961 8 10 5
-3.76827 1.771 8.57039 6 8 3
-3.75798 1.771 8.57039 6 8 3
-3.72644 1.76096 8.5218 4 6 1
-3.62376 1.71716 8.30982 4 6 1
-3.3824 1.7738 8.58393 5 6 1
-3.37209 1.7738 8.58393 5 6 1
-3.36178 1.7738 8.58393 5 6 1
-3.34116 1.7738 8.58393 8 9 4
-3.27144 1.74216 8.43082 8 9 4
-3.26131 1.74216 8.43082 8 9 4
-3.25118 1.74216 8.43082 9 10 5
-3.24106 1.74216 8.43082 10 11 6
-3.23093 1.74216 8.43082 10 11 6
-3.2208 1.74216 8.43082 8 8 6
-3.21067 1.74216 8.43082 8 8 6
-3.20055 1.74216 8.43082 8 8 6
-3.19042 1.74216 8.43082 8 8 6
-3.18029 1.74216 8.43082 8 8 6
-3.17017 1.74216 8.43082 8 8 6
-3.16004 1.74216 8.43082 8 8 6
-3.21796 1.7798 8.61295 8 8 6
-3.13978 1.74216 8.43082 10 10 8
-3.12966 1.74216 8.43082 10 10 8
-3.11953 1.74216 8.43082 9 9 7
-3.3793 1.89338 9.16261 9 9 7
-3.36829 1.89338 9.16261 9 9 7
-3.35729 1.89338 9.16261 9 9 7
-3.34628 1.89338 9.16261 9 9 7
-3.33527 1.89338 9.16261 9 9 7
-3.32427 1.89338 9.16261 9 9 7
-3.31326 1.89338 9.16261 9 9 7
-3.30226 1.89338 9.16261 9 9 7
-3.29125 1.89338 9.16261 9 9 7
-3.28024 1.89338 9.16261 9 9 7
-3.26924 1.89338 9.16261 9 9 7
-3.25823 1.89338 9.16261 9 9 7
-3.24723 1.89338 9.16261 9 9 7
-3.23622 1.89338 9.16261 12 12 10
-3.22521 1.89338 9.16261 12 12 10
-3.21421 1.89338 9.16261 11 11 9
-3.2032 1.89338 9.16261 11 11 9
-3.19219 1.89338 9.16261 11 11 9
-3.18119 1.89338 9.16261 10 10 8
-3.17018 1.89338 9.16261 10 10 8
-3.15918 1.89338 9.16261 10 10 8
-3.14817 1.89338 9.16261 10 10 8
-3.13716 1.89338 9.16261 10 10 8
-3.12616 1.89338 9.16261 10 10 8
-3.11515 1.89338 9.16261 10 10 8
-3.10415 1.89338 9.16261 10 10 8
-3.09314 1.89338 9.16261 10 10 8
-3.08213 1.89338 9.16261 10 10 8
-3.07113 1.89338 9.16261 9 9 7
-3.06012 1.89338 9.16261 9 9 7
-3.04911 1.89338 9.16261 9 9 7
-3.03811 1.89338 9.16261 9 9 7
-3.0271 1.89338 9.16261 9 9 7
-2.76015 1.73271 8.38509 9 9 7
-2.75008 1.73271 8.38509 9 9 7
-3.05059 1.98756 9.61839 10 10 8
-2.37965 1.94903 9.43194 13 14 9
-2.36832 1.94903 9.43194 13 14 9
-2.35699 1.94903 9.43194 13 13 11
-2.34566 1.94903 9.43194 13 13 11
-2.394 2.0796 10.0638 10 10 8
-2.38191 2.0796 10.0638 10 10 8
-1.98983 1.76414 8.5372 10 10 8
-2.01084 1.792 8.67202 10 10 8
-1.96932 1.76414 8.5372 13 13 11
-1.95907 1.76414 8.5372 13 13 11
-1.94881 1.76414 8.5372 13 13 11
-1.93856 1.76414 8.5372 13 13 11
-1.9283 1.76414 8.5372 13 13 11
-1.91805 1.76414 8.5372 13 13 11
-1.90779 1.76414 8.5372 13 13 11
-1.89754 1.76414 8.5372 13 13 11
-1.88728 1.76414 8.5372 14 14 12
-1.87703 1.76414 8.5372 14 14 12
-1.86677 1.76414 8.5372 15 15 13
-1.85652 1.76414 8.5372 15 15 13
-1.84626 1.76414 8.5372 15 15 13
-1.83601 1.76414 8.5372 14 14 12
-1.82575 1.76414 8.5372 13 13 11
-1.8155 1.76414 8.5372 12 12 10
-1.80524 1.76414 8.5372 14 14 12
-1.79499 1.76414 8.5372 13 13 11
-1.78473 1.76414 8.5372 14 14 12
-1.77448 1.76414 8.5372 16 16 14
-1.76422 1.76414 8.5372 16 16 14
-1.75397 1.76414 8.5372 16 16 14
-1.74371 1.76414 8.5372 16 16 14
-1.88916 1.9226 9.30401 16 16 14
-1.87798 1.9226 9.30401 17 17 15
-1.86681 1.9226 9.30401 17 17 15
-1.85563 1.9226 9.30401 16 16 14
-1.84445 1.9226 9.30401 15 15 13
-1.83328 1.9226 9.30401 14 14 12
-1.8221 1.9226 9.30401 13 13 11
-1.66168 1.76414 8.5372 13 13 11
-1.65142 1.76414 8.5372 13 13 11
-1.78857 1.9226 9.30401 14 16 11
-0.877123 2.09463 10.1365 14 16 13
-0.864947 2.09463 10.1365 12 14 11
-0.852771 2.09463 10.1365 12 14 11
-0.79189 2.09463 10.1365 8 10 7
-0.779714 2.09463 10.1365 8 10 7
-0.767538 2.09463 10.1365 9 11 8
-0.755362 2.09463 10.1365 9 11 8
-0.743186 2.09463 10.1365 9 11 8
-0.73101 2.09463 10.1365 9 11 8
-0.718834 2.09463 10.1365 9 11 8
-0.706658 2.09463 10.1365 8 10 7
-0.694482 2.09463 10.1365 8 10 7
-0.682306 2.09463 10.1365 7 9 6
-0.645778 2.09463 10.1365 8 10 7
-0.633602 2.09463 10.1365 9 11 8
-0.621426 2.09463 10.1365 10 12 9
-0.330115 1.89066 9.14946 11 13 10
-0.289717 1.8434 8.92076 13 15 12
-0.286154 1.89066 9.14946 13 15 12
-0.275163 1.89066 9.14946 14 16 13
-0.264173 1.89066 9.14946 14 16 13
0.923458 1.69068 8.18167 3 5 4
-3.79608 1.78469 8.58671 7 9 6
-3.72409 1.77008 8.51644 4 6 3
-3.71386 1.77008 8.51644 3 5 2
-3.46277 1.67346 8.05154 4 6 3
-3.4531 1.67346 8.05154 4 6 3
-3.28156 1.75229 8.43082 6 6 4
-3.27144 1.75229 8.43082 9 9 7
-3.26131 1.75229 8.43082 11 11 9
-3.25118 1.75229 8.43082 11 11 9
-3.24106 1.75229 8.43082 11 11 9
-3.23093 1.75229 8.43082 11 11 9
-3.2208 1.75229 8.43082 10 10 8
-3.21067 1.75229 8.43082 10 10 8
-3.20055 1.75229 8.43082 10 10 8
-3.19042 1.75229 8.43082 10 10 8
-3.17017 1.75229 8.43082 10 10 8
-3.16004 1.75229 8.43082 10 10 8
-3.14991 1.75229 8.43082 10 10 8
-3.13978 1.75229 8.43082 10 10 8
-3.12966 1.75229 8.43082 11 11 9
-3.11953 1.75229 8.43082 11 11 9
-3.1094 1.75229 8.43082 12 12 10
-3.36829 1.90439 9.16261 12 12 10
-3.35729 1.90439 9.16261 11 11 9
-3.34628 1.90439 9.16261 11 11 9
-3.33527 1.90439 9.16261 11 11 9
-3.32131 1.90269 9.15444 9 8 6
-3.31326 1.90439 9.16261 9 8 6
-3.30226 1.90439 9.16261 9 8 6
-3.29125 1.90439 9.16261 10 9 7
-3.28024 1.90439 9.16261 12 11 9
-3.26924 1.90439 9.16261 12 11 9
-3.25823 1.90439 9.16261 13 12 10
-3.24723 1.90439 9.16261 15 14 12
-3.23622 1.90439 9.16261 13 13 11
-3.22521 1.90439 9.16261 13 13 11
-3.21421 1.90439 9.16261 13 13 11
-3.2032 1.90439 9.16261 12 12 10
-3.19219 1.90439 9.16261 12 12 10
-3.18119 1.90439 9.16261 12 12 10
-3.17018 1.90439 9.16261 12 12 10
-3.15918 1.90439 9.16261 11 11 9
-3.14817 1.90439 9.16261 11 11 9
-3.13716 1.90439 9.16261 11 11 9
-3.12616 1.90439 9.16261 11 11 9
-3.11515 1.90439 9.16261 11 11 9
-3.10415 1.90439 9.16261 11 11 9
-3.09314 1.90439 9.16261 11 11 9
-3.08213 1.90439 9.16261 11 11 9
-3.07113 1.90439 9.16261 9 9 7
-3.06012 1.90439 9.16261 9 9 7
-3.04911 1.90439 9.16261 9 9 7
-3.03811 1.90439 9.16261 9 9 7
-3.0271 1.90439 9.16261 9 9 7
-3.0161 1.90439 9.16261 9 9 7
-3.00509 1.90439 9.16261 9 9 7
-2.99408 1.90439 9.16261 9 9 7
-2.98308 1.90439 9.16261 9 9 7
-2.71987 1.74278 8.38509 9 9 7
-2.70979 1.74278 8.38509 9 9 7
-2.67958 1.74278 8.38509 10 10 8
-3.19185 2.09168 10.0638 10 10 8
-2.99843 2.09168 10.0638 15 14 10
-2.84087 2.04782 9.85274 28 24 15
-2.35699 1.96036 9.43194 13 13 11
-2.394 2.09168 10.0638 11 11 9
-2.22104 1.96036 9.43194 12 12 10
-1.98983 1.7744 8.5372 10 10 8
-1.97958 1.7744 8.5372 11 11 9
-1.96932 1.7744 8.5372 13 13 11
-1.95907 1.7744 8.5372 14 14 12
-1.94881 1.7744 8.5372 15 15 13
-1.93856 1.7744 8.5372 15 15 13
-1.9283 1.7744 8.5372 16 16 14
-1.91805 1.7744 8.5372 17 17 15
-1.90779 1.7744 8.5372 17 17 15
-1.89754 1.7744 8.5372 17 17 15
-1.87703 1.7744 8.5372 18 18 16
-1.86677 1.7744 8.5372 18 18 16
-1.85652 1.7744 8.5372 17 17 15
-1.84626 1.7744 8.5372 16 16 14
-1.83601 1.7744 8.5372 15 15 13
-1.82575 1.7744 8.5372 13 13 11
-1.97857 1.93377 9.30401 12 12 10
-1.80524 1.7744 8.5372 16 16 14
-1.79499 1.7744 8.5372 16 16 14
-1.78473 1.7744 8.5372 16 16 14
-1.77448 1.7744 8.5372 16 16 14
-1.76422 1.7744 8.5372 17 17 15
-1.75397 1.7744 8.5372 17 17 15
-1.74371 1.7744 8.5372 16 16 14
-1.88916 1.93377 9.30401 16 16 14
-1.87798 1.93377 9.30401 17 17 15
-1.86681 1.93377 9.30401 17 17 15
-1.85563 1.93377 9.30401 17 17 15
-1.84445 1.93377 9.30401 17 17 15
-1.83328 1.93377 9.30401 16 16 14
-1.8221 1.93377 9.30401 16 16 14
-1.66168 1.7744 8.5372 16 16 14
-1.61274 1.73283 8.33722 16 16 14
-1.64117 1.7744 8.5372 18 19 14
-1.63091 1.7744 8.5372 16 17 12
-0.864947 2.10681 10.1365 17 17 15
-0.852771 2.10681 10.1365 17 17 15
-0.804066 2.10681 10.1365 12 12 10
-0.79189 2.10681 10.1365 12 12 10
-0.779714 2.10681 10.1365 11 11 9
-0.767538 2.10681 10.1365 11 13 10
-0.755362 2.10681 10.1365 11 13 10
-0.743186 2.10681 10.1365 12 14 11
-0.73101 2.10681 10.1365 12 14 11
-0.718834 2.10681 10.1365 12 14 11
-0.706658 2.10681 10.1365 10 12 9
-0.694482 2.10681 10.1365 9 11 8
-0.682306 2.10681 10.1365 8 10 7
-0.67013 2.10681 10.1365 6 8 5
-0.657954 2.10681 10.1365 7 9 6
-0.645778 2.10681 10.1365 8 10 7
-0.633602 2.10681 10.1365 9 11 8
-0.621426 2.10681 10.1365 10 12 9
-0.60925 2.10681 10.1365 10 12 9
-0.520149 1.91342 9.20606 12 14 11
-0.509091 1.91342 9.20606 12 14 11
-0.498033 1.91342 9.20606 11 13 10
-0.486974 1.91342 9.20606 10 12 9
-0.341105 1.90165 9.14946 10 12 9
-0.330115 1.90165 9.14946 10 12 9
-0.319125 1.90165 9.14946 11 13 10
-0.286154 1.90165 9.14946 14 16 13
-0.275163 1.90165 9.14946 14 16 13
-0.264173 1.90165 9.14946 15 17 14
0.194168 1.77168 8.52411 10 19 18
-3.52601 1.70909 8.17574 4 6 3
-3.51619 1.70909 8.17574 4 6 3
-3.24366 1.68486 8.05982 3 5 2
-3.32489 1.77473 8.48972 8 8 6
-3.37829 1.80878 8.65261 6 6 4
-3.29301 1.76856 8.46023 8 8 6
-3.27144 1.76241 8.43082 10 10 8
-3.26131 1.76241 8.43082 11 11 9
-3.25118 1.76241 8.43082 11 11 9
-3.24106 1.76241 8.43082 11 11 9
-3.23093 1.76241 8.43082 11 11 9
-3.2208 1.76241 8.43082 11 11 9
-3.21067 1.76241 8.43082 11 11 9
-3.20055 1.76241 8.43082 11 11 9
-3.19042 1.76241 8.43082 11 11 9
-3.18029 1.76241 8.43082 11 11 9
-3.17017 1.76241 8.43082 11 11 9
-3.16004 1.76241 8.43082 12 12 10
-3.14991 1.76241 8.43082 12 12 10
-3.13978 1.76241 8.43082 10 10 8
-3.12966 1.76241 8.43082 10 10 8
-3.11953 1.76241 8.43082 11 11 9
-3.1094 1.76241 8.43082 12 12 10
-3.09928 1.76241 8.43082 13 13 11
-3.35729 1.91539 9.16261 13 13 11
-3.34628 1.91539 9.16261 13 13 11
-3.33527 1.91539 9.16261 12 12 10
-3.32427 1.91539 9.16261 10 9 7
-3.31326 1.91539 9.16261 10 9 7
-3.30226 1.91539 9.16261 10 9 7
-3.29125 1.91539 9.16261 11 10 8
-3.28024 1.91539 9.16261 12 11 9
-3.26924 1.91539 9.16261 12 11 9
-3.25823 1.91539 9.16261 13 12 10
-3.24723 1.91539 9.16261 14 13 11
-3.23622 1.91539 9.16261 19 18 16
-3.22521 1.91539 9.16261 19 18 16
-3.21421 1.91539 9.16261 19 18 16
-3.2032 1.91539 9.16261 19 18 16
-3.19219 1.91539 9.16261 19 18 16
-3.18119 1.91539 9.16261 18 17 15
-3.17018 1.91539 9.16261 15 14 12
-3.15918 1.91539 9.16261 14 13 11
-3.14817 1.91539 9.16261 16 16 14
-3.13716 1.91539 9.16261 16 16 14
-3.12616 1.91539 9.16261 16 16 14
-2.99583 1.84203 8.81166 15 15 13
-2.98525 1.84203 8.81166 14 14 12
-3.09314 1.91539 9.16261 13 13 11
-3.08213 1.91539 9.16261 13 13 11
-3.07113 1.91539 9.16261 12 12 10
-3.06012 1.91539 9.16261 11 11 9
-3.04911 1.91539 9.16261 11 11 9
-3.03811 1.91539 9.16261 11 11 9
-3.0271 1.91539 9.16261 11 11 9
-3.0161 1.91539 9.16261 9 9 7
-2.75008 1.75285 8.38509 6 6 4
-2.72994 1.75285 8.38509 9 9 7
-2.71987 1.75285 8.38509 9 9 7
-2.70979 1.75285 8.38509 10 10 8
-2.69972 1.75285 8.38509 10 10 8
-2.68965 1.75285 8.38509 11 11 9
-2.67958 1.75285 8.38509 12 12 10
-2.6695 1.75285 8.38509 13 13 11
-3.19185 2.10377 10.0638 13 13 11
-2.64936 1.75285 8.38509 10 10 8
-3.09669 2.17272 10.3936 19 19 11
-2.63577 2.10377 10.0638 20 21 16
-2.62368 2.10377 10.0638 20 21 16
-2.35699 1.97169 9.43194 13 13 11
-2.34566 1.97169 9.43194 14 14 12
-2.31116 2.01067 9.61839 11 11 9
-2.23237 1.97169 9.43194 15 15 13
-2.22104 1.97169 9.43194 15 15 13
-2.20971 1.97169 9.43194 13 13 11
-1.98983 1.78465 8.5372 12 12 10
-1.97958 1.78465 8.5372 11 11 9
-2.17572 1.97169 9.43194 13 13 11
-1.94881 1.78465 8.5372 16 16 14
-1.93856 1.78465 8.5372 17 17 15
-1.9283 1.78465 8.5372 18 18 16
-1.91805 1.78465 8.5372 19 19 17
-1.90779 1.78465 8.5372 19 19 17
-1.89754 1.78465 8.5372 20 20 18
-1.87703 1.78465 8.5372 20 20 18
-1.86677 1.78465 8.5372 19 19 17
-1.88584 1.81284 8.67202 19 19 17
-1.87542 1.81284 8.67202 17 17 15
-1.83601 1.78465 8.5372 15 15 13
-1.98974 1.94495 9.30401 13 13 11
-1.97857 1.94495 9.30401 12 12 10
-1.96739 1.94495 9.30401 17 17 15
-1.95621 1.94495 9.30401 17 17 15
-1.94504 1.94495 9.30401 17 17 15
-1.93386 1.94495 9.30401 17 17 15
-1.92269 1.94495 9.30401 17 17 15
-1.91151 1.94495 9.30401 16 16 14
-1.90033 1.94495 9.30401 15 15 13
-1.88916 1.94495 9.30401 15 15 13
-1.87798 1.94495 9.30401 16 16 14
-1.86681 1.94495 9.30401 17 17 15
-1.85563 1.94495 9.30401 18 18 16
-1.84445 1.94495 9.30401 18 18 16
-1.83328 1.94495 9.30401 18 18 16
-1.8221 1.94495 9.30401 18 18 16
-1.82445 1.95947 9.37349 18 18 16
-1.61274 1.74285 8.33722 19 19 17
-1.64117 1.78465 8.5372 22 21 17
-1.63091 1.78465 8.5372 19 18 14
-1.76622 1.94495 9.30401 17 16 12
-1.6104 1.78465 8.5372 19 18 14
-1.02324 2.11898 10.1365 21 20 18
-1.01106 2.11898 10.1365 21 20 18
-0.998883 2.11898 10.1365 20 19 17
-0.986707 2.11898 10.1365 20 19 17
-0.864947 2.11898 10.1365 20 20 18
-0.852771 2.11898 10.1365 20 20 18
-0.804066 2.11898 10.1365 15 15 13
-0.79189 2.11898 10.1365 14 14 12
-0.779714 2.11898 10.1365 13 13 11
-0.767538 2.11898 10.1365 14 16 13
-0.755362 2.11898 10.1365 14 16 13
-0.743186 2.11898 10.1365 15 17 14
-0.73101 2.11898 10.1365 16 18 15
-0.718834 2.11898 10.1365 15 17 14
-0.706658 2.11898 10.1365 13 15 12
-0.694482 2.11898 10.1365 11 13 10
-0.682306 2.11898 10.1365 10 12 9
-0.67013 2.11898 10.1365 7 9 6
-0.657954 2.11898 10.1365 8 10 7
-0.645778 2.11898 10.1365 9 11 8
-0.633602 2.11898 10.1365 9 11 8
-0.621426 2.11898 10.1365 10 12 9
-0.60925 2.11898 10.1365 10 12 9
-0.319125 1.91264 9.14946 11 13 10
-0.308134 1.91264 9.14946 12 14 11
0.183929 1.78192 8.52411 10 19 18
0.194168 1.78192 8.52411 9 18 17
-3.20428 1.70449 8.10715 8 8 6
-3.18062 1.69707 8.07184 9 9 7
-3.1848 1.70449 8.10715 9 9 7
-3.16123 1.69707 8.07184 10 10 8
-3.30317 1.77872 8.46023 8 8 6
-3.29301 1.77872 8.46023 9 9 7
-3.28285 1.77872 8.46023 10 10 8
-3.27269 1.77872 8.46023 11 11 9
-3.26252 1.77872 8.46023 11 11 9
-3.25236 1.77872 8.46023 11 11 9
-3.2422 1.77872 8.46023 11 11 9
-3.23204 1.77872 8.46023 10 10 8
-3.22187 1.77872 8.46023 11 11 9
-3.21171 1.77872 8.46023 12 12 10
-3.20155 1.77872 8.46023 12 12 10
-3.18029 1.77254 8.43082 12 12 10
-3.17017 1.77254 8.43082 13 13 11
-3.16004 1.77254 8.43082 14 14 12
-3.14991 1.77254 8.43082 15 15 13
-3.13978 1.77254 8.43082 10 10 8
-3.12966 1.77254 8.43082 10 10 8
-3.11953 1.77254 8.43082 12 12 10
-3.1094 1.77254 8.43082 13 13 11
-3.09928 1.77254 8.43082 14 14 12
-3.20752 1.85261 8.81166 15 15 13
-3.32427 1.9264 9.16261 12 11 9
-3.31326 1.9264 9.16261 11 10 8
-3.30226 1.9264 9.16261 11 10 8
-3.29125 1.9264 9.16261 12 11 9
-3.28024 1.9264 9.16261 12 11 9
-3.26924 1.9264 9.16261 12 11 9
-3.25823 1.9264 9.16261 13 12 10
-3.24723 1.9264 9.16261 14 13 11
-3.23622 1.9264 9.16261 19 18 16
-3.22521 1.9264 9.16261 20 19 17
-3.21421 1.9264 9.16261 21 20 18
-3.2032 1.9264 9.16261 21 20 18
-3.19219 1.9264 9.16261 20 19 17
-3.18119 1.9264 9.16261 19 18 16
-3.17018 1.9264 9.16261 18 17 15
-3.15918 1.9264 9.16261 16 15 13
-3.14817 1.9264 9.16261 18 18 16
-3.13716 1.9264 9.16261 18 18 16
-3.12616 1.9264 9.16261 18 18 16
-2.99583 1.85261 8.81166 17 17 15
-2.98525 1.85261 8.81166 17 17 15
-3.09314 1.9264 9.16261 16 16 14
-3.08213 1.9264 9.16261 16 16 14
-3.07113 1.9264 9.16261 15 15 13
-3.06012 1.9264 9.16261 14 14 12
-3.04911 1.9264 9.16261 12 12 10
-3.03811 1.9264 9.16261 11 11 9
-3.0271 1.9264 9.16261 11 11 9
-2.76015 1.76293 8.38509 10 10 8
-2.75008 1.76293 8.38509 9 9 7
-2.74001 1.76293 8.38509 7 7 5
-2.72994 1.76293 8.38509 11 11 9
-2.71987 1.76293 8.38509 11 11 9
-2.70979 1.76293 8.38509 11 11 9
-2.69972 1.76293 8.38509 11 11 9
-2.68965 1.76293 8.38509 12 12 10
-2.67958 1.76293 8.38509 13 13 11
-2.6695 1.76293 8.38509 14 14 12
-3.18408 2.1852 10.3936 16 19 10
-2.58359 1.98302 9.43194 27 22 18
-2.57226 1.98302 9.43194 27 22 18
-2.52694 1.98302 9.43194 20 21 16
-2.64724 2.1852 10.3936 14 15 10
-2.63475 2.1852 10.3936 13 14 9
-2.37965 1.98302 9.43194 13 14 9
-2.26636 1.98302 9.43194 13 13 11
-2.25503 1.98302 9.43194 14 14 12
-2.2437 1.98302 9.43194 16 16 14
-2.23237 1.98302 9.43194 18 18 16
-2.22104 1.98302 9.43194 18 18 16
-2.20971 1.98302 9.43194 17 17 15
-2.34564 2.11586 10.0638 16 16 14
-2.01084 1.82325 8.67202 15 15 13
-1.95907 1.79491 8.5372 16 15 11
-1.94881 1.79491 8.5372 17 16 12
-1.93856 1.79491 8.5372 17 16 12
-1.9283 1.79491 8.5372 18 17 13
-1.91805 1.79491 8.5372 19 18 14
-1.90779 1.79491 8.5372 20 19 15
-2.08278 1.97013 9.37063 20 19 15
-1.88728 1.79491 8.5372 16 15 11
-1.87703 1.79491 8.5372 18 17 13
-1.86677 1.79491 8.5372 21 20 16
-1.85652 1.79491 8.5372 22 21 17
-1.84626 1.79491 8.5372 21 20 16
-1.83601 1.79491 8.5372 20 19 15
-1.82575 1.79491 8.5372 17 16 12
-1.77297 1.75286 8.33722 14 13 9
-1.80524 1.79491 8.5372 17 16 14
-1.79499 1.79491 8.5372 19 18 16
-1.94504 1.95613 9.30401 21 20 18
-1.93386 1.95613 9.30401 21 20 18
-1.92269 1.95613 9.30401 19 18 16
-1.91151 1.95613 9.30401 16 16 14
-1.90033 1.95613 9.30401 15 15 13
-1.88916 1.95613 9.30401 14 14 12
-1.87798 1.95613 9.30401 16 16 14
-1.86681 1.95613 9.30401 17 17 15
-1.85563 1.95613 9.30401 18 18 16
-1.84445 1.95613 9.30401 19 19 17
-1.83328 1.95613 9.30401 19 19 17
-1.8221 1.95613 9.30401 19 19 17
-1.81093 1.95613 9.30401 19 19 17
-1.81319 1.97073 9.37349 19 19 17
-1.64117 1.79491 8.5372 24 23 19
-1.7774 1.95613 9.30401 21 20 16
-1.76622 1.95613 9.30401 20 16 13
-1.75505 1.95613 9.30401 21 17 14
-1.74387 1.95613 9.30401 24 20 17
-1.58989 1.79491 8.5372 26 22 19
-1.87901 2.14903 10.2215 21 16 13
-1.67028 2.14903 10.2215 26 22 19
-0.998883 1.80172 8.56961 24 21 16
-1.01669 1.85295 8.81325 22 18 17
-0.998883 2.13116 10.1365 21 20 18
-0.974531 2.13116 10.1365 19 18 16
-0.828419 2.13116 10.1365 21 20 18
-0.816243 2.13116 10.1365 20 19 17
-0.804066 2.13116 10.1365 18 17 15
-0.79189 2.13116 10.1365 17 16 14
-0.779714 2.13116 10.1365 17 16 14
-0.767538 2.13116 10.1365 16 18 15
-0.755362 2.13116 10.1365 17 19 16
-0.743186 2.13116 10.1365 19 21 18
-0.73101 2.13116 10.1365 19 21 18
-0.718834 2.13116 10.1365 18 20 17
-0.706658 2.13116 10.1365 16 18 15
-0.694482 2.13116 10.1365 14 16 13
-0.682306 2.13116 10.1365 12 14 11
-0.67013 2.13116 10.1365 11 13 10
-0.657954 2.13116 10.1365 10 12 9
-0.645778 2.13116 10.1365 10 12 9
-0.633602 2.13116 10.1365 10 12 9
-0.621426 2.13116 10.1365 10 12 9
-0.584898 2.13116 10.1365 11 13 10
-0.572722 2.13116 10.1365 14 16 13
0.17369 1.79216 8.52411 10 19 18
0.183929 1.79216 8.52411 10 19 18
0.194168 1.79216 8.52411 10 19 18
-3.57695 1.76849 8.36376 3 5 2
-3.54717 1.7587 8.31748 3 5 2
-3.494 1.75708 8.30982 3 5 2
-3.23616 1.67528 7.92294 3 5 2
-3.22375 1.71423 8.10715 7 7 5
-3.21401 1.71423 8.10715 9 9 7
-3.20428 1.71423 8.10715 10 10 8
-3.19454 1.71423 8.10715 10 10 8
-3.17506 1.71423 8.10715 11 11 9
-3.30317 1.78889 8.46023 10 10 8
-3.29301 1.78889 8.46023 11 11 9
-3.28285 1.78889 8.46023 11 11 9
-3.27269 1.78889 8.46023 11 11 9
-3.26252 1.78889 8.46023 11 11 9
-3.25236 1.78889 8.46023 11 11 9
-3.2422 1.78889 8.46023 11 11 9
-3.09715 1.71423 8.10715 8 8 6
-3.08741 1.71423 8.10715 9 9 7
-3.07768 1.71423 8.10715 10 10 8
-3.18029 1.78267 8.43082 13 13 11
-3.22774 1.81504 8.58393 14 14 12
-3.16004 1.78267 8.43082 15 15 13
-3.14991 1.78267 8.43082 17 17 15
-3.13978 1.78267 8.43082 11 11 9
-3.12966 1.78267 8.43082 12 12 10
-3.11953 1.78267 8.43082 13 13 11
-3.1094 1.78267 8.43082 15 15 13
-3.36829 1.9374 9.16261 16 16 14
-3.32427 1.9374 9.16261 13 12 10
-3.18635 1.8632 8.81166 13 12 10
-3.30226 1.9374 9.16261 12 11 9
-3.16519 1.8632 8.81166 12 11 9
-3.1546 1.8632 8.81166 13 12 10
-3.14402 1.8632 8.81166 13 12 10
-3.13343 1.8632 8.81166 13 12 10
-3.12285 1.8632 8.81166 14 13 11
-3.23622 1.9374 9.16261 18 17 15
-3.22521 1.9374 9.16261 19 18 16
-3.21421 1.9374 9.16261 20 19 17
-3.2032 1.9374 9.16261 21 20 18
-3.19219 1.9374 9.16261 21 20 18
-3.18119 1.9374 9.16261 21 20 18
-3.17018 1.9374 9.16261 20 19 17
-3.15918 1.9374 9.16261 20 19 17
-3.14817 1.9374 9.16261 20 20 18
-3.13716 1.9374 9.16261 20 20 18
-3.00642 1.8632 8.81166 20 20 18
-2.99583 1.8632 8.81166 19 19 17
-2.98525 1.8632 8.81166 19 19 17
-3.09314 1.9374 9.16261 18 18 16
-3.08213 1.9374 9.16261 18 18 16
-2.95349 1.8632 8.81166 17 17 15
-3.06012 1.9374 9.16261 15 15 13
-3.04911 1.9374 9.16261 13 13 11
-3.03811 1.9374 9.16261 11 11 9
-3.0271 1.9374 9.16261 11 11 9
-2.76015 1.773 8.38509 11 11 9
-2.75008 1.773 8.38509 11 11 9
-2.74001 1.773 8.38509 11 11 9
-2.72994 1.773 8.38509 13 13 11
-2.71987 1.773 8.38509 12 12 10
-2.70979 1.773 8.38509 12 12 10
-2.69972 1.773 8.38509 12 12 10
-2.68965 1.773 8.38509 13 13 11
-2.67958 1.773 8.38509 14 14 12
-2.6695 1.773 8.38509 15 15 13
-3.18408 2.19768 10.3936 17 20 11
-3.1716 2.19768 10.3936 17 20 11
-3.15911 2.19768 10.3936 18 21 12
-3.09669 2.19768 10.3936 18 18 10
-2.64724 2.19768 10.3936 17 18 13
-2.37965 1.99435 9.43194 17 18 13
-2.36832 1.99435 9.43194 18 19 14
-2.34566 1.99435 9.43194 17 17 15
-2.33433 1.99435 9.43194 18 18 16
-2.30034 1.99435 9.43194 15 15 13
-2.28901 1.99435 9.43194 13 13 11
-2.25503 1.99435 9.43194 14 14 12
-2.2437 1.99435 9.43194 17 17 15
-2.23237 1.99435 9.43194 19 19 17
-2.22104 1.99435 9.43194 20 20 18
-2.20971 1.99435 9.43194 19 19 17
-2.19838 1.99435 9.43194 18 18 16
-1.96932 1.80516 8.5372 18 17 13
-1.95907 1.80516 8.5372 18 17 13
-1.97959 1.83367 8.67202 18 17 13
-1.96917 1.83367 8.67202 19 18 14
-1.9283 1.80516 8.5372 19 18 14
-1.91805 1.80516 8.5372 19 18 14
-1.90779 1.80516 8.5372 19 18 14
-1.89754 1.80516 8.5372 19 18 14
-1.88728 1.80516 8.5372 18 17 13
-1.87703 1.80516 8.5372 19 18 14
-1.86677 1.80516 8.5372 21 20 16
-1.85652 1.80516 8.5372 21 20 16
-1.84626 1.80516 8.5372 21 20 16
-1.83601 1.80516 8.5372 20 19 15
-1.82575 1.80516 8.5372 18 17 13
-1.8155 1.80516 8.5372 16 15 11
-1.80524 1.80516 8.5372 21 20 18
-1.79499 1.80516 8.5372 22 21 19
-1.94504 1.9673 9.30401 24 23 21
-1.93386 1.9673 9.30401 23 22 20
-1.92269 1.9673 9.30401 20 19 17
-1.91151 1.9673 9.30401 18 17 15
-1.90033 1.9673 9.30401 17 16 14
-1.85288 1.92952 9.12533 16 15 13
-1.87798 1.9673 9.30401 18 17 15
-1.88075 1.98199 9.37349 18 17 15
-1.85563 1.9673 9.30401 19 18 16
-1.84445 1.9673 9.30401 20 19 17
-1.83328 1.9673 9.30401 20 19 17
-1.8221 1.9673 9.30401 19 18 16
-1.81093 1.9673 9.30401 18 17 15
-1.79975 1.9673 9.30401 17 16 14
-1.78857 1.9673 9.30401 19 21 16
-1.7774 1.9673 9.30401 19 21 16
-1.76622 1.9673 9.30401 20 21 16
-1.75505 1.9673 9.30401 20 21 16
-1.74387 1.9673 9.30401 21 22 17
-1.73269 1.9673 9.30401 24 23 19
-1.72152 1.9673 9.30401 25 24 20
-1.57626 2.02476 9.57576 32 25 17
-0.981928 1.94131 9.18107 19 15 14
-0.852771 2.14334 10.1365 27 23 22
-0.840595 2.14334 10.1365 26 22 21
-0.828419 2.14334 10.1365 25 21 20
-0.816243 2.14334 10.1365 23 19 18
-0.804066 2.14334 10.1365 22 18 17
-0.79189 2.14334 10.1365 21 17 16
-0.779714 2.14334 10.1365 20 16 15
-0.767538 2.14334 10.1365 17 19 16
-0.755362 2.14334 10.1365 18 20 17
-0.743186 2.14334 10.1365 20 22 19
-0.73101 2.14334 10.1365 20 22 19
-0.718834 2.14334 10.1365 19 21 18
-0.706658 2.14334 10.1365 17 19 16
-0.694482 2.14334 10.1365 14 16 13
-0.682306 2.14334 10.1365 12 14 11
-0.67013 2.14334 10.1365 13 15 12
-0.657954 2.14334 10.1365 12 14 11
-0.645778 2.14334 10.1365 11 13 10
-0.633602 2.14334 10.1365 10 12 9
-0.621426 2.14334 10.1365 10 12 9
-0.60925 2.14334 10.1365 10 12 9
-0.597074 2.14334 10.1365 11 13 10
-0.584898 2.14334 10.1365 11 13 10
-0.572722 2.14334 10.1365 15 17 14
0.0103027 1.88277 8.90421 14 23 22
0.156885 1.72999 8.18167 9 18 17
0.17369 1.80239 8.52411 11 20 19
0.183929 1.80239 8.52411 11 20 19
0.194168 1.80239 8.52411 11 20 19
-3.52466 1.75253 8.24148 3 5 2
-3.45789 1.72418 8.10812 3 5 2
-3.38765 1.69872 7.98844 3 5 2
-3.37806 1.69872 7.98844 3 5 2
-3.26458 1.67013 7.85395 4 6 3
-3.31089 1.69872 7.98844 4 6 3
-3.24571 1.67013 7.85395 5 7 4
-3.23616 1.6848 7.92294 5 7 4
-3.21401 1.72397 8.10715 10 10 8
-3.20428 1.72397 8.10715 11 11 9
-3.19454 1.72397 8.10715 12 12 10
-3.1848 1.72397 8.10715 12 12 10
-3.31334 1.79905 8.46023 13 13 11
-3.30317 1.79905 8.46023 11 11 9
-3.29301 1.79905 8.46023 12 12 10
-3.28285 1.79905 8.46023 12 12 10
-3.27269 1.79905 8.46023 12 12 10
-3.26252 1.79905 8.46023 12 12 10
-3.25236 1.79905 8.46023 11 11 9
-3.2422 1.79905 8.46023 12 12 10
-3.32253 1.84942 8.69711 6 6 4
-3.31208 1.84942 8.69711 7 7 5
-3.18029 1.7928 8.43082 12 12 10
-3.17017 1.7928 8.43082 13 13 11
-3.16004 1.7928 8.43082 15 15 13
-3.14991 1.7928 8.43082 16 16 14
-3.13978 1.7928 8.43082 14 14 12
-3.11953 1.7928 8.43082 16 16 14
-3.1094 1.7928 8.43082 17 17 15
-3.36829 1.94841 9.16261 18 18 16
-3.35729 1.94841 9.16261 18 18 16
-3.34628 1.94841 9.16261 18 18 16
-3.33527 1.94841 9.16261 18 18 16
-3.31326 1.94841 9.16261 15 14 12
-3.30226 1.94841 9.16261 14 13 11
-3.29125 1.94841 9.16261 14 13 11
-3.28024 1.94841 9.16261 15 14 12
-3.26924 1.94841 9.16261 15 14 12
-3.25823 1.94841 9.16261 15 14 12
-3.24723 1.94841 9.16261 16 15 13
-3.23622 1.94841 9.16261 18 17 15
-3.22521 1.94841 9.16261 19 18 16
-3.21421 1.94841 9.16261 19 18 16
-3.2032 1.94841 9.16261 19 18 16
-3.19219 1.94841 9.16261 19 18 16
-3.18119 1.94841 9.16261 20 19 17
-3.17018 1.94841 9.16261 21 20 18
-3.15918 1.94841 9.16261 21 20 18
-3.14817 1.94841 9.16261 20 20 18
-3.13716 1.94841 9.16261 20 20 18
-3.12616 1.94841 9.16261 20 20 18
-3.11515 1.94841 9.16261 20 20 18
-3.10415 1.94841 9.16261 19 19 17
-3.09314 1.94841 9.16261 19 19 17
-3.08213 1.94841 9.16261 19 19 17
-3.06012 1.94841 9.16261 16 16 14
-3.04911 1.94841 9.16261 13 13 11
-3.03811 1.94841 9.16261 11 11 9
-3.0271 1.94841 9.16261 10 10 8
-2.76015 1.78307 8.38509 11 11 9
-2.75008 1.78307 8.38509 13 13 11
-2.74001 1.78307 8.38509 15 15 13
-2.75415 1.79889 8.45946 14 14 12
-2.74399 1.79889 8.45946 13 13 11
-2.70979 1.78307 8.38509 13 13 11
-2.69972 1.78307 8.38509 12 12 10
-2.68965 1.78307 8.38509 13 13 11
-2.67958 1.78307 8.38509 14 14 12
-2.6695 1.78307 8.38509 16 16 14
-2.65943 1.78307 8.38509 17 17 15
-3.17976 2.14004 10.0638 17 17 15
-3.18408 2.21017 10.3936 17 20 13
-3.1716 2.21017 10.3936 17 20 13
-3.15911 2.21017 10.3936 18 21 14
-2.78752 2.00568 9.43194 19 18 13
-2.77619 2.00568 9.43194 22 19 14
-2.76486 2.00568 9.43194 22 19 14
-2.94687 2.21017 10.3936 28 24 21
-2.37965 2.00568 9.43194 20 21 16
-2.36832 2.00568 9.43194 22 23 18
-2.35699 2.00568 9.43194 20 20 18
-2.34566 2.00568 9.43194 20 20 18
-2.30334 1.97905 9.30672 21 21 19
-2.29216 1.97905 9.30672 20 20 18
-2.28098 1.97905 9.30672 19 19 17
-2.2698 1.97905 9.30672 17 17 15
-2.28901 2.00568 9.43194 16 16 14
-2.27768 2.00568 9.43194 15 15 13
-2.41817 2.14004 10.0638 13 13 11
-2.20971 2.00568 9.43194 20 20 18
-2.19838 2.00568 9.43194 19 19 17
-2.18705 2.00568 9.43194 19 19 17
-1.96932 1.81542 8.5372 19 18 14
-1.95907 1.81542 8.5372 19 18 14
-1.99159 1.85527 8.72459 20 19 15
-1.9283 1.81542 8.5372 20 19 15
-1.91805 1.81542 8.5372 20 19 15
-1.90779 1.81542 8.5372 19 18 14
-1.87703 1.81542 8.5372 21 20 16
-1.86677 1.81542 8.5372 21 20 16
-1.85652 1.81542 8.5372 20 19 15
-1.83601 1.81542 8.5372 20 19 15
-1.82575 1.81542 8.5372 20 19 15
-1.97857 1.97848 9.30401 19 18 14
-1.80524 1.81542 8.5372 25 24 22
-1.79499 1.81542 8.5372 26 25 23
-1.94504 1.97848 9.30401 27 26 24
-1.93386 1.97848 9.30401 26 25 23
-1.92269 1.97848 9.30401 23 22 20
-1.91151 1.97848 9.30401 20 19 17
-1.90033 1.97848 9.30401 20 19 17
-1.88916 1.97848 9.30401 20 19 17
-1.89201 1.99325 9.37349 15 14 12
-1.88075 1.99325 9.37349 16 15 13
-1.86949 1.99325 9.37349 17 16 14
-1.85823 1.99325 9.37349 18 17 15
-1.84697 1.99325 9.37349 19 18 16
-1.8221 1.97848 9.30401 19 18 16
-1.81093 1.97848 9.30401 19 18 16
-1.79975 1.97848 9.30401 18 17 15
-1.78857 1.97848 9.30401 18 19 14
-1.7774 1.97848 9.30401 18 19 14
-1.76622 1.97848 9.30401 19 20 15
-1.75505 1.97848 9.30401 20 21 16
-1.74387 1.97848 9.30401 21 22 17
-1.73269 1.97848 9.30401 23 22 18
-1.72152 1.97848 9.30401 24 23 19
-1.71034 1.97848 9.30401 26 22 19
-1.55913 1.81542 8.5372 23 19 16
-1.401 1.95234 9.18107 24 20 17
-1.38998 1.95234 9.18107 24 20 17
-0.938003 2.15551 10.1365 20 19 15
-0.925827 2.15551 10.1365 21 20 16
-0.913651 2.15551 10.1365 22 21 17
-0.864947 2.15551 10.1365 26 25 21
-0.852771 2.15551 10.1365 26 25 21
-0.840595 2.15551 10.1365 26 25 21
-0.828419 2.15551 10.1365 25 24 20
-0.816243 2.15551 10.1365 23 22 18
-0.804066 2.15551 10.1365 21 20 16
-0.79189 2.15551 10.1365 19 18 14
-0.779714 2.15551 10.1365 18 17 13
-0.767538 2.15551 10.1365 18 19 14
-0.755362 2.15551 10.1365 18 19 14
-0.743186 2.15551 10.1365 17 18 13
-0.73101 2.15551 10.1365 16 17 12
-0.718834 2.15551 10.1365 15 16 11
-0.706658 2.15551 10.1365 14 15 10
-0.67013 2.15551 10.1365 14 15 10
-0.657954 2.15551 10.1365 14 15 10
-0.63574 2.12201 9.97896 13 14 9
-0.633602 2.15551 10.1365 12 13 8
-0.17625 1.94561 9.14946 25 27 24
0.00946672 1.73982 8.18167 18 23 19
0.163451 1.81263 8.52411 13 18 14
-4.15844 1.72153 8.05023 6 6 6
-4.14877 1.72153 8.05023 6 6 6
-4.19907 1.74648 8.16686 6 6 6
-4.31235 1.79779 8.40682 6 6 6
-4.1845 1.74859 8.17673 6 6 6
-4.34539 1.82009 8.51108 6 6 4
-4.27382 1.82009 8.51108 3 5 2
-4.2636 1.82009 8.51108 3 5 2
-4.25337 1.82009 8.51108 3 5 2
-4.24315 1.82009 8.51108 3 5 2
-4.23293 1.82009 8.51108 3 5 2
-4.2227 1.82009 8.51108 3 5 2
-4.21248 1.82009 8.51108 3 5 2
-4.20226 1.82009 8.51108 3 5 2
-3.50417 1.75219 8.19357 3 5 2
-3.49433 1.75219 8.19357 3 5 2
-3.21401 1.73371 8.10715 11 11 9
-3.20428 1.73371 8.10715 12 12 10
-3.19454 1.73371 8.10715 13 13 11
-3.3235 1.80921 8.46023 14 14 12
-3.31334 1.80921 8.46023 15 15 13
-3.30317 1.80921 8.46023 13 13 11
-3.30449 1.81552 8.48972 13 13 11
-3.29429 1.81552 8.48972 13 13 11
-3.27269 1.80921 8.46023 13 13 11
-3.26252 1.80921 8.46023 12 12 10
-3.25236 1.80921 8.46023 12 12 10
-3.21067 1.80292 8.43082 8 8 6
-3.20055 1.80292 8.43082 9 9 7
-3.19042 1.80292 8.43082 10 10 8
-3.18029 1.80292 8.43082 11 11 9
-3.18122 1.80921 8.46023 13 13 11
-3.17106 1.80921 8.46023 14 14 12
-3.1609 1.80921 8.46023 15 15 13
-3.16172 1.81552 8.48972 17 17 15
-3.15152 1.81552 8.48972 18 18 16
-3.13041 1.80921 8.46023 18 18 16
-3.12025 1.80921 8.46023 19 19 17
-3.36829 1.95942 9.16261 19 19 17
-3.35729 1.95942 9.16261 19 19 17
-3.34628 1.95942 9.16261 18 18 16
-3.32427 1.95942 9.16261 18 17 15
-3.31326 1.95942 9.16261 17 16 14
-3.30226 1.95942 9.16261 17 16 14
-3.29125 1.95942 9.16261 18 17 15
-3.28024 1.95942 9.16261 18 17 15
-3.26924 1.95942 9.16261 18 17 15
-3.25823 1.95942 9.16261 19 18 16
-3.24723 1.95942 9.16261 20 19 17
-3.23622 1.95942 9.16261 19 18 16
-3.22521 1.95942 9.16261 19 18 16
-3.21421 1.95942 9.16261 19 18 16
-3.2032 1.95942 9.16261 18 17 15
-3.19219 1.95942 9.16261 18 17 15
-3.18119 1.95942 9.16261 19 18 16
-3.17018 1.95942 9.16261 20 19 17
-3.15918 1.95942 9.16261 21 20 18
-3.02759 1.88436 8.81166 19 19 17
-3.017 1.88436 8.81166 19 19 17
-3.12616 1.95942 9.16261 19 19 17
-3.11515 1.95942 9.16261 19 19 17
-3.10415 1.95942 9.16261 19 19 17
-3.09314 1.95942 9.16261 18 18 16
-3.08213 1.95942 9.16261 18 18 16
-3.07113 1.95942 9.16261 19 19 17
-3.06012 1.95942 9.16261 17 17 15
-3.04911 1.95942 9.16261 15 15 13
-3.03811 1.95942 9.16261 12 12 10
-3.0271 1.95942 9.16261 12 12 10
-3.0161 1.95942 9.16261 14 14 12
-2.75008 1.79314 8.38509 16 16 14
-2.76431 1.80905 8.45946 18 18 16
-2.72994 1.79314 8.38509 15 15 13
-2.71987 1.79314 8.38509 15 15 13
-2.70979 1.79314 8.38509 14 14 12
-2.69972 1.79314 8.38509 14 14 12
-2.68965 1.79314 8.38509 14 14 12
-2.67958 1.79314 8.38509 15 15 13
-2.6695 1.79314 8.38509 16 16 14
-2.65943 1.79314 8.38509 17 17 15
-2.63929 1.79314 8.38509 19 19 17
-2.62922 1.79314 8.38509 19 19 17
-2.61914 1.79314 8.38509 20 20 18
-3.00122 2.15413 10.0731 22 23 17
-2.79885 2.01701 9.43194 22 21 16
-2.88445 2.22265 10.3936 26 22 19
-2.87196 2.22265 10.3936 28 24 21
-2.63967 2.107 9.85274 21 22 17
-2.70966 2.22265 10.3936 20 21 16
-2.44763 2.01701 9.43194 23 24 19
-2.4363 2.01701 9.43194 22 23 18
-2.42497 2.01701 9.43194 20 21 16
-2.41364 2.01701 9.43194 20 21 16
-2.40231 2.01701 9.43194 20 21 16
-2.37965 2.01701 9.43194 22 23 18
-2.36832 2.01701 9.43194 24 25 20
-2.35699 2.01701 9.43194 23 23 21
-2.34566 2.01701 9.43194 22 22 20
-2.33433 2.01701 9.43194 22 22 20
-2.323 2.01701 9.43194 21 21 19
-2.31167 2.01701 9.43194 20 20 18
-2.30034 2.01701 9.43194 18 18 16
-2.28901 2.01701 9.43194 17 17 15
-2.27768 2.01701 9.43194 17 17 15
-2.26636 2.01701 9.43194 15 15 13
-2.0206 1.82567 8.5372 19 19 17
-2.01034 1.82567 8.5372 19 19 17
-2.00009 1.82567 8.5372 18 18 16
-1.99159 1.86575 8.72459 20 19 15
-1.98111 1.86575 8.72459 22 21 17
-1.9283 1.82567 8.5372 22 21 17
-1.91805 1.82567 8.5372 22 21 17
-1.90779 1.82567 8.5372 22 21 17
-1.86677 1.82567 8.5372 20 19 15
-1.85652 1.82567 8.5372 19 18 14
-1.83601 1.82567 8.5372 20 19 15
-1.82575 1.82567 8.5372 21 20 16
-1.8155 1.82567 8.5372 21 20 16
-1.80524 1.82567 8.5372 25 24 22
-1.95621 1.98965 9.30401 27 26 24
-1.94504 1.98965 9.30401 28 27 25
-1.93386 1.98965 9.30401 27 26 24
-1.92269 1.98965 9.30401 25 24 22
-1.91151 1.98965 9.30401 23 22 20
-1.90033 1.98965 9.30401 24 23 21
-1.88916 1.98965 9.30401 25 24 22
-1.87798 1.98965 9.30401 20 19 17
-1.86681 1.98965 9.30401 21 20 18
-1.85563 1.98965 9.30401 18 17 15
-1.85823 2.00451 9.37349 19 18 16
-1.84697 2.00451 9.37349 19 18 16
-1.83571 2.00451 9.37349 19 18 16
-1.82445 2.00451 9.37349 19 18 16
-1.78857 1.98965 9.30401 17 18 13
-1.7774 1.98965 9.30401 18 19 14
-1.76622 1.98965 9.30401 18 19 14
-1.75505 1.98965 9.30401 20 19 15
-1.74387 1.98965 9.30401 21 20 16
-1.73269 1.98965 9.30401 22 21 17
-1.72152 1.98965 9.30401 24 20 17
-1.71034 1.98965 9.30401 24 20 17
-1.69917 1.98965 9.30401 22 17 14
-1.68799 1.98965 9.30401 23 18 15
-1.62227 2.04777 9.57576 32 25 17
-1.61077 2.04777 9.57576 31 24 16
-1.55325 2.04777 9.57576 35 28 20
-1.54175 2.04777 9.57576 35 28 20
-1.53025 2.04777 9.57576 33 26 18
-1.41203 1.96336 9.18107 24 20 17
-1.401 1.96336 9.18107 24 20 17
-1.38998 1.96336 9.18107 24 20 17
-1.12241 1.8326 8.56961 25 20 17
-1.11212 1.8326 8.56961 24 19 16
-1.25184 2.14217 10.0172 21 16 13
-1.23981 2.14217 10.0172 22 17 14
-0.925827 2.16769 10.1365 20 19 15
-0.913651 2.16769 10.1365 21 20 16
-0.864947 2.16769 10.1365 25 24 20
-0.852771 2.16769 10.1365 25 24 20
-0.840595 2.16769 10.1365 24 23 19
-0.828419 2.16769 10.1365 24 23 19
-0.816243 2.16769 10.1365 23 22 18
-0.804066 2.16769 10.1365 22 21 17
-0.79189 2.16769 10.1365 22 21 17
-0.779714 2.16769 10.1365 21 20 16
-0.767538 2.16769 10.1365 19 20 15
-0.755362 2.16769 10.1365 18 19 14
-0.743186 2.16769 10.1365 18 19 14
-0.73101 2.16769 10.1365 17 18 13
-0.718834 2.16769 10.1365 16 17 12
-0.706658 2.16769 10.1365 15 16 11
-0.694482 2.16769 10.1365 15 16 11
-0.67013 2.16769 10.1365 16 17 12
-0.657954 2.16769 10.1365 15 16 11
-0.645778 2.16769 10.1365 14 15 10
-0.633602 2.16769 10.1365 13 14 9
-0.611766 2.13399 9.97896 13 14 9
-0.60925 2.16769 10.1365 13 14 9
-0.597074 2.16769 10.1365 14 15 10
-0.584898 2.16769 10.1365 14 15 10
-0.572722 2.16769 10.1365 15 17 14
-0.17625 1.9566 9.14946 20 22 19
0.163451 1.82287 8.52411 14 18 17
1.20186 1.79859 8.41055 3 5 2
-4.28098 1.77808 8.26821 6 6 6
-4.15844 1.7312 8.05023 6 6 6
-4.14877 1.7312 8.05023 6 6 6
-4.1391 1.7312 8.05023 6 6 6
-4.12943 1.7312 8.05023 6 6 6
-4.07707 1.71326 7.9668 6 6 6
-4.06894 1.71387 7.96961 5 5 5
-4.28716 1.81004 8.41683 5 5 5
-4.0822 1.77802 8.26792 5 5 3
-3.59073 1.76588 8.21147 3 5 2
-3.50417 1.76203 8.19357 5 7 4
-3.49433 1.76203 8.19357 4 6 3
-3.53067 1.78538 8.30217 3 5 2
-3.40816 1.7582 8.17574 6 8 5
-3.39834 1.7582 8.17574 7 9 6
-3.23398 1.73327 8.05982 7 9 6
-3.20428 1.74345 8.10715 13 13 11
-3.19454 1.74345 8.10715 15 15 13
-3.1848 1.74345 8.10715 17 17 15
-3.31334 1.81937 8.46023 17 17 15
-3.13214 1.73585 8.07184 15 15 13
-3.2841 1.82572 8.48972 14 14 12
-3.26252 1.81937 8.46023 13 13 11
-3.25236 1.81937 8.46023 11 11 9
-3.2422 1.81937 8.46023 11 11 9
-3.09715 1.74345 8.10715 9 9 7
-3.22187 1.81937 8.46023 10 10 8
-3.21171 1.81937 8.46023 11 11 9
-3.20155 1.81937 8.46023 12 12 10
-3.19139 1.81937 8.46023 13 13 11
-3.18122 1.81937 8.46023 14 14 12
-3.17106 1.81937 8.46023 15 15 13
-3.02898 1.74345 8.10715 16 16 14
-3.15074 1.81937 8.46023 19 19 17
-3.14057 1.81937 8.46023 20 20 18
-3.13041 1.81937 8.46023 20 20 18
-3.36829 1.97042 9.16261 20 20 18
-3.35429 1.96867 9.15444 19 19 17
-3.32427 1.97042 9.16261 20 19 17
-3.31326 1.97042 9.16261 19 18 16
-3.30226 1.97042 9.16261 19 18 16
-3.29125 1.97042 9.16261 20 19 17
-3.28024 1.97042 9.16261 21 20 18
-3.26924 1.97042 9.16261 21 20 18
-3.25823 1.97042 9.16261 23 22 20
-3.24723 1.97042 9.16261 24 23 21
-3.23622 1.97042 9.16261 22 21 19
-3.22521 1.97042 9.16261 21 20 18
-3.21421 1.97042 9.16261 20 19 17
-3.2032 1.97042 9.16261 19 18 16
-3.19219 1.97042 9.16261 19 18 16
-3.18119 1.97042 9.16261 20 19 17
-3.17018 1.97042 9.16261 20 19 17
-3.03817 1.89495 8.81166 21 20 18
-3.02759 1.89495 8.81166 19 19 17
-3.017 1.89495 8.81166 19 19 17
-3.00642 1.89495 8.81166 18 18 16
-3.11515 1.97042 9.16261 18 18 16
-3.10415 1.97042 9.16261 18 18 16
-3.09314 1.97042 9.16261 17 17 15
-2.96408 1.89495 8.81166 17 17 15
-2.95349 1.89495 8.81166 19 19 17
-3.06012 1.97042 9.16261 18 18 16
-3.04911 1.97042 9.16261 17 17 15
-3.03811 1.97042 9.16261 16 16 14
-3.0271 1.97042 9.16261 16 16 14
-3.0161 1.97042 9.16261 17 17 15
-2.75008 1.80322 8.38509 19 19 17
-2.76431 1.81921 8.45946 21 21 19
-2.72994 1.80322 8.38509 18 18 16
-2.71987 1.80322 8.38509 17 17 15
-2.67958 1.80322 8.38509 17 17 15
-2.69318 1.81921 8.45946 18 18 16
-2.68302 1.81921 8.45946 18 18 16
-2.64936 1.80322 8.38509 19 19 17
-2.63929 1.80322 8.38509 19 19 17
-2.62922 1.80322 8.38509 20 20 18
-2.61914 1.80322 8.38509 21 21 19
-2.60907 1.80322 8.38509 21 21 19
-2.599 1.80322 8.38509 21 21 19
-3.00122 2.16623 10.0731 23 22 18
-2.88445 2.23514 10.3936 28 24 21
-2.80954 2.23514 10.3936 29 25 22
-2.79705 2.23514 10.3936 28 24 21
-2.51561 2.02834 9.43194 19 20 15
-2.70966 2.23514 10.3936 18 19 14
-2.6282 2.17798 10.1278 21 22 17
-2.4363 2.02834 9.43194 20 21 16
-2.42497 2.02834 9.43194 19 20 15
-2.41364 2.02834 9.43194 19 20 15
-2.40231 2.02834 9.43194 19 20 15
-2.39098 2.02834 9.43194 20 21 16
-2.37965 2.02834 9.43194 21 22 17
-2.36832 2.02834 9.43194 23 24 19
-2.35699 2.02834 9.43194 23 23 21
-2.34566 2.02834 9.43194 22 22 20
-2.33433 2.02834 9.43194 21 21 19
-2.323 2.02834 9.43194 20 20 18
-2.31167 2.02834 9.43194 19 19 17
-2.30034 2.02834 9.43194 18 18 16
-2.28901 2.02834 9.43194 18 18 16
-2.27768 2.02834 9.43194 17 17 15
-2.25503 2.02834 9.43194 18 18 16
-2.0206 1.83593 8.5372 19 19 17
-2.01034 1.83593 8.5372 18 18 16
-2.00009 1.83593 8.5372 16 16 14
-2.0249 1.87796 8.73266 12 12 10
-2.16439 2.02834 9.43194 16 15 11
-1.99159 1.87623 8.72459 19 18 14
-1.98111 1.87623 8.72459 22 21 17
-1.92871 1.87623 8.72459 22 21 17
-1.85652 1.83593 8.5372 18 17 13
-1.82575 1.83593 8.5372 20 19 15
-1.8155 1.83593 8.5372 21 20 16
-1.80524 1.83593 8.5372 23 22 20
-1.79499 1.83593 8.5372 24 23 21
-1.93386 2.00083 9.30401 25 24 22
-1.92269 2.00083 9.30401 24 23 21
-1.91151 2.00083 9.30401 25 24 22
-1.90033 2.00083 9.30401 27 26 24
-1.87798 2.00083 9.30401 23 22 20
-1.86681 2.00083 9.30401 24 23 21
-1.85563 2.00083 9.30401 26 25 23
-1.84445 2.00083 9.30401 23 22 20
-1.83328 2.00083 9.30401 23 22 20
-1.8221 2.00083 9.30401 23 22 20
-1.81093 2.00083 9.30401 22 21 19
-1.79975 2.00083 9.30401 22 21 19
-1.78857 2.00083 9.30401 21 20 16
-1.7774 2.00083 9.30401 21 20 16
-1.76622 2.00083 9.30401 21 20 16
-1.75505 2.00083 9.30401 21 20 16
-1.74387 2.00083 9.30401 21 20 16
-1.58989 1.83593 8.5372 23 19 16
-1.7718 2.05927 9.57576 23 19 16
-1.7603 2.05927 9.57576 24 19 16
-1.69917 2.00083 9.30401 25 20 17
-1.68799 2.00083 9.30401 26 21 18
-1.67681 2.00083 9.30401 29 21 19
-1.62227 2.05927 9.57576 33 26 20
-1.59926 2.05927 9.57576 34 27 21
-1.56476 2.05927 9.57576 38 31 25
-1.55325 2.05927 9.57576 37 30 24
-1.54175 2.05927 9.57576 36 29 23
-1.53025 2.05927 9.57576 33 26 20
-1.51875 2.05927 9.57576 32 25 19
-1.50724 2.05927 9.57576 31 24 18
-1.49574 2.05927 9.57576 30 23 17
-1.48424 2.05927 9.57576 29 22 16
-1.41203 1.97439 9.18107 25 21 18
-1.401 1.97439 9.18107 25 21 18
-1.38998 1.97439 9.18107 25 21 18
-1.33483 1.97439 9.18107 25 21 18
-1.12241 1.8429 8.56961 21 17 14
-1.01159 2.08076 9.67571 18 19 14
-0.828419 2.17986 10.1365 22 21 17
-0.816243 2.17986 10.1365 22 21 17
-0.804066 2.17986 10.1365 23 22 18
-0.79189 2.17986 10.1365 24 23 19
-0.779714 2.17986 10.1365 25 24 20
-0.767538 2.17986 10.1365 20 21 16
-0.755362 2.17986 10.1365 19 20 15
-0.743186 2.17986 10.1365 19 20 15
-0.73101 2.17986 10.1365 18 19 14
-0.718834 2.17986 10.1365 18 19 14
-0.706658 2.17986 10.1365 17 18 13
-0.694482 2.17986 10.1365 17 18 13
-0.682306 2.17986 10.1365 16 17 12
-0.67013 2.17986 10.1365 18 19 14
-0.657954 2.17986 10.1365 17 18 13
-0.645778 2.17986 10.1365 16 17 12
-0.633602 2.17986 10.1365 15 16 11
-0.611766 2.14598 9.97896 15 16 11
-0.60925 2.17986 10.1365 16 17 12
-0.597074 2.17986 10.1365 16 17 12
-0.584898 2.17986 10.1365 17 18 13
-0.572722 2.17986 10.1365 17 19 16
-0.560546 2.17986 10.1365 17 19 16
-0.231202 1.96759 9.14946 22 24 21
-0.220211 1.96759 9.14946 21 23 20
-0.209221 1.96759 9.14946 20 22 19
0.163451 1.83311 8.52411 14 18 17
-4.28098 1.78801 8.26821 7 7 9
-4.29235 1.79693 8.30945 7 7 9
-4.28237 1.79693 8.30945 7 7 9
-4.27239 1.79693 8.30945 7 7 9
-4.26241 1.79693 8.30945 7 7 9
-4.15986 1.75782 8.12858 7 7 9
-4.06174 1.74087 8.05023 4 4 4
-4.05207 1.74087 8.05023 4 4 4
-4.05689 1.74711 8.07907 5 5 5
-4.13186 1.78795 8.26792 4 4 4
-4.12192 1.78795 8.26792 4 4 4
-4.11199 1.78795 8.26792 4 4 4
-4.10206 1.78795 8.26792 5 5 5
-4.02792 1.76418 8.15799 6 6 6
-4.00832 1.76418 8.15799 4 4 4
-3.91839 1.73734 8.03387 4 4 4
-3.90874 1.73734 8.03387 4 4 4
-4.00275 1.78795 8.26792 6 6 6
-3.86079 1.73314 8.01446 5 5 5
-3.94343 1.77467 8.20649 4 4 4
-3.83666 1.73094 8.0043 4 4 4
-3.35905 1.76802 8.17574 6 8 3
-3.34923 1.76802 8.17574 10 12 7
-3.19454 1.75318 8.10715 16 16 14
-3.1848 1.75318 8.10715 18 18 16
-3.17506 1.75318 8.10715 19 19 17
-3.14184 1.74555 8.07184 17 17 15
-3.13214 1.74555 8.07184 16 16 14
-3.12245 1.74555 8.07184 15 15 13
-3.26252 1.82954 8.46023 14 14 12
-3.25236 1.82954 8.46023 11 11 9
-3.2422 1.82954 8.46023 10 10 8
-3.08366 1.74555 8.07184 10 10 8
-3.40131 1.98143 9.16261 21 21 19
-3.32427 1.98143 9.16261 22 18 17
-3.31326 1.98143 9.16261 22 18 17
-3.30226 1.98143 9.16261 22 18 17
-3.29125 1.98143 9.16261 23 19 18
-3.28024 1.98143 9.16261 24 20 19
-3.26924 1.98143 9.16261 25 21 20
-3.25823 1.98143 9.16261 26 22 21
-3.24723 1.98143 9.16261 28 24 23
-3.23622 1.98143 9.16261 27 23 22
-3.22521 1.98143 9.16261 25 21 20
-3.21421 1.98143 9.16261 23 19 18
-3.2032 1.98143 9.16261 22 18 17
-3.19219 1.98143 9.16261 22 18 17
-3.18119 1.98143 9.16261 23 19 18
-3.17018 1.98143 9.16261 23 19 18
-3.11515 1.98143 9.16261 18 18 16
-3.10415 1.98143 9.16261 18 18 16
-2.97466 1.90553 8.81166 17 17 15
-2.96408 1.90553 8.81166 17 17 15
-2.95349 1.90553 8.81166 20 20 18
-3.06012 1.98143 9.16261 20 20 18
-3.04911 1.98143 9.16261 20 20 18
-3.03811 1.98143 9.16261 21 21 19
-3.0271 1.98143 9.16261 21 21 19
-3.0161 1.98143 9.16261 22 22 20
-2.88999 1.90553 8.81166 23 23 21
-2.8794 1.90553 8.81166 23 23 21
-2.72994 1.81329 8.38509 22 22 20
-2.71987 1.81329 8.38509 21 21 19
-2.67958 1.81329 8.38509 20 20 18
-2.69318 1.82937 8.45946 21 21 19
-2.68302 1.82937 8.45946 21 21 19
-2.64936 1.81329 8.38509 19 19 17
-2.63929 1.81329 8.38509 19 19 17
-2.62922 1.81329 8.38509 21 21 19
-2.61914 1.81329 8.38509 22 22 20
-2.60907 1.81329 8.38509 22 22 20
-2.599 1.81329 8.38509 22 22 20
-2.58893 1.81329 8.38509 22 22 20
-2.57886 1.81329 8.38509 22 22 20
-3.13414 2.24762 10.3936 23 24 19
-2.73087 2.03967 9.43194 31 27 24
-2.71954 2.03967 9.43194 33 28 25
-2.64024 2.03967 9.43194 29 25 22
-2.61758 2.03967 9.43194 30 26 23
-2.60625 2.03967 9.43194 31 27 24
-2.59492 2.03967 9.43194 33 29 26
-2.58359 2.03967 9.43194 34 30 27
-2.57226 2.03967 9.43194 32 28 25
-2.80954 2.24762 10.3936 30 26 23
-2.79705 2.24762 10.3936 29 25 22
-2.52694 2.03967 9.43194 25 26 21
-2.51561 2.03967 9.43194 23 24 19
-2.50428 2.03967 9.43194 21 22 17
-2.49295 2.03967 9.43194 21 22 17
-2.48162 2.03967 9.43194 20 21 16
-2.47029 2.03967 9.43194 20 21 16
-2.45896 2.03967 9.43194 20 21 16
-2.6282 2.19015 10.1278 21 22 17
-2.40395 2.01259 9.30672 19 20 15
-2.42497 2.03967 9.43194 18 19 14
-2.41364 2.03967 9.43194 18 19 14
-2.40231 2.03967 9.43194 18 19 14
-2.39098 2.03967 9.43194 19 20 15
-2.37965 2.03967 9.43194 20 21 16
-2.36832 2.03967 9.43194 22 23 18
-2.35699 2.03967 9.43194 23 23 21
-2.34566 2.03967 9.43194 22 22 20
-2.30334 2.01259 9.30672 20 20 18
-2.29216 2.01259 9.30672 19 19 17
-2.28098 2.01259 9.30672 19 19 17
-2.2698 2.01259 9.30672 18 18 16
-2.25862 2.01259 9.30672 19 19 17
-2.24744 2.01259 9.30672 19 19 17
-2.26636 2.03967 9.43194 20 20 18
-2.25503 2.03967 9.43194 20 20 18
-2.2437 2.03967 9.43194 21 21 19
-2.20273 2.01259 9.30672 20 20 18
-2.19155 2.01259 9.30672 18 18 16
-2.04399 1.88671 8.72459 15 15 13
-1.99159 1.88671 8.72459 19 18 14
-1.98111 1.88671 8.72459 22 21 17
-2.08134 2.01412 9.3138 24 23 19
-1.85652 1.84618 8.5372 17 16 12
-1.82575 1.84618 8.5372 19 18 14
-1.8155 1.84618 8.5372 19 18 14
-1.89834 1.95248 9.02877 21 20 18
-1.8875 1.95248 9.02877 22 21 19
-1.76422 1.84618 8.5372 22 21 19
-1.91151 2.01201 9.30401 23 22 20
-1.87416 1.98429 9.17585 26 25 23
-1.86314 1.98429 9.17585 28 27 25
-1.83328 2.01201 9.30401 28 27 25
-1.8221 2.01201 9.30401 28 27 25
-1.81093 2.01201 9.30401 27 26 24
-1.79975 2.01201 9.30401 27 26 24
-1.78857 2.01201 9.30401 26 25 21
-1.7774 2.01201 9.30401 25 24 20
-1.76622 2.01201 9.30401 24 23 19
-1.75505 2.01201 9.30401 22 21 17
-1.74387 2.01201 9.30401 23 19 16
-1.63377 2.07077 9.57576 34 27 21
-1.59926 2.07077 9.57576 38 31 25
-1.58776 2.07077 9.57576 40 33 27
-1.57626 2.07077 9.57576 41 34 28
-1.56476 2.07077 9.57576 41 34 28
-1.55325 2.07077 9.57576 39 32 26
-1.54175 2.07077 9.57576 37 30 24
-1.53025 2.07077 9.57576 33 26 20
-1.51875 2.07077 9.57576 31 24 18
-1.50724 2.07077 9.57576 31 24 18
-1.49574 2.07077 9.57576 31 24 18
-1.47274 2.07077 9.57576 27 23 20
-1.46123 2.07077 9.57576 27 23 20
-1.38998 1.98542 9.18107 27 23 20
-1.34586 1.98542 9.18107 26 22 19
-1.33483 1.98542 9.18107 26 22 19
-1.15329 1.85319 8.56961 19 18 14
-1.23945 2.1448 9.91806 19 18 14
-0.863488 2.15797 9.97896 23 22 18
-0.851502 2.15797 9.97896 22 21 17
-0.839515 2.15797 9.97896 22 21 17
-0.827528 2.15797 9.97896 21 20 16
-0.828419 2.19204 10.1365 21 20 16
-0.816243 2.19204 10.1365 21 20 16
-0.804066 2.19204 10.1365 22 21 17
-0.79189 2.19204 10.1365 23 22 18
-0.779714 2.19204 10.1365 24 23 19
-0.767538 2.19204 10.1365 20 21 16
-0.755362 2.19204 10.1365 20 21 16
-0.743186 2.19204 10.1365 20 21 16
-0.73101 2.19204 10.1365 19 20 15
-0.718834 2.19204 10.1365 19 20 15
-0.706658 2.19204 10.1365 18 19 14
-0.694482 2.19204 10.1365 18 19 14
