ply
format ascii 1.0
comment Kinect v1 generated
element vertex 1302
property double x
property double y
property double z
property uchar red
property uchar green
property uchar blue
end_header
2.10853 -1.26741 8.23036 152 174 193
2.11395 -1.25375 8.16128 157 179 202
2.11395 -1.24795 8.16255 173 196 209
2.10822 -1.25322 8.19708 182 203 226
2.11395 -1.2479 8.16232 175 196 219
2.114 -1.24487 8.16223 180 201 225
2.10799 -1.23311 8.16404 195 211 224
2.10802 -1.19791 8.17011 200 216 233
2.10777 -1.15182 8.14236 189 201 219
2.1062 -0.999642 7.9601 220 206 221
2.10647 -1.0039 7.99351 215 201 216
2.10646 -1.00106 7.9943 227 213 228
2.10572 -0.939848 7.9026 186 171 176
2.10571 -0.937032 7.90336 183 168 173
2.10598 -0.943846 7.9356 180 165 170
2.09662 -0.194874 7.48614 223 191 194
2.12038 0.333906 8.25699 161 198 244
2.12072 0.334978 8.29275 155 192 240
2.12629 0.442279 8.24052 203 194 210
2.12598 0.465084 8.20931 210 199 214
2.126 0.46814 8.21031 212 201 216
2.12618 0.565634 8.22699 195 169 164
2.12584 0.569715 8.19279 213 186 180
2.12562 0.640496 8.1701 217 190 183
2.12518 0.768869 8.12312 237 213 211
2.11925 0.81443 8.12997 240 226 230
2.11928 0.817503 8.13098 241 228 231
2.12491 0.808353 8.09575 248 235 236
2.12497 0.811391 8.0965 249 236 238
2.11906 0.884106 8.10761 236 232 219
2.12471 0.87777 8.07364 233 227 219
2.12476 0.901936 8.07764 230 231 231
2.12481 0.904977 8.0784 218 220 220
2.12473 0.904914 8.07765 236 237 234
2.12477 0.907979 8.07863 224 225 223
2.11915 0.917535 8.11377 239 240 237
2.12478 0.914029 8.07966 243 245 237
2.12403 1.01484 7.99666 231 238 242
2.12401 1.05081 8.00189 246 255 255
2.12391 1.14599 7.98513 250 252 237
2.12401 1.20914 7.99502 245 248 231
2.11325 -1.11577 8.07735 211 217 241
2.1132 -1.11299 8.07866 228 235 247
2.11355 -1.12056 8.11172 212 218 242
2.11349 -1.11776 8.11305 224 232 247
2.11321 -1.09553 8.08166 195 199 218
2.11351 -1.10024 8.11604 187 191 209
2.10623 -0.970941 7.96523 191 176 184
2.10648 -0.977973 7.99823 178 163 172
2.10649 -0.97509 7.99871 183 169 177
2.11181 -0.966882 7.93233 192 176 185
2.11209 -0.973867 7.96505 179 163 173
2.1121 -0.970996 7.96552 184 169 178
2.09705 -0.713185 7.52439 148 135 140
2.09729 -0.721569 7.55294 137 124 129
2.09705 -0.710422 7.52463 152 139 144
2.09733 -0.718746 7.55268 140 127 133
2.10238 -0.70756 7.49514 134 121 126
2.10268 -0.715843 7.52299 122 109 115
2.10767 -0.704716 7.46585 136 123 128
2.10798 -0.712959 7.49351 124 111 117
2.09685 -0.685654 7.49823 183 171 181
2.09688 -0.682876 7.49821 178 166 176
2.10216 -0.685639 7.46871 171 158 167
2.10216 -0.682895 7.46895 174 162 173
2.13229 0.589961 8.23143 239 214 210
2.13227 0.592992 8.23145 242 219 214
2.13085 0.796157 8.09404 237 225 224
2.13087 0.808246 8.09609 236 226 229
2.13093 0.811282 8.09683 232 221 224
2.13644 0.805192 8.06216 233 223 225
2.1365 0.808218 8.06292 229 218 220
2.13094 0.817327 8.09782 218 206 209
2.1309 0.820336 8.09808 218 206 209
2.13651 0.81424 8.06392 231 219 222
2.13647 0.817234 8.06415 241 229 227
2.15369 -1.9701 9.48049 173 152 150
2.1537 -1.96342 9.48173 183 159 154
2.15318 -1.94735 9.43705 184 162 152
2.15371 -1.95676 9.48312 185 161 152
2.15319 -1.94071 9.43836 204 179 167
2.15313 -1.931 9.4415 215 187 173
2.15323 -1.91413 9.44363 209 181 165
2.15325 -1.90083 9.44629 207 181 159
2.15326 -1.89419 9.44764 199 175 151
2.14816 -1.76814 9.38739 140 144 125
2.1532 -1.88445 9.45078 174 154 124
2.1533 -1.86757 9.45298 76 77 41
2.11219 -0.970767 7.96391 195 179 191
2.11243 -0.972129 7.99864 178 164 173
2.11239 -0.966473 8.00047 201 187 194
2.10238 -0.699398 7.49665 152 139 144
2.09612 -0.539611 7.4023 112 128 139
2.09611 -0.536898 7.40268 114 130 141
2.10137 -0.537424 7.37371 109 126 138
2.10135 -0.534724 7.37412 110 126 138
2.09633 -0.514697 7.4355 241 254 244
2.10161 -0.50718 7.40753 244 255 255
2.10163 -0.504435 7.4075 243 252 254
2.09635 -0.498389 7.43807 242 252 250
2.09656 -0.500517 7.46748 242 252 250
2.10165 -0.485536 7.41119 221 228 232
2.10165 -0.463819 7.41431 247 252 254
2.10188 -0.465812 7.44355 246 252 254
2.10166 -0.461074 7.41431 246 252 253
2.1019 -0.463055 7.44353 246 252 253
2.10177 -0.333315 7.4348 230 228 227
2.09679 -0.270316 7.50419 244 231 232
2.10214 -0.203187 7.48495 211 178 182
2.10265 -0.180333 7.54892 238 226 221
2.13757 0.582648 8.16117 239 218 210
2.13758 0.588709 8.16218 247 225 223
2.13791 0.584684 8.19535 230 202 201
2.13756 0.597793 8.16344 253 238 236
2.13755 0.600797 8.16341 250 236 233
2.13087 0.781068 8.09173 243 229 225
2.13067 0.883698 8.07495 241 240 239
2.13081 0.95023 8.08602 247 253 246
2.12986 1.0117 7.99625 219 224 231
2.13022 1.01545 8.02999 229 233 239
2.13029 1.01849 8.03073 228 233 241
2.13065 1.02228 8.06473 236 239 247
2.13538 1.00787 7.96309 227 233 231
2.13576 1.01159 7.99655 237 242 239
2.13582 1.01462 7.99734 236 241 241
2.1362 1.01837 8.03105 243 248 247
2.13032 1.03658 8.03374 223 232 234
2.13059 1.0343 8.06593 228 234 238
2.13586 1.03263 8.00031 219 231 227
2.13615 1.03034 8.03219 225 233 231
2.13022 1.0334 8.03167 230 238 239
2.13024 1.0365 8.03295 227 236 236
2.13575 1.02946 7.99821 226 235 232
2.13577 1.03255 7.99949 223 233 229
2.12993 1.04173 8.00118 243 252 245
2.13544 1.03778 7.96806 238 249 242
2.13031 1.05768 8.037 242 251 246
2.12999 1.0718 8.00621 245 255 247
2.12998 1.08077 8.00717 241 252 246
2.13551 1.08265 7.97488 223 234 229
2.13003 1.08986 8.00915 221 231 228
2.13566 1.13374 7.98382 248 252 242
2.13564 1.14269 7.98481 235 237 227
2.13028 1.20455 8.0281 234 235 219
2.13581 1.19993 7.99471 228 229 213
2.13029 1.2106 8.02912 248 250 236
2.13582 1.20596 7.99575 248 250 236
2.13606 1.28146 8.0084 226 228 224
2.13048 1.29548 8.04312 255 249 237
2.13607 1.2875 8.00937 255 254 248
2.1601 -1.94068 9.43834 207 182 171
2.16015 -1.9141 9.44365 209 182 164
2.16017 -1.9008 9.44628 210 184 162
2.16018 -1.89416 9.44763 204 179 155
2.16013 -1.88442 9.45074 199 178 149
2.15422 -1.76065 9.40252 129 140 116
2.12903 -1.47533 8.41383 99 109 113
2.15182 -1.77113 9.43976 60 67 47
2.15239 -1.77957 9.48506 67 73 53
2.12876 -1.46695 8.41921 146 160 164
2.15424 -1.75396 9.40356 107 118 98
2.15483 -1.76226 9.44833 114 124 104
2.13462 -1.46343 8.38113 149 162 166
2.1597 -1.75145 9.37143 110 121 99
2.16031 -1.75972 9.41597 117 126 105
2.13456 -1.46058 8.38256 157 171 175
2.16051 -1.74572 9.35917 118 129 109
2.16113 -1.75394 9.40357 125 135 115
2.12918 -1.47321 8.45564 169 184 186
2.12985 -1.4565 8.44927 124 141 141
2.11828 -0.992464 7.99604 168 152 166
2.10703 -0.569477 7.39836 120 126 139
2.10709 -0.50725 7.4079 243 255 253
2.10736 -0.490393 7.44032 212 224 226
2.10739 -0.48768 7.44077 215 225 229
2.10738 -0.465885 7.44396 245 252 254
2.11288 -0.254319 7.44821 240 231 234
2.10825 -0.188734 7.54804 238 216 212
2.10822 -0.185956 7.54843 237 228 226
2.11355 -0.187831 7.51838 238 217 213
2.11878 -0.184176 7.48932 237 225 226
2.11877 -0.181412 7.48951 234 232 227
2.10824 -0.160982 7.55212 222 201 204
2.11355 -0.160182 7.5224 219 200 202
2.11359 -0.15461 7.52206 228 222 222
2.1188 -0.15939 7.49298 229 212 215
2.11885 -0.153836 7.49255 228 226 225
2.13214 0.0970628 8.21757 146 159 171
2.13212 0.100089 8.2179 135 147 165
2.13902 0.334682 8.29356 156 201 245
2.14228 0.934433 8.05047 250 254 248
2.14233 0.93747 8.05125 249 253 248
2.14275 0.940943 8.08541 246 250 246
2.1423 0.946497 8.0525 234 241 236
2.14272 0.95 8.08661 230 237 233
2.14228 0.949459 8.05243 247 254 248
2.1427 0.952976 8.08655 243 250 245
2.14778 0.945855 8.01885 246 254 247
2.14822 0.94934 8.05268 242 250 244
2.15059 1.32856 7.93462 242 245 240
2.15003 1.33258 7.94153 239 241 238
2.14949 1.33656 7.94825 237 237 237
2.14729 1.26717 7.97233 222 226 225
2.14732 1.27029 7.97363 228 233 230
2.14737 1.27337 7.97468 236 240 238
2.16063 -1.97006 9.48044 175 152 151
2.16698 -1.96056 9.43441 173 150 149
2.16702 -1.94064 9.4383 208 182 171
2.16704 -1.92736 9.44096 213 180 165
2.16706 -1.92071 9.44229 220 188 172
2.16707 -1.91408 9.44366 209 182 163
2.16708 -1.90741 9.44491 216 188 168
2.16709 -1.90078 9.4463 213 186 163
2.16704 -1.89105 9.44944 213 188 162
2.16705 -1.88438 9.45072 214 190 162
2.16714 -1.87416 9.45156 165 150 120
2.15808 -1.5281 8.16449 115 111 104
2.16716 -1.8675 9.45287 125 121 88
2.12698 -1.36767 8.25005 161 187 193
2.12734 -1.37359 8.28583 161 187 192
2.12664 -1.30596 8.22495 214 237 244
2.127 -1.3116 8.26046 209 232 240
2.12669 -1.30291 8.22487 214 237 244
2.12705 -1.30854 8.26039 209 232 240
2.12602 -1.20991 8.16967 211 231 234
2.12637 -1.21514 8.20478 208 228 234
2.12604 -1.20693 8.16992 216 235 238
2.12639 -1.21214 8.20498 213 231 238
2.12506 -1.12769 8.07721 201 208 231
2.12541 -1.13253 8.11159 200 207 231
2.12477 -1.06209 8.05387 153 144 163
2.12478 -1.0592 8.05439 153 145 158
2.12482 -1.05627 8.05459 156 148 160
2.12513 -1.06951 8.08721 172 162 186
2.12512 -1.06665 8.08804 161 152 171
2.12513 -1.06374 8.08852 152 143 158
2.1189 -1.0387 8.05675 190 184 198
2.11887 -1.03587 8.0578 212 205 222
2.11857 -1.00545 8.02859 190 175 188
2.11812 -0.919001 7.97289 187 169 176
2.1077 -0.669379 7.47168 164 155 161
2.11295 -0.666689 7.44258 158 149 155
2.11302 -0.658411 7.44251 118 108 112
2.11816 -0.66402 7.41372 130 121 127
2.12334 -0.661366 7.38502 116 107 112
2.10792 -0.649989 7.47134 93 81 87
2.10708 -0.539749 7.40303 128 147 156
2.10706 -0.537039 7.40344 123 142 152
2.13911 0.374478 8.29954 193 196 208
2.1391 0.377569 8.30095 196 199 207
2.14369 0.469242 8.17601 220 208 221
2.14372 0.472289 8.17706 221 210 220
2.14412 0.46778 8.20972 212 202 214
2.14412 0.470855 8.21111 223 210 225
2.14373 0.478346 8.17808 236 224 231
2.14416 0.479996 8.2132 230 218 226
2.14375 0.484405 8.1791 254 243 246
2.14417 0.486082 8.21427 251 238 244
2.14422 0.489128 8.21501 254 237 241
2.14374 0.487414 8.17905 254 242 246
2.14416 0.489103 8.21421 250 237 245
2.14418 0.492167 8.21529 254 236 241
2.1439 0.557237 8.19153 251 232 229
2.14389 0.560252 8.1915 253 236 232
2.14356 0.597612 8.16231 243 222 217
2.14356 0.60069 8.16365 249 232 230
2.14399 0.602834 8.19865 249 225 224
2.14318 0.607654 8.13104 255 244 244
2.14319 0.613697 8.13205 255 245 245
2.14334 0.680273 8.14332 240 229 221
2.14283 0.820113 8.09866 254 247 245
2.14268 0.931838 8.08359 254 255 250
2.14819 0.928292 8.04976 252 253 249
2.1419 1.09266 8.01055 229 237 235
2.11256 -0.520874 7.40634 132 148 155
2.14939 0.111583 8.15064 59 84 137
2.15086 0.376118 8.26556 193 200 206
2.15615 0.446338 8.20744 213 206 205
2.15539 0.512729 8.14985 243 228 241
2.15543 0.515758 8.15064 245 234 244
2.15044 0.562163 8.22777 252 242 237
2.1504 0.565205 8.228 253 242 235
2.15041 0.574337 8.22899 226 208 204
2.15599 0.569181 8.19407 224 208 203
2.15599 0.572192 8.19397 216 199 195
2.16358 1.96093 8.25713 96 100 98
2.17462 1.94528 8.18685 111 115 112
2.17389 -1.96052 9.43435 165 141 140
2.17396 -1.92732 9.44091 222 190 175
2.17398 -1.92067 9.4422 215 182 165
2.17398 -1.91404 9.44363 212 185 165
2.174 -1.90738 9.44489 212 184 164
2.17401 -1.90074 9.44622 213 185 161
2.17396 -1.89101 9.44938 209 181 156
2.17397 -1.88436 9.45074 213 186 159
2.17407 -1.87412 9.45151 180 164 134
2.17408 -1.86747 9.45286 151 145 114
2.16802 -1.75389 9.40342 122 131 111
2.1473 -1.46711 8.42054 122 138 140
2.14157 -1.43294 8.42027 174 198 196
2.13309 -1.31164 8.2607 215 235 249
2.13313 -1.30858 8.26067 208 230 241
2.13877 -1.30602 8.22534 216 235 249
2.13881 -1.30298 8.22533 205 228 239
2.11771 -0.561803 7.37035 137 143 153
2.11809 -0.496583 7.41056 196 211 212
2.11814 -0.488449 7.41167 203 213 220
2.11839 -0.49326 7.44065 189 202 205
2.1129 -0.48231 7.44199 227 233 246
2.11315 -0.487101 7.47097 218 228 235
2.11811 -0.464029 7.41539 249 255 253
2.11816 -0.428771 7.42119 244 252 248
2.11844 -0.433339 7.44979 247 254 251
2.11815 -0.426035 7.42137 218 225 234
2.11846 -0.43058 7.44976 221 227 237
2.11822 -0.377105 7.42906 247 250 247
2.11822 -0.371662 7.42991 250 251 248
2.11854 -0.365138 7.46078 251 253 246
2.11825 -0.355327 7.43245 248 251 245
2.11854 -0.356921 7.46183 252 252 250
2.11861 -0.304957 7.47031 252 249 249
2.11862 -0.299478 7.47113 252 252 249
2.11872 -0.247389 7.47943 253 247 252
2.11877 -0.244643 7.47971 250 245 249
2.11884 -0.241888 7.47973 245 240 244
2.11907 -0.245831 7.50941 244 239 243
2.11873 -0.222629 7.48249 226 207 209
2.12365 -0.209643 7.42649 193 170 173
2.12428 -0.21175 7.48532 169 146 149
2.12431 -0.20901 7.48584 170 147 150
2.1486 0.89848 8.0786 250 252 250
2.14796 0.988025 8.02665 243 249 244
2.14834 0.988642 8.0598 243 249 247
2.1484 0.991686 8.06058 244 250 247
2.14794 0.997024 8.02781 248 253 242
2.14843 1.02492 8.06583 250 255 245
2.15391 1.02101 8.03211 250 254 245
2.14845 1.03097 8.06682 244 253 245
2.1485 1.03403 8.06766 242 252 246
2.14842 1.03394 8.06676 244 253 245
2.14846 1.03703 8.06784 242 252 246
2.1481 1.04226 8.03565 240 251 246
2.14848 1.04309 8.06886 244 253 249
2.15356 1.06826 8.0063 229 240 238
2.15357 1.07428 8.00733 236 246 247
2.14822 1.09057 8.04367 246 253 250
2.15369 1.0864 8.01014 246 254 250
2.14825 1.10266 8.04564 247 251 248
2.15372 1.09845 8.01211 247 251 246
2.15926 1.19225 8.05487 227 233 225
2.14789 1.14979 8.02 248 251 248
2.1531 1.21237 8.13753 226 231 224
2.15395 1.21948 8.16876 238 244 235
2.15351 1.20559 7.99659 228 224 212
2.18148 -1.96328 9.48166 186 160 156
2.18088 -1.92729 9.4409 222 188 174
2.18089 -1.92063 9.44217 216 182 165
2.18091 -1.914 9.44354 213 187 167
2.18092 -1.90734 9.44481 209 182 160
2.18093 -1.9007 9.44619 214 186 162
2.1809 -1.88432 9.45066 213 185 159
2.18099 -1.87408 9.45143 187 170 141
2.181 -1.86744 9.45284 158 151 121
2.18724 -1.85844 9.40702 149 141 111
2.12317 -0.545776 7.37389 168 181 188
2.12389 -0.482418 7.4424 224 233 238
2.12438 -0.361359 7.49156 251 252 248
2.12438 -0.358597 7.49175 251 253 248
2.12412 -0.321455 7.46802 252 244 247
2.12419 -0.315988 7.4688 251 244 246
2.12975 -0.250274 7.47961 240 235 241
2.12977 -0.244743 7.47968 239 225 229
2.12457 -0.22659 7.51263 205 187 185
2.1298 -0.214559 7.48498 189 169 168
2.13014 -0.215634 7.51471 210 190 189
2.12565 -0.162986 7.61389 237 225 226
2.15536 0.102511 8.14887 101 125 153
2.15943 1.04716 8.00365 245 254 243
2.15992 1.05104 8.03739 245 254 242
2.15959 1.08629 8.01044 246 253 252
2.1539 1.20096 8.02821 241 238 226
2.15394 1.20406 8.02931 242 239 226
2.18775 -1.94716 9.43684 178 152 144
2.18778 -1.93387 9.43942 217 185 172
2.1878 -1.92723 9.44078 221 186 171
2.18781 -1.9206 9.44214 217 183 166
2.18783 -1.91394 9.44341 215 189 168
2.18784 -1.9073 9.44474 208 180 158
2.18786 -1.90065 9.44607 215 186 161
2.18787 -1.89401 9.44743 215 185 160
2.18789 -1.88736 9.44876 213 185 158
2.18792 -1.87405 9.45138 187 167 139
2.15303 -1.44883 8.38625 97 117 118
2.15465 -1.48258 8.49195 93 109 106
2.15303 -1.44583 8.38678 100 121 122
2.15476 -1.47927 8.49098 97 113 110
2.14776 -1.43897 8.41938 167 187 187
2.15032 -1.3767 8.17726 187 210 220
2.15076 -1.37972 8.21321 201 224 232
2.15266 -1.40955 8.35467 137 162 160
2.15327 -1.42132 8.3881 145 171 168
2.15092 -1.2884 8.22882 168 190 208
2.14975 -1.21338 8.13258 181 198 211
2.14339 -1.12965 8.11224 231 236 245
2.14294 -1.10754 8.0818 198 203 218
2.14336 -1.11229 8.11616 186 191 207
2.143 -1.10158 8.0819 184 189 205
2.14342 -1.1063 8.11624 172 177 194
2.14343 -1.10046 8.11722 187 190 211
2.13743 -0.985327 8.05724 174 160 169
2.13936 -0.870933 7.78282 127 111 118
2.16193 0.334101 8.18765 178 213 253
2.16219 0.446233 8.20763 226 217 227
2.16222 0.449289 8.20873 224 214 222
2.1627 0.447757 8.24297 227 218 231
2.16223 0.455365 8.20978 242 229 233
2.16192 0.526547 8.18707 243 223 234
2.16201 0.54781 8.19099 251 251 246
2.16085 0.668462 8.10827 236 227 220
2.16134 0.670868 8.14285 236 221 215
2.1609 0.710678 8.11448 244 229 223
2.16093 0.713739 8.11559 244 229 221
2.16046 0.717188 8.08222 252 237 230
2.16014 0.780678 8.05923 248 240 230
2.16013 0.783639 8.05912 240 233 222
2.15982 0.822839 8.03309 254 250 246
2.1603 0.825841 8.06707 254 248 244
2.16079 0.828868 8.10132 252 244 241
2.15974 0.984755 8.0264 249 255 250
2.15987 1.0179 8.03222 251 254 246
2.1596 1.10733 8.01358 253 254 246
2.15966 1.11038 8.01442 253 254 246
2.1869 1.95123 8.18851 80 82 70
2.15575 -1.21341 8.13276 170 187 202
2.15535 -1.16167 8.10629 197 211 226
2.1553 -1.15889 8.10767 200 212 229
2.15589 -1.1694 8.13922 194 208 223
2.15578 -1.16385 8.14218 202 215 229
2.15443 -1.11435 8.04532 213 218 226
2.1549 -1.1191 8.07933 218 223 226
2.15487 -1.11628 8.0804 208 213 226
2.14872 -0.97859 8.02647 169 157 166
2.12912 -0.691081 7.4095 161 148 154
2.12917 -0.688308 7.40922 164 151 157
2.13426 -0.688325 7.38081 164 152 157
2.16086 0.0933473 8.11345 103 121 132
2.16135 0.093431 8.14807 119 136 153
2.16185 0.0935151 8.18293 121 138 154
2.16136 0.0994202 8.14907 79 100 129
2.16826 0.449185 8.20897 236 227 238
2.16877 0.447652 8.24318 230 222 238
2.16879 0.450722 8.24433 242 233 247
2.16724 0.765041 8.12461 236 224 211
2.16716 0.768095 8.12531 211 199 186
2.16618 0.81667 8.06549 244 240 239
2.16669 0.819656 8.09969 243 242 239
2.16676 0.828751 8.10155 236 230 226
2.19465 -1.95375 9.43546 190 164 158
2.19538 -1.96316 9.48141 190 164 158
2.19467 -1.9471 9.43671 185 158 148
2.1947 -1.93383 9.43939 215 185 170
2.19471 -1.92719 9.44071 214 182 164
2.19473 -1.92055 9.44205 214 183 163
2.19475 -1.9139 9.44334 211 187 162
2.19476 -1.90727 9.44473 212 185 158
2.19478 -1.90061 9.44599 213 182 154
2.19481 -1.88732 9.44872 216 185 161
2.1888 -1.72607 9.34721 146 157 135
2.19485 -1.71809 9.30385 170 182 158
2.19478 -1.87093 9.45315 149 135 104
2.19486 -1.86734 9.45259 93 87 58
2.1593 -1.42172 8.39035 182 207 204
2.15986 -1.43079 8.42579 190 214 212
2.14618 -0.9021 7.87757 202 185 195
2.12923 -0.609986 7.42222 79 66 74
2.12857 -0.591571 7.36685 95 85 95
2.1289 -0.591349 7.3964 98 89 98
2.12859 -0.588838 7.36682 98 90 100
2.1289 -0.588626 7.3966 102 93 104
2.13408 -0.553963 7.37305 206 209 211
2.13412 -0.527023 7.37727 204 217 215
2.13412 -0.524354 7.37795 213 227 224
2.12901 -0.51835 7.40759 196 215 215
2.13413 -0.518961 7.37879 211 228 225
2.13419 -0.486584 7.38383 201 213 223
2.13459 -0.466909 7.41551 248 255 248
2.13457 -0.464234 7.4164 250 255 250
2.13494 -0.468914 7.44476 247 255 245
2.13493 -0.466229 7.44565 251 255 250
2.13462 -0.464147 7.41527 245 254 249
2.13459 -0.461487 7.41638 247 254 251
2.13498 -0.466139 7.44448 244 254 246
2.13495 -0.463468 7.44558 248 254 251
2.13573 -0.215734 7.51542 234 209 210
2.13535 -0.209136 7.48612 237 229 225
2.16809 0.581131 8.19664 239 222 218
2.16811 0.587211 8.1976 252 225 223
2.16815 0.590269 8.19851 252 234 230
2.16634 0.876971 8.07558 242 243 248
2.17191 0.906762 8.0476 252 253 254
2.16606 0.952054 8.05452 231 237 239
2.1715 0.945459 8.02073 241 243 250
2.16607 0.958089 8.05553 241 247 249
2.17152 0.951469 8.02174 241 242 250
2.16612 0.9762 8.05856 248 255 249
2.16628 1.03062 8.06767 238 249 240
2.16584 1.05092 8.03768 246 255 242
2.17123 1.04691 8.00416 242 249 242
2.17075 1.06995 7.97456 248 254 246
2.1655 1.08617 8.01072 243 251 250
2.17088 1.08203 7.97745 248 254 247
2.17617 1.16542 7.94412 215 221 212
2.17575 1.16909 7.94951 212 218 211
2.17103 1.13605 7.98637 238 242 239
2.16562 1.14942 8.02085 251 254 248
2.17106 1.14206 7.98732 240 242 243
2.20163 -1.92714 9.44062 212 180 162
2.20164 -1.92051 9.44201 211 181 160
2.20166 -1.91386 9.44326 202 178 153
2.20168 -1.90721 9.44459 204 178 150
2.2017 -1.90057 9.44593 210 181 152
2.20172 -1.89391 9.44719 219 187 161
2.20173 -1.88726 9.44853 210 179 155
2.20175 -1.88061 9.44989 188 164 138
2.13961 -0.524352 7.37754 224 236 231
2.13959 -0.5217 7.37846 225 238 231
2.1396 -0.516307 7.37929 226 242 230
2.14003 -0.483302 7.41402 205 216 221
2.14075 -0.288812 7.47422 252 253 252
2.14634 -0.255982 7.47972 238 229 234
2.14637 -0.253248 7.48023 238 227 241
2.15147 -0.257577 7.45021 233 226 228
2.15152 -0.254845 7.4505 232 224 235
2.15145 -0.254834 7.45054 223 214 219
2.15148 -0.252112 7.4511 222 212 225
2.14638 -0.24776 7.48109 211 197 209
2.14636 -0.245006 7.48145 204 186 196
2.14645 -0.195556 7.48927 246 232 231
2.15925 -0.0313367 7.60558 198 185 186
2.1776 1.00549 8.03098 242 244 246
2.17767 1.0085 8.03155 242 244 244
2.17815 1.00923 8.06493 240 243 246
2.20849 -1.94701 9.43657 191 163 154
2.20166 -1.75207 9.35732 132 141 117
2.2017 -1.87089 9.45307 135 120 90
2.20792 -1.85831 9.40672 118 112 82
2.16695 -1.48317 8.49521 126 141 137
2.17266 -1.47359 8.45813 131 148 143
2.16403 -1.34409 8.29217 162 184 194
2.16356 -1.31464 8.26056 181 206 216
2.16361 -1.28504 8.26573 152 166 181
2.16418 -1.29344 8.30013 150 162 179
2.1626 -1.25355 8.19906 213 230 239
2.16364 -1.26727 8.26884 190 207 222
2.16366 -1.26134 8.26987 199 216 233
2.16372 -1.25822 8.26944 189 206 224
2.1619 -1.16943 8.13939 171 184 203
2.16081 -1.12794 8.07858 212 214 232
2.1609 -1.09588 8.08349 200 202 226
2.16087 -1.09306 8.08458 209 207 231
2.16007 -1.00565 8.02937 196 183 198
2.16004 -1.00284 8.03049 175 161 173
2.15288 -0.935582 7.93861 196 182 191
2.15293 -0.93261 7.93829 217 204 211
2.1584 -0.925715 7.90495 225 211 219
2.14917 -0.803795 7.66614 132 115 115
2.14917 -0.778838 7.67094 110 95 96
2.14084 -0.677127 7.40548 96 92 92
2.1407 -0.674582 7.40758 117 113 115
2.14056 -0.672018 7.40951 116 110 113
2.13996 -0.526626 7.40724 216 228 225
2.17466 0.36841 8.23072 207 217 222
2.17465 0.377529 8.23198 213 222 227
2.1747 0.380572 8.23278 209 218 225
2.17475 0.414046 8.23826 199 194 210
2.17479 0.417095 8.23909 198 194 208
2.17483 0.447545 8.24334 224 214 233
2.17486 0.450615 8.2445 242 230 243
2.17488 0.465849 8.24651 243 228 240
2.17491 0.468921 8.24765 247 233 240
2.17392 0.50813 8.1844 228 209 218
2.17447 0.509903 8.21956 230 210 220
2.175 0.508606 8.25382 229 212 223
2.17503 0.511687 8.25497 226 208 217
2.17452 0.528177 8.22265 239 220 219
2.18 0.526224 8.18769 244 225 224
2.17418 0.605282 8.19942 208 191 187
2.17473 0.607451 8.23468 195 172 171
2.17588 0.6181 8.30878 211 189 189
2.17964 0.597034 8.1651 211 193 187
2.18021 0.599162 8.20009 198 173 171
2.18148 0.609621 8.27245 213 191 189
2.17963 0.600038 8.16504 214 195 190
2.1802 0.602176 8.2 201 176 174
2.18144 0.612697 8.27291 216 193 192
2.17964 0.603019 8.16465 213 196 192
2.18022 0.60517 8.19961 200 177 176
2.18141 0.615753 8.27308 216 194 194
2.17889 0.662066 8.10776 213 188 175
2.17853 0.789208 8.09507 255 245 244
2.17852 0.79218 8.09493 241 231 233
2.17857 0.801284 8.09704 242 226 233
2.17813 0.825493 8.06779 244 240 235
2.17836 0.897894 8.07986 250 252 254
2.17832 0.900892 8.08005 248 248 253
2.20867 -1.88057 9.44979 181 156 130
2.1726 -1.18606 8.06903 210 224 240
2.17317 -1.19393 8.10217 201 216 232
2.17314 -1.19112 8.10328 219 235 243
2.17313 -1.18827 8.10409 216 232 243
2.17182 -1.03764 8.02493 177 169 184
2.17242 -1.04767 8.05639 186 180 195
2.17238 -1.04489 8.05773 185 178 192
2.17235 -1.04208 8.05881 180 172 187
2.16642 -1.03622 8.05957 238 230 243
2.15993 -0.814612 7.63509 129 111 111
2.1519 -0.686212 7.47171 151 141 150
2.15191 -0.68346 7.47188 162 153 162
2.15194 -0.680689 7.47184 149 139 149
2.18615 0.370033 8.19609 212 220 227
2.18071 0.380454 8.23209 213 220 230
2.18073 0.383509 8.23323 209 216 229
2.18636 0.445812 8.20839 218 208 227
2.18639 0.44887 8.20957 231 220 234
2.18641 0.454943 8.21056 232 221 235
2.18625 0.605056 8.19977 203 178 178
2.18686 0.607224 8.235 200 178 179
2.19167 0.602793 8.16497 213 188 188
2.19229 0.604943 8.19994 210 188 189
2.18478 0.695162 8.11343 240 230 225
2.1845 0.789094 8.0953 238 225 226
2.18448 0.792065 8.09517 246 234 234
2.21535 -1.96685 9.43248 144 128 128
2.21537 -1.96022 9.43383 178 154 152
2.21539 -1.95357 9.43504 196 169 163
2.2154 -1.94695 9.43645 194 165 156
2.21544 -1.93368 9.43909 213 180 165
2.21546 -1.92704 9.44042 211 177 158
2.21548 -1.9204 9.44173 211 179 158
2.2155 -1.91376 9.44305 210 184 159
2.21552 -1.90711 9.44436 211 184 155
2.21553 -1.90047 9.44573 212 183 154
2.21555 -1.89382 9.44701 216 189 162
2.21557 -1.88717 9.44834 214 185 159
2.21559 -1.88053 9.44969 200 176 149
2.21561 -1.87387 9.45101 181 165 136
2.20177 -1.77353 9.47236 86 95 74
2.21322 -1.76236 9.39388 95 97 81
2.17397 -1.48916 8.52999 140 157 153
2.14536 -0.58345 7.39862 142 136 143
2.14542 -0.540189 7.40517 235 240 240
2.14554 -0.502208 7.40991 177 194 197
2.15057 -0.502913 7.38156 174 193 195
2.15057 -0.494857 7.38326 173 191 191
2.14552 -0.48337 7.41436 176 187 189
2.14592 -0.485432 7.44354 166 176 177
2.15113 -0.418324 7.42489 181 192 198
2.15619 -0.416581 7.39613 180 191 196
2.15128 -0.342154 7.43682 248 240 246
2.15128 -0.33941 7.43698 247 237 244
2.15134 -0.306697 7.44214 251 247 248
2.15139 -0.287613 7.4454 252 254 252
2.15181 -0.288955 7.47482 252 254 252
2.15139 -0.284864 7.44552 252 255 252
2.15181 -0.286195 7.47496 252 255 252
2.15696 -0.254907 7.45087 196 186 192
2.15235 -0.22696 7.51419 216 198 186
2.15201 -0.19839 7.48924 249 238 240
2.15711 -0.197456 7.46 249 233 235
2.15752 -0.198437 7.48911 234 220 222
2.15757 -0.179202 7.49251 245 232 234
2.15972 -0.0598488 7.63269 251 252 239
2.15968 -0.0570362 7.63321 249 254 240
2.18956 0.879298 8.04341 241 242 241
2.18431 0.897776 8.08011 246 247 253
2.18438 0.900797 8.08071 246 247 253
2.18379 0.927577 8.05122 248 250 244
2.18384 0.930624 8.05212 242 246 239
2.18384 0.954656 8.05516 230 239 241
2.18417 1.01213 8.06579 230 235 239
2.18359 1.02947 8.03522 227 235 240
2.18844 1.07263 7.97635 244 251 248
2.18852 1.08166 7.97819 245 252 246
2.18323 1.09181 8.01244 248 254 247
2.18325 1.11286 8.01558 250 254 250
2.1886 1.10565 7.98213 245 251 250
2.18856 1.10861 7.98226 246 250 250
2.18326 1.11889 8.01662 247 253 248
2.18332 1.12194 8.01747 246 253 247
2.18858 1.11461 7.98324 244 250 248
2.18864 1.11765 7.98408 243 250 247
2.18334 1.12797 8.01847 243 251 246
2.1833 1.13095 8.01858 237 246 243
2.18866 1.12366 7.98511 239 248 246
2.18297 1.16286 7.99137 241 242 239
2.18291 1.16586 7.99179 249 251 243
2.22919 -1.96008 9.43345 180 157 156
2.22241 -1.91371 9.44295 206 179 154
2.22243 -1.90706 9.44427 209 181 154
2.22246 -1.90041 9.44554 208 179 149
2.22249 -1.88712 9.44822 217 191 165
2.22251 -1.88048 9.44958 215 192 164
2.22253 -1.87382 9.4509 195 178 148
2.22011 -1.76231 9.39371 122 124 108
2.19099 -1.46041 8.41828 139 155 150
2.18188 -1.3116 8.26061 191 210 223
2.18736 -1.30599 8.22531 188 207 220
2.15595 -0.538061 7.37682 245 248 244
2.1566 -0.431944 7.42275 234 239 247
2.15732 -0.294508 7.4743 247 249 246
2.1579 -0.232546 7.51362 226 203 193
2.18545 0.120025 8.15375 15 51 108
2.19214 0.559378 8.19311 243 237 236
2.19217 0.562446 8.19427 243 239 237
2.19512 0.938975 8.0207 232 238 244
2.1953 0.972031 8.0263 237 243 244
2.19003 1.00898 8.06541 235 238 247
2.19011 1.012 8.066 226 230 237
2.19545 1.01416 8.03329 217 223 226
2.19539 1.01717 8.03367 215 222 227
2.19475 1.03133 8.00198 217 226 234
2.19479 1.0344 8.0031 215 226 233
2.19485 1.03744 8.00395 223 235 242
2.19538 1.03515 8.03565 213 224 230
2.19542 1.03823 8.03676 212 224 230
2.19548 1.04128 8.03765 223 235 241
2.18901 1.05559 8.00671 242 246 247
2.18909 1.0586 8.00731 241 247 248
2.18961 1.05951 8.04049 242 246 247
2.18897 1.05856 8.00686 246 253 247
2.18904 1.0616 8.00767 246 253 248
2.18958 1.06249 8.04058 246 253 247
2.19456 1.12954 7.98633 233 242 238
2.19408 1.17623 7.96097 239 235 233
2.19414 1.17927 7.96184 235 233 230
2.2033 1.72586 8.1181 209 211 200
2.20325 1.72887 8.11815 200 203 192
2.22311 -1.97627 9.47832 145 129 131
2.2223 -1.95353 9.435 195 168 163
2.22315 -1.96295 9.48097 198 172 167
2.22833 -1.94413 9.38926 194 167 162
2.22921 -1.95347 9.43485 197 171 166
2.22317 -1.95629 9.48232 191 164 154
2.22923 -1.94684 9.43618 190 162 152
2.22321 -1.94296 9.48499 211 178 163
2.22927 -1.93356 9.4388 211 179 164
2.19251 -1.48464 8.48648 104 121 115
2.1818 -1.32653 8.2589 194 212 228
2.18515 -1.20258 8.10017 193 208 231
2.18581 -1.21046 8.13299 218 234 239
2.16973 -0.873331 7.87944 133 114 113
2.15631 -0.58087 7.39964 126 122 129
2.15592 -0.554222 7.37432 191 190 194
2.19268 0.328624 8.22421 124 168 247
2.19279 0.365064 8.23049 199 203 220
2.19283 0.368104 8.23131 199 205 222
2.1934 0.363193 8.26479 191 198 211
2.19343 0.366257 8.26594 187 191 210
2.19786 0.462241 8.17677 230 220 231
2.19788 0.465289 8.17792 241 232 236
2.19865 0.503377 8.21919 249 236 243
2.19266 0.524776 8.22204 224 203 207
2.19268 0.527851 8.22323 228 205 208
2.19331 0.529708 8.25865 223 201 204
2.19806 0.522836 8.18707 226 203 208
2.19808 0.525898 8.18826 229 206 209
2.19873 0.527739 8.22338 225 201 205
2.19063 0.828282 8.10247 253 240 241
2.19597 0.825138 8.06841 242 229 232
2.19593 0.82813 8.0686 245 233 235
2.19066 0.849433 8.10564 236 229 228
2.196 0.846205 8.07158 236 230 229
2.18347 1.9866 8.36432 101 103 104
2.18411 1.99799 8.4026 100 102 99
2.18416 2.0014 8.40405 87 88 82
2.18472 2.00604 8.43963 106 108 106
2.18477 2.00945 8.44107 92 93 87
2.20018 1.96946 8.26037 58 60 51
2.20084 1.97726 8.29619 71 73 65
2.20557 1.96156 8.22504 59 62 53
2.20626 1.96929 8.26057 72 75 66
2.21093 1.95373 8.19002 63 66 58
2.21163 1.96139 8.22524 76 79 72
2.19814 -1.51644 8.48947 105 111 111
2.20191 0.825019 8.06861 237 225 227
2.16303 -0.683449 7.47124 112 105 115
2.163 -0.680801 7.47235 121 115 124
2.16137 -0.557003 7.37444 173 175 177
2.1614 -0.551547 7.37455 167 168 175
2.20201 0.855159 8.0737 247 239 249
2.20104 0.938853 8.0209 233 241 244
2.20085 1.04633 8.00577 232 237 246
2.20081 1.05535 8.0072 247 253 249
2.19912 1.14662 7.63208 228 229 233
2.24224 -1.89777 9.39819 211 181 157
2.24226 -1.89116 9.39952 211 181 153
2.24321 -1.90024 9.44511 214 186 157
2.24066 -1.78872 9.38844 119 119 102
2.24325 -1.88695 9.44777 185 162 133
2.23448 -1.77651 9.37833 143 143 128
2.24233 -1.8713 9.40342 156 139 107
2.23451 -1.76986 9.37946 163 165 146
2.23613 -1.77915 9.41088 153 155 137
2.23545 -1.77822 9.42412 145 147 129
2.20342 -1.4484 8.42055 161 183 177
2.20903 -1.43879 8.3826 162 186 180
2.19274 -0.872012 7.84178 136 117 120
2.16684 -0.557065 7.37473 174 175 178
2.16684 -0.554344 7.37487 160 161 168
2.16685 -0.548961 7.37573 175 177 188
2.16733 -0.551255 7.40463 173 175 186
2.16782 -0.556228 7.43278 174 178 180
2.17137 -0.528441 7.32133 224 231 233
2.17187 -0.527985 7.3505 200 207 205
2.17285 -0.535096 7.40745 210 216 221
2.16644 -0.519841 7.35122 189 198 201
2.16691 -0.52202 7.37994 189 198 201
2.16739 -0.524214 7.40886 198 207 210
2.1714 -0.517737 7.32296 206 216 207
2.17189 -0.519902 7.35149 207 216 207
2.17238 -0.522081 7.3802 216 225 216
2.16695 -0.505841 7.38244 148 164 160
2.16695 -0.503171 7.38316 160 176 171
2.16698 -0.500482 7.38361 131 146 139
2.16745 -0.502601 7.41259 127 142 136
2.17686 -0.501742 7.32575 146 162 152
2.17686 -0.499093 7.32648 158 174 163
2.17689 -0.496424 7.32692 129 144 131
2.1774 -0.498512 7.35547 125 140 128
2.17688 -0.499022 7.32568 138 155 140
2.17687 -0.496388 7.32661 150 167 151
2.17688 -0.493736 7.3273 121 136 120
2.17739 -0.495811 7.35581 117 133 116
2.17305 -0.443 7.42193 225 233 238
2.17356 -0.444909 7.4511 227 236 238
2.17406 -0.446837 7.48056 225 233 231
2.17309 -0.434814 7.42262 226 233 239
2.17308 -0.432141 7.42359 223 232 234
2.17358 -0.434013 7.45282 221 230 230
2.17823 -0.359933 7.40582 249 247 242
2.17827 -0.343658 7.40838 251 249 249
2.17346 -0.276927 7.44742 232 226 221
2.17396 -0.278228 7.47685 225 221 214
2.17396 -0.275515 7.47778 204 200 192
2.17843 -0.278455 7.4186 223 218 218
2.17895 -0.279758 7.44782 217 213 212
2.17896 -0.277047 7.44853 196 192 190
2.17402 -0.248094 7.48216 243 229 231
2.17903 -0.246974 7.45295 243 230 232
2.17354 -0.23872 7.45431 242 219 217
2.17854 -0.237639 7.42531 245 223 222
2.17411 -0.226072 7.4843 234 199 193
2.17907 -0.230569 7.45557 234 199 195
2.17419 -0.206936 7.48898 216 185 179
2.17416 -0.204184 7.48953 215 187 181
2.17916 -0.200479 7.46059 219 186 181
2.2109 0.346529 8.22779 142 147 175
2.21062 0.466668 8.21331 255 253 253
2.21133 0.468274 8.24863 254 253 253
2.20687 0.929692 8.01922 247 251 248
2.20822 0.936559 8.08712 245 249 245
2.20694 0.956652 8.02302 238 244 246
2.20786 1.0086 8.06599 223 228 231
2.20854 1.01235 8.1002 221 226 228
2.2124 1.01001 7.99972 213 220 234
2.2131 1.01374 8.03337 209 216 229
2.21239 1.01294 7.99955 207 215 230
2.21308 1.01669 8.0332 203 211 225
2.20191 1.02676 8.06776 207 218 229
2.202 1.03293 8.06987 203 217 223
2.20257 1.03059 8.10196 206 217 227
2.20261 1.0337 8.10313 212 226 234
2.20266 1.03678 8.1041 211 225 231
2.20718 1.02284 8.034 213 225 231
2.20728 1.02897 8.03612 209 224 225
2.20786 1.02663 8.06793 212 224 229
2.2079 1.02973 8.06911 218 232 235
2.20795 1.0328 8.07005 217 231 232
2.21241 1.01894 8.00055 216 230 231
2.21251 1.02505 8.00262 212 229 225
2.2131 1.02271 8.03418 215 229 229
2.21314 1.02579 8.03537 221 237 235
2.2132 1.02884 8.03628 220 236 232
2.20667 1.04319 8.00537 237 242 246
2.20675 1.04621 8.00602 238 243 247
2.20608 1.07225 7.97695 229 235 243
2.20675 1.07622 8.01042 229 235 243
2.20742 1.08022 8.04418 223 232 236
2.20611 1.07824 7.97794 226 233 239
2.20677 1.08224 8.01147 226 233 238
2.20744 1.08626 8.04519 220 230 228
2.2075 1.08932 8.04611 224 234 228
2.20687 1.09733 8.01436 203 211 214
2.20684 1.1003 8.01447 212 220 223
2.20682 1.10323 8.01425 224 230 232
2.21209 1.09314 7.98104 202 210 218
2.21723 1.09194 7.94807 198 205 214
2.20074 1.22264 8.00149 227 223 218
2.20602 1.21501 7.96818 232 230 225
2.20597 1.21797 7.96829 225 221 216
2.21121 1.21038 7.93525 228 223 219
2.21117 1.21333 7.93534 229 222 217
2.2039 1.46665 7.57466 221 193 184
2.2472 -1.87972 9.30807 219 188 164
2.24722 -1.87316 9.30933 199 170 141
2.23257 -1.58075 8.31687 102 88 73
2.21069 -1.51328 8.48948 148 158 158
2.21066 -1.51038 8.49064 155 166 167
2.21141 -1.51996 8.52713 142 153 153
2.24043 -1.75492 9.3363 131 139 119
2.20935 -1.48494 8.41697 112 131 126
2.21013 -1.49422 8.45219 146 164 159
2.21006 -1.49144 8.454 143 161 158
2.21073 -1.49515 8.49281 133 152 151
2.20243 -1.44895 8.38729 126 150 145
2.20453 -1.47698 8.49599 118 141 134
2.20154 -1.36429 8.32273 169 192 197
2.20134 -1.35598 8.32786 212 230 237
2.20222 -1.37021 8.35894 166 188 194
2.19883 -1.26545 8.1979 186 206 211
2.19949 -1.2709 8.23316 196 217 219
2.18739 -0.946253 7.9051 198 179 187
2.18916 -0.958375 8.00457 191 172 181
2.19279 -0.927763 7.87249 183 167 174
2.19274 -0.925058 7.87404 182 166 173
2.19462 -0.939615 7.97116 180 164 171
2.19457 -0.936882 7.97277 182 166 172
2.17599 -0.75306 7.58363 159 144 147
2.17596 -0.747543 7.58459 163 148 154
2.17597 -0.744755 7.58479 167 152 160
2.18103 -0.744518 7.55464 178 163 169
2.18105 -0.741735 7.55478 175 161 169
2.16997 -0.705861 7.55949 131 123 123
2.17505 -0.702997 7.52969 126 118 118
2.18005 -0.702946 7.50024 132 124 125
2.17607 -0.700635 7.59185 144 136 143
2.1761 -0.697817 7.59176 139 130 139
2.18128 -0.689299 7.56092 94 86 97
2.16762 -0.648284 7.41836 48 41 41
2.16767 -0.645507 7.41804 51 43 43
2.1726 -0.648428 7.38965 47 42 42
2.17262 -0.645684 7.38959 48 41 41
2.17266 -0.642922 7.38933 51 43 43
2.17762 -0.640358 7.36085 52 44 44
2.17281 -0.551314 7.40488 179 182 187
2.17245 -0.497773 7.38354 135 151 133
2.17294 -0.499876 7.41246 124 140 119
2.17312 -0.41585 7.42616 154 168 161
2.17362 -0.417661 7.4554 153 167 159
2.21591 0.452863 8.17629 247 245 249
2.21663 0.454408 8.21136 251 250 249
2.21601 0.486134 8.18131 241 238 237
2.21674 0.487813 8.21638 233 229 231
2.21484 0.555021 8.12419 241 222 223
2.21555 0.55697 8.15885 248 232 233
2.21558 0.560023 8.16 248 234 236
2.20964 0.578297 8.1629 250 235 243
2.21033 0.580348 8.19786 250 235 243
2.21107 0.597652 8.23502 219 208 209
2.21641 0.595407 8.19989 244 233 235
2.21964 0.619934 8.06811 223 200 202
2.22106 0.618208 8.13408 221 204 201
2.20934 0.676019 8.14553 246 240 236
2.21003 0.67846 8.18032 250 241 239
2.20931 0.679027 8.14562 251 246 244
2.21 0.68148 8.18042 255 247 247
2.21463 0.673479 8.11114 247 242 239
2.21533 0.675903 8.14569 251 243 242
2.21538 0.697089 8.14885 236 215 219
2.20836 0.764505 8.09253 223 206 195
2.20831 0.767521 8.09292 226 209 199
2.21358 0.764626 8.05894 244 227 217
2.21285 0.764846 8.02523 234 209 199
2.20785 0.824899 8.06881 235 227 231
2.2131 0.821785 8.03507 240 232 237
2.21281 0.9266 8.01931 250 255 250
2.21278 0.929566 8.01939 251 255 250
2.23388 -1.57726 8.34717 94 86 70
2.20002 -1.10333 7.94494 205 205 227
2.2015 -1.03761 8.02433 195 187 204
2.20675 -1.03325 7.99086 189 181 198
2.20034 -0.948625 7.97242 199 181 188
2.20038 -0.945664 7.9723 200 182 190
2.1868 -0.722323 7.55587 145 131 142
2.21997 0.107217 8.08381 69 93 128
2.22743 0.517478 8.15311 252 243 247
2.2224 0.58012 8.19813 239 230 236
2.24602 1.92913 8.15173 74 84 91
2.24625 1.93885 8.15509 50 59 59
2.25683 -1.95984 9.43287 188 164 162
2.25685 -1.95321 9.43419 202 175 169
2.25688 -1.94658 9.43551 185 157 147
2.25693 -1.9333 9.43808 212 178 164
2.25695 -1.92667 9.43946 214 179 162
2.25707 -1.91638 9.43984 204 174 153
2.24825 -1.76973 9.37904 107 112 93
2.25344 -1.76698 9.34602 98 101 83
2.25988 -1.75313 9.29068 98 105 86
2.22174 -1.45521 8.42397 155 184 174
2.20888 -1.38867 8.39614 141 167 168
2.19059 -0.839454 7.75645 111 97 101
2.19469 -0.878103 7.89564 134 116 125
2.1951 -0.879334 7.93204 126 109 117
2.17834 -0.532483 7.40842 196 203 204
2.17835 -0.527073 7.40927 205 212 211
2.17836 -0.521662 7.41011 230 239 230
2.18331 -0.519539 7.38145 232 241 230
2.18333 -0.514148 7.3823 217 226 222
2.18396 -0.478402 7.41716 98 103 91
2.1845 -0.480445 7.44635 102 107 94
2.18454 -0.464123 7.44894 157 164 154
2.18456 -0.461415 7.44947 186 192 185
2.18459 -0.445037 7.4516 227 235 233
2.18036 -0.421151 7.51133 212 219 211
2.18252 -0.407954 7.34086 188 199 201
2.18412 -0.415977 7.42663 195 207 206
2.18412 -0.41329 7.42742 204 214 211
2.18465 -0.417793 7.45593 209 220 218
2.18436 -0.32077 7.44197 252 252 252
2.18442 -0.298952 7.44536 245 231 236
2.18506 -0.270209 7.47966 245 241 239
2.18506 -0.26197 7.48081 237 232 235
2.18506 -0.259207 7.48091 237 234 237
2.18509 -0.250999 7.48255 254 246 249
2.18509 -0.248235 7.48265 253 240 243
2.18512 -0.240024 7.48431 234 213 214
2.18513 -0.234534 7.48518 233 204 202
2.18351 -0.228405 7.39751 235 202 197
2.18353 -0.225662 7.39739 235 202 195
2.18475 -0.173152 7.46515 213 181 181
2.18475 -0.170392 7.46521 221 192 190
2.18594 -0.141829 7.52971 227 216 214
2.18593 -0.139047 7.52981 228 217 215
2.21952 0.782463 8.06106 238 221 215
2.21938 0.926836 8.0524 233 238 235
2.21937 0.929781 8.05217 228 234 227
2.21967 0.999238 8.06445 222 226 232
2.21972 1.0023 8.06537 222 225 231
2.21849 1.05791 8.00779 245 252 252
2.21854 1.06097 8.00877 245 252 252
2.21857 1.06697 8.0097 235 243 248
2.22165 1.09266 7.88334 181 186 188
2.2238 1.0985 7.97907 169 180 163
2.22381 1.10164 7.9808 158 171 153
2.21419 1.09562 7.46016 199 202 212
2.21901 1.09176 7.43146 203 206 217
2.21553 1.15101 7.8619 222 224 219
2.21544 1.15688 7.86233 240 241 237
2.22062 1.14669 7.82977 225 228 221
2.22057 1.14963 7.83014 233 235 229
2.20534 1.33735 7.58971 232 196 195
2.20659 1.35471 7.61105 237 206 203
2.19043 -0.322302 7.47159 250 252 251
2.19047 -0.311296 7.47237 232 221 222
2.19104 -0.31273 7.50198 238 228 228
2.19051 -0.294926 7.47587 209 193 196
2.19106 -0.299026 7.50475 239 223 226
2.19108 -0.293527 7.50558 250 236 237
2.19109 -0.290802 7.50639 229 216 217
2.19055 -0.27849 7.47849 237 235 230
2.19112 -0.279802 7.50814 217 215 209
2.19062 -0.251071 7.48284 253 242 248
2.19063 -0.248306 7.4829 251 236 240
2.19558 -0.249939 7.45358 254 242 248
2.19558 -0.247185 7.45369 253 238 242
2.19066 -0.240093 7.48451 236 215 216
2.19123 -0.241263 7.5142 234 213 214
2.1918 -0.24244 7.54411 241 219 221
2.19067 -0.234604 7.48538 236 210 208
2.19124 -0.235753 7.5151 236 208 207
2.19073 -0.212634 7.48887 226 189 180
2.19129 -0.216439 7.5178 230 193 184
2.1913 -0.213701 7.51859 232 195 186
2.19075 -0.207093 7.48882 221 179 174
2.19134 -0.210862 7.51729 225 183 178
2.19132 -0.208138 7.51851 227 185 180
2.19568 -0.211648 7.45965 226 190 182
2.19626 -0.215433 7.4883 231 194 186
2.19627 -0.212706 7.48911 232 196 188
2.19135 -0.194371 7.52127 222 178 175
2.19137 -0.191585 7.52112 219 186 186
2.19197 -0.18154 7.55383 220 184 185
2.192 -0.178781 7.55441 211 175 176
2.19197 -0.17875 7.55391 219 181 180
2.19198 -0.175997 7.55472 211 172 171
2.19199 -0.175953 7.55374 225 188 185
2.19199 -0.173205 7.55476 217 178 175
2.19208 -0.14267 7.55901 214 204 202
2.23017 1.02762 8.00315 229 243 247
2.23023 1.03067 8.00412 230 243 246
2.2296 1.04184 7.97332 240 249 247
2.22439 1.05778 8.00797 244 251 252
2.22954 1.05376 7.97469 241 248 252
2.22962 1.06279 7.97663 225 234 236
2.26481 -1.96253 9.47984 197 170 163
2.26384 -1.93323 9.43789 208 174 160
2.26386 -1.92661 9.43925 210 174 158
2.26398 -1.91631 9.43967 207 177 156
2.26394 -1.90668 9.44318 189 160 136
2.26396 -1.90004 9.44452 190 165 136
2.26398 -1.89341 9.4459 184 164 135
2.22873 -1.49143 8.45411 180 202 199
2.22869 -1.48859 8.45558 193 215 213
2.22807 -1.44289 8.42458 131 159 152
2.22815 -1.43966 8.42387 157 185 178
2.23348 -1.43063 8.38892 125 153 149
2.21985 -1.36159 8.32495 147 170 176
2.22522 -1.35572 8.28904 145 168 174
2.21828 -1.33844 8.25744 213 233 239
2.22441 -1.32072 8.26064 169 190 196
2.21564 -1.20522 8.13756 161 181 199
2.21637 -1.21325 8.17142 195 216 220
2.2098 -1.16413 8.14359 147 156 175
2.2105 -1.16913 8.17836 165 174 192
2.2151 -1.15918 8.10918 165 174 192
2.21581 -1.16414 8.14366 183 192 209
2.19225 -0.730861 7.55701 148 133 141
2.19724 -0.727905 7.52724 156 142 148
2.18965 -0.675542 7.41484 125 122 121
2.18959 -0.67289 7.41586 121 118 118
2.1837 -0.59189 7.39854 117 114 108
2.18368 -0.589243 7.39949 112 110 106
2.18422 -0.59169 7.42854 108 106 101
2.1886 -0.592248 7.37005 115 112 107
2.1886 -0.589591 7.37076 110 108 105
2.18915 -0.592031 7.3996 107 103 100
2.18917 -0.586634 7.40045 109 107 105
2.18815 -0.554926 7.34634 186 189 190
2.22851 0.39959 8.20229 195 198 211
2.22854 0.402627 8.20323 198 201 212
2.23464 0.423735 8.20655 187 185 203
2.23408 0.485805 8.18168 235 235 235
2.23411 0.488857 8.18286 237 228 230
2.22825 0.531411 8.19001 230 213 215
2.23349 0.529448 8.15525 236 221 223
2.22837 0.561771 8.19516 225 205 208
2.23368 0.577844 8.16348 240 229 237
2.23447 0.579888 8.19835 240 220 229
2.2337 0.583901 8.16451 239 230 234
2.2261 0.743045 8.08935 220 202 200
2.22608 0.74603 8.08938 242 227 219
2.22634 0.803379 8.09951 238 219 219
2.23153 0.800336 8.06546 241 221 222
2.22521 1.07081 8.04366 226 235 238
2.21688 1.1931 7.78858 243 233 223
2.21716 1.19532 7.78398 247 238 228
2.2707 -1.94642 9.43503 180 152 141
2.27075 -1.93316 9.43771 208 176 160
2.27078 -1.92652 9.43898 210 175 158
2.2709 -1.91623 9.43938 202 171 150
2.27446 -1.79422 9.32823 120 119 107
2.2349 -1.4946 8.45444 189 208 210
2.23427 -1.4429 8.42465 158 186 180
2.22704 -1.16505 8.10835 179 189 205
2.22702 -1.16223 8.10942 167 175 200
2.22305 -1.0018 7.92879 217 204 214
2.22373 -1.00329 7.96319 216 202 212
2.22457 -1.01302 7.99348 201 188 198
2.22451 -1.0103 7.99511 204 191 201
2.22538 -1.02003 8.02516 194 182 196
2.21805 -0.954285 7.97037 187 170 179
2.21799 -0.948736 7.97283 178 160 167
2.20281 -0.736096 7.52559 179 164 168
2.19464 -0.592086 7.3998 83 79 75
2.19486 -0.508285 7.41266 117 131 107
2.24068 0.423627 8.20664 176 175 195
2.24072 0.426667 8.20758 187 185 204
2.24588 0.425102 8.17156 199 198 218
2.2459 0.428143 8.17279 210 209 227
2.24593 0.434185 8.17381 249 247 253
2.24677 0.435651 8.2088 250 249 253
2.24055 0.582831 8.19945 230 214 218
2.23905 0.620932 8.13587 241 226 221
2.23411 0.662787 8.17844 255 243 237
2.23928 0.663316 8.14412 254 241 237
2.23368 0.769573 8.16156 197 171 170
2.23894 0.760629 8.12669 226 201 200
2.2389 0.763651 8.12702 228 202 201
2.23888 0.76665 8.12706 199 173 172
2.23143 0.944702 8.05631 231 239 242
2.27756 -1.95959 9.43211 185 159 157
2.27761 -1.94634 9.43479 181 152 142
2.24112 -1.4946 8.4545 163 183 184
2.23273 -1.40654 8.35562 191 218 223
2.20483 -0.825032 7.59979 112 95 93
2.20461 -0.786628 7.60875 116 104 105
2.20458 -0.783954 7.60992 109 97 98
2.19474 -0.559611 7.4041 192 194 199
2.19473 -0.556958 7.40504 209 212 214
2.19474 -0.551557 7.40592 218 220 220
2.19421 -0.538535 7.37907 224 227 222
2.19476 -0.543478 7.40746 229 231 226
2.1942 -0.535828 7.37942 221 224 219
2.19477 -0.540745 7.4076 226 229 223
2.19479 -0.535338 7.40845 222 226 218
2.19482 -0.521846 7.41087 190 198 192
2.19484 -0.519154 7.41136 181 189 180
2.20058 -0.424346 7.42645 227 233 230
2.20146 -0.333375 7.47029 245 242 246
2.20153 -0.311433 7.47288 245 230 230
2.20152 -0.30873 7.47386 248 230 234
2.20158 -0.297817 7.47606 234 213 215
2.2016 -0.284108 7.47809 219 209 204
2.20161 -0.281344 7.47815 217 210 204
2.20162 -0.278573 7.47804 226 224 221
2.2017 -0.251211 7.48329 252 243 247
2.2017 -0.248445 7.48336 252 239 245
2.20482 -0.0436246 7.6373 254 252 253
2.2049 -0.0380282 7.63836 253 251 252
2.20482 -0.0408036 7.63734 254 253 253
2.20487 -0.0352119 7.63886 252 251 252
2.20981 -0.0432638 7.60694 254 251 253
2.2099 -0.0376888 7.60799 253 249 252
2.20981 -0.0404537 7.60698 252 251 253
2.20986 -0.0348835 7.6085 251 250 251
2.2391 0.633019 8.13793 249 231 231
2.23622 0.881103 8.01209 252 251 244
2.23621 0.884035 8.01186 251 251 244
2.23645 0.911105 8.01765 239 245 235
2.2364 0.923059 8.01904 243 249 238
2.23645 0.926093 8.01996 244 250 241
2.23719 0.926449 8.05282 247 253 241
2.23724 0.929495 8.05375 248 253 244
2.23731 0.932518 8.05445 248 253 247
2.23572 0.943606 7.98946 243 250 245
2.23665 0.983126 8.029 221 226 231
2.23673 0.992189 8.03094 228 232 237
2.23691 1.0193 8.03567 222 237 237
2.23686 1.02229 8.03594 215 230 230
2.2361 1.02453 8.0033 223 240 244
2.23618 1.02754 8.00398 221 235 240
2.23628 1.06658 8.01022 225 233 236
2.23707 1.07054 8.04395 227 236 237
2.23712 1.08262 8.04597 234 246 237
2.21557 1.24322 7.59998 215 190 195
2.21553 1.24604 7.60006 204 171 180
2.24482 1.14863 7.39069 144 133 139
2.21624 1.27061 7.63323 218 184 182
2.22122 1.26316 7.60299 219 186 185
2.2249 1.22938 7.64265 219 192 181
2.21058 1.27351 7.63268 227 191 192
2.21628 1.29448 7.58652 248 214 206
2.21644 1.29684 7.5837 248 223 217
2.22135 1.29212 7.55376 246 206 202
2.21717 1.27353 7.52276 255 232 227
2.32603 1.66678 6.70823 182 161 138
2.3272 1.67133 6.72883 182 161 138
2.32837 1.67591 6.74959 182 161 138
2.3243 1.68802 6.84619 184 163 138
2.32547 1.69278 6.86789 184 163 138
2.2836 -1.88415 9.39964 161 144 115
2.27508 -1.78172 9.38841 125 132 113
2.2757 -1.77609 9.37693 122 129 110
2.27636 -1.77039 9.36502 143 154 135
2.24127 -1.44637 8.46316 131 159 156
2.23967 -1.40984 8.39358 192 217 222
2.20723 -0.692221 7.4733 136 129 137
2.20783 -0.697808 7.50259 149 140 149
2.20554 -0.611048 7.39704 84 78 79
2.20554 -0.608387 7.39778 90 85 85
2.20023 -0.551614 7.40614 206 210 214
2.20085 -0.54582 7.43682 232 234 233
2.2058 -0.51923 7.41146 168 174 168
2.20522 -0.50627 7.3842 99 112 87
2.20584 -0.508405 7.41312 85 97 73
2.2119 -0.461809 7.41231 147 147 147
2.21152 -0.443438 7.42356 194 201 191
2.21217 -0.442659 7.45354 206 213 206
2.21281 -0.447276 7.48217 211 218 209
2.21282 -0.444574 7.48295 211 219 212
2.20706 -0.311498 7.47306 222 207 207
2.24835 0.958648 8.02352 243 249 245
2.24837 0.961749 8.025 242 248 246
2.24841 0.964826 8.02626 243 249 248
2.24774 0.997228 7.9986 229 234 235
2.24857 1.00091 8.03224 230 234 235
2.24776 1.00323 7.99963 217 224 227
2.24775 1.00615 7.99936 221 228 230
2.24197 1.02736 8.00348 215 232 238
2.24203 1.0304 8.00442 211 224 233
2.2914 1.04597 7.67933 184 183 184
2.23126 1.14336 7.48843 197 192 189
2.23001 1.173 7.50153 224 207 203
2.25889 1.73152 8.18802 233 233 231
2.28457 -1.93301 9.43723 211 178 163
2.2846 -1.92637 9.43849 213 178 161
2.28472 -1.91608 9.43894 209 177 156
2.28468 -1.90646 9.44249 215 186 161
2.28192 -1.78828 9.38693 128 134 115
2.28258 -1.776 9.37661 116 124 104
2.29054 -1.87083 9.40197 75 70 40
2.22987 -1.28251 8.23 186 209 215
2.23065 -1.28805 8.26551 184 207 214
2.23503 -1.28317 8.19542 197 217 224
2.23583 -1.28868 8.2306 195 215 223
2.23507 -1.28013 8.19534 200 220 227
2.23587 -1.28563 8.23052 198 218 226
2.23514 -1.27703 8.19491 204 226 231
2.23594 -1.28252 8.23008 202 224 230
2.24025 -1.27771 8.16057 188 208 215
2.24107 -1.28317 8.19543 186 206 214
2.23512 -1.2538 8.20054 193 214 230
