ply
format ascii 1.0
comment Kinect v1 generated
element vertex 1303
property double x
property double y
property double z
property uchar red
property uchar green
property uchar blue
end_header
2.0683 0.0455092 7.68237 203 214 191
2.06262 0.045508 7.71383 211 224 200
2.05688 0.0426043 7.74512 205 219 193
2.05688 0.0455069 7.74557 214 227 203
2.02918 0.0635163 7.80486 202 206 188
2.04051 0.0632436 7.77469 195 200 182
2.05175 0.0629731 7.74477 193 198 180
2.0629 0.0627049 7.7151 194 199 181
2.07396 0.0624386 7.68567 194 200 181
2.06888 0.163983 7.86124 72 143 255
2.05906 0.298348 7.97291 80 141 255
2.06494 0.312988 7.97601 131 159 240
2.07014 0.551871 7.85318 226 203 197
2.07015 0.554844 7.85371 223 199 196
2.0706 0.581239 7.85576 239 220 220
2.07064 0.584136 7.85585 238 218 217
2.07177 0.6151 7.78947 229 199 201
2.06066 0.623359 7.82011 229 207 205
2.06073 0.626309 7.82039 234 211 210
2.07197 0.623776 7.78977 232 211 208
2.07198 0.626733 7.79029 236 215 213
2.07882 1.2012 7.59562 222 185 170
2.06804 1.22755 7.65868 206 169 156
2.06816 1.24199 7.65995 212 171 167
2.07916 1.23723 7.63083 207 165 160
2.07382 1.26208 7.66344 216 175 171
2.07394 1.26498 7.6636 221 184 177
2.07387 1.26491 7.66343 200 159 155
2.07392 1.26785 7.66382 204 168 161
2.07398 1.2677 7.66319 186 147 142
2.07398 1.27068 7.6638 190 155 148
2.04077 1.29418 7.75269 216 186 175
2.05199 1.28917 7.72291 237 207 194
2.07502 1.30925 7.63379 225 194 186
2.08678 1.34731 7.60782 214 199 185
2.08119 1.35238 7.63881 214 198 184
2.07557 1.35748 7.67004 220 204 190
2.06977 1.35972 7.70138 224 207 196
2.06988 1.36264 7.70157 222 206 197
2.06405 1.36489 7.73311 228 211 201
2.06417 1.36783 7.7333 220 205 196
2.09762 1.34219 7.57912 218 202 188
2.0921 1.34722 7.6099 217 202 188
2.08654 1.35228 7.64088 223 208 194
2.0808 1.35449 7.672 228 211 200
2.08093 1.3574 7.67215 226 209 201
2.07516 1.35962 7.70345 231 214 204
2.07528 1.36255 7.70364 224 209 200
2.08938 1.51684 7.65239 209 203 169
2.08711 -1.90278 9.04675 76 82 71
2.08067 -1.91155 9.08906 83 86 74
2.09984 -1.89436 9.00668 76 82 71
2.0935 -1.90305 9.04857 84 86 75
2.08155 -1.86639 9.04704 191 190 155
2.08142 -1.8568 9.04898 197 195 151
2.08174 -1.85333 9.04822 195 192 147
2.08235 -1.81413 9.05171 160 155 101
2.0824 -1.79148 9.05493 149 142 88
2.08283 -1.78147 9.05471 87 83 36
2.07636 -1.78971 9.09712 68 64 22
2.05912 -1.12207 7.83576 212 217 239
2.06108 -1.04201 7.73839 178 175 193
2.04763 -0.887858 7.6768 207 195 208
2.04774 -0.287632 7.14653 242 226 216
2.04172 -0.272882 7.2355 232 218 209
2.05224 -0.27192 7.20943 236 223 213
2.03678 -0.241619 7.2658 243 227 223
2.05296 -0.226242 7.21265 217 186 190
2.0634 -0.225452 7.18675 217 185 190
2.04777 -0.161655 7.30647 234 223 216
2.04307 -0.151342 7.33393 220 217 206
2.05836 -0.16109 7.27992 237 226 218
2.05369 -0.150814 7.30724 223 220 208
2.09574 -0.0225536 7.39669 215 228 218
2.0761 0.58107 7.85779 237 216 214
2.09055 1.27731 7.63779 228 195 181
1.85485 1.44487 8.24741 173 144 130
2.08561 1.30043 7.63731 180 148 136
2.0856 1.30329 7.63753 179 147 135
2.0965 1.29548 7.60841 190 158 146
2.09648 1.29832 7.60863 194 162 150
2.1114 1.52238 7.62789 226 222 197
2.09443 1.53399 7.72198 223 223 200
2.06117 1.55466 7.81108 197 195 163
2.08429 1.55745 7.71904 208 203 161
2.07254 1.56359 7.78304 220 217 184
2.07269 1.56654 7.78314 202 199 162
2.08419 1.56041 7.71957 194 189 146
2.07257 1.56648 7.78309 206 203 168
2.07265 1.56947 7.78344 188 185 147
2.08754 -1.89277 9.04653 150 154 136
2.08793 -1.86667 9.04893 192 191 156
2.08781 -1.85708 9.05083 198 197 152
2.08834 -1.84054 9.05122 174 169 121
2.08872 -1.81443 9.05365 168 163 109
2.08877 -1.79177 9.05686 115 109 55
2.08911 -1.78829 9.05602 111 104 52
1.73906 -1.88345 10.122 106 116 89
2.11648 -1.35195 7.83781 143 159 164
2.11644 -1.34349 7.83926 138 152 157
2.05575 -1.02752 7.73789 183 178 194
2.05577 -1.02465 7.73816 186 180 195
2.07372 0.125881 7.86065 35 95 225
2.07391 0.13755 7.86154 32 97 225
2.06271 0.143975 7.89275 20 85 212
2.07402 0.143385 7.86194 17 83 209
2.06851 0.158448 7.89586 60 127 251
2.08009 0.178214 7.86664 76 148 255
2.06357 0.214805 7.93324 51 122 251
2.07491 0.211024 7.90187 58 131 247
2.06951 0.235253 7.93677 56 130 250
2.06969 0.246988 7.93752 38 107 254
2.06971 0.249965 7.93795 34 104 250
2.08124 0.2607 7.90772 61 129 251
2.08134 0.266572 7.90814 67 133 255
2.07011 0.273547 7.93969 41 108 240
2.0702 0.276518 7.93987 40 107 241
2.07018 0.276467 7.93974 40 107 242
2.0702 0.279446 7.94017 40 106 244
2.07616 0.302852 7.94399 56 115 234
2.07623 0.589834 7.85839 236 215 211
2.08024 1.03212 7.68425 246 237 224
2.08025 1.03507 7.68481 247 240 227
2.07459 1.03599 7.71578 247 238 226
2.0746 1.03895 7.71631 247 242 229
2.09096 1.61843 7.69241 209 206 182
2.07062 -1.09766 7.80711 173 177 203
2.07071 -1.0948 7.80722 179 182 208
2.07109 -1.08896 7.80669 177 179 205
2.08177 -1.09344 7.77698 172 176 202
2.06568 -0.698832 7.21602 170 165 181
2.07923 0.125681 7.86267 35 94 225
2.09043 0.125164 7.83212 32 89 223
2.08483 0.131315 7.86516 47 109 249
2.07415 0.167018 7.89858 40 109 229
2.08542 0.166338 7.86776 41 107 234
2.07454 0.190471 7.90036 81 156 255
2.0858 0.189699 7.86953 75 150 248
2.08628 0.228186 7.90709 61 133 252
2.08143 0.284961 7.94468 51 114 255
2.08151 0.287879 7.94468 55 115 249
2.08172 0.302662 7.94602 50 110 232
2.07592 0.303698 7.9795 48 107 233
2.08565 0.51074 7.92532 186 164 170
2.07949 0.745946 7.80079 232 224 232
2.07952 0.748911 7.80127 234 226 235
2.07379 0.751705 7.83366 234 226 236
2.07962 0.754743 7.80168 241 233 241
2.08166 0.856781 7.77502 211 204 215
2.10022 -1.89985 9.04965 127 129 117
2.09432 -1.86695 9.05076 185 185 147
2.09419 -1.85737 9.05273 187 187 142
2.09429 -1.85083 9.05331 186 185 138
2.09473 -1.84082 9.05308 176 175 125
2.06891 -1.19114 7.86926 172 176 199
2.06684 -1.04784 7.73853 198 195 210
2.06865 -0.945826 7.61393 218 197 208
2.06873 -0.94303 7.61406 212 192 202
2.06124 -0.430725 7.08337 201 195 190
2.06143 -0.428026 7.08305 201 195 189
2.0561 -0.429758 7.11023 207 200 194
2.06126 -0.422908 7.08426 209 207 198
2.06129 -0.420242 7.0845 209 207 197
2.05595 -0.421946 7.11169 215 212 202
2.07251 -0.393131 7.03143 194 182 170
2.07276 -0.390441 7.03093 199 186 173
2.06751 -0.392024 7.05772 204 191 178
2.0582 -0.238658 7.18363 247 231 227
2.05825 -0.233251 7.1842 241 222 223
2.0528 -0.239709 7.21147 247 229 226
2.05283 -0.234284 7.2121 246 222 224
2.04738 -0.235323 7.24017 248 221 225
2.0416 -0.0726556 7.49953 237 243 230
2.0688 -0.0341191 7.48035 207 222 207
2.09341 0.602815 7.79678 233 210 206
2.07911 1.00484 7.74967 220 205 204
2.07914 1.00771 7.74978 231 216 213
2.09017 1.00095 7.71995 232 216 215
2.0902 1.00381 7.72004 231 216 212
2.09221 1.08579 7.65946 239 215 201
2.08661 1.08986 7.69082 243 216 204
2.09937 1.16072 7.60113 210 187 165
2.09963 1.16646 7.60137 209 176 157
2.09384 1.16506 7.63206 199 173 152
2.08828 1.16942 7.66321 188 159 140
2.08266 1.17383 7.69463 189 158 140
2.08953 1.21978 7.63378 208 166 149
2.0783 1.22899 7.69641 219 181 164
2.07847 1.23187 7.69639 220 181 165
2.09602 1.28865 7.64048 236 202 188
2.09608 1.29158 7.64086 236 196 183
2.09619 1.29448 7.64107 235 195 181
2.09052 1.29645 7.67209 236 197 183
2.08491 1.30135 7.70355 233 193 180
2.11275 1.28576 7.54917 206 172 157
2.0963 1.30024 7.64146 237 199 185
2.09648 1.3031 7.64142 228 192 177
2.09062 1.30223 7.6725 234 195 181
2.08501 1.30716 7.70398 232 193 180
2.09495 1.53118 7.65537 212 207 179
2.10583 1.52533 7.62633 211 206 181
2.12732 1.51094 7.56879 217 212 188
2.10019 -1.88375 9.05219 158 161 132
2.10027 -1.87724 9.05285 179 181 147
2.10071 -1.86723 9.05262 186 186 149
2.10059 -1.85764 9.05455 192 192 148
2.10101 -1.84764 9.0544 188 186 139
2.11643 -1.02378 7.62296 182 179 196
2.11132 -1.03059 7.65237 171 168 182
2.10492 -1.01948 7.65538 181 178 195
2.05183 -0.273319 7.23955 239 229 219
2.05763 -0.227681 7.24478 230 202 208
2.05767 -0.224955 7.24502 233 208 212
2.05222 -0.225963 7.27331 230 205 208
2.05776 -0.219554 7.24537 239 218 219
2.09632 0.142446 7.8352 37 99 230
2.09629 0.148218 7.83594 26 90 217
2.08152 0.588683 7.89476 212 183 179
2.09276 0.586353 7.86394 204 177 173
2.09292 0.58922 7.86359 206 180 173
2.09329 0.607813 7.83147 243 223 215
2.10442 0.602529 7.80076 241 219 211
2.08805 1.17371 7.69668 194 164 145
2.08242 1.17815 7.7283 202 172 153
2.09901 1.1692 7.66731 189 159 139
2.09344 1.1736 7.69872 197 167 147
2.10658 -1.88403 9.05405 160 163 134
2.10122 -1.80226 9.0604 79 82 29
2.10117 -1.79904 9.06103 76 78 31
2.10148 -1.79885 9.05993 82 84 31
2.10134 -1.79571 9.06091 79 80 33
2.10181 -1.79538 9.05911 76 77 25
2.10157 -1.79232 9.06055 73 73 27
2.11415 -1.79089 9.01977 73 75 23
2.11401 -1.78777 9.02079 70 71 25
2.11448 -1.78743 9.01897 67 69 17
2.11426 -1.78438 9.02034 64 65 19
2.07607 -1.42506 8.14206 141 158 158
2.06615 -1.05257 7.77378 179 178 198
2.0661 -1.04973 7.77431 177 176 195
2.06638 -1.04965 7.7734 179 177 194
2.06625 -1.04685 7.77419 176 174 192
2.06666 -1.04671 7.77282 173 170 186
2.06646 -1.04393 7.77385 170 168 184
2.07729 -1.04854 7.74387 183 182 201
2.07723 -1.04571 7.74442 180 179 199
2.07752 -1.04563 7.74348 180 178 196
2.07739 -1.04284 7.7443 178 176 193
2.12146 -1.02697 7.62567 162 162 179
2.12128 -1.02425 7.62667 160 160 177
2.06635 -0.656019 7.1901 169 168 189
2.06633 -0.653338 7.19048 169 169 196
2.05553 -0.658526 7.24646 161 161 189
2.05632 -0.631554 7.21799 176 184 206
2.05631 -0.628858 7.21832 181 189 208
2.09591 0.124965 7.83416 27 83 215
2.09211 0.245655 7.91062 42 110 250
2.09213 0.248569 7.91086 40 108 244
2.09843 0.292409 7.91605 62 122 252
2.09711 0.521817 7.86168 216 196 208
2.09721 0.527672 7.8621 208 187 198
2.09797 0.560938 7.83009 213 191 189
2.09231 0.562989 7.86266 209 186 184
2.09432 0.669153 7.8359 211 192 192
2.08872 0.6746 7.86878 226 207 207
2.09654 0.771944 7.77488 247 238 237
2.09657 0.774897 7.77532 244 235 237
2.09174 0.809936 7.77577 241 223 228
2.09185 0.812865 7.77595 245 228 228
2.09755 0.815647 7.74444 236 221 222
2.09194 0.818684 7.77637 249 234 229
2.09755 0.818524 7.74467 236 225 226
2.09194 0.821572 7.77661 249 238 233
2.09765 0.824319 7.74509 238 229 226
2.09205 0.82739 7.77703 248 237 232
2.09772 0.827172 7.74509 233 226 222
2.09211 0.830255 7.77703 242 235 229
2.08675 0.850894 7.8105 236 231 221
2.09343 0.867762 7.71219 226 224 232
2.09336 0.870657 7.71267 230 230 239
2.0991 0.881817 7.68233 211 211 221
2.09353 0.885094 7.71382 207 207 218
2.08792 0.888397 7.74556 189 189 200
2.10711 -1.8675 9.05443 189 188 152
2.10697 -1.85793 9.05647 195 195 151
2.1074 -1.84792 9.05626 191 191 143
2.10767 -1.81221 9.06062 64 69 12
2.10776 -1.80568 9.06125 64 69 13
2.10761 -1.80254 9.06227 64 69 17
2.10756 -1.79933 9.06292 60 64 17
2.10128 -1.81087 9.10465 57 62 13
2.12115 -1.7907 9.01914 57 60 6
2.12085 -1.78771 9.02081 58 60 10
2.12063 -1.78466 9.02219 53 55 10
2.11458 -1.79595 9.0629 51 53 6
2.07864 -1.26621 7.93786 160 166 197
2.06565 -1.05322 7.84326 153 152 166
2.11021 -1.03427 7.72285 132 132 146
2.1899 -0.730911 6.97987 166 148 172
2.07071 -0.677874 7.22083 159 153 171
2.09184 -0.656891 7.14059 155 150 174
2.08655 -0.662163 7.16795 147 142 159
2.08659 -0.659472 7.16812 151 146 170
2.08126 -0.664771 7.19566 147 142 164
2.07647 -0.656443 7.22301 146 140 168
2.07111 -0.659051 7.25113 146 142 168
2.05988 -0.669897 7.30866 140 136 165
2.09003 0.0903323 7.7952 170 188 193
2.08559 0.199316 7.94027 55 125 244
2.09796 0.265997 7.91427 70 134 253
2.09853 0.307992 7.95256 82 135 233
2.10659 -1.91572 9.09504 58 60 52
2.10702 -1.91214 9.09384 101 102 94
2.11311 -1.89388 9.05389 158 159 142
2.1135 -1.86778 9.05632 191 190 154
2.11336 -1.85821 9.05833 195 195 152
2.11379 -1.8482 9.05811 192 191 144
2.11368 -1.8386 9.06002 186 186 134
2.11411 -1.82859 9.05982 184 183 127
2.12046 -1.81373 9.01843 162 164 105
2.11419 -1.82207 9.06047 154 156 97
2.11429 -1.81555 9.06109 85 90 31
2.09841 -1.44626 8.07511 105 116 110
2.0983 -1.44338 8.07585 129 139 134
2.09263 -1.45234 8.10945 95 106 100
2.0845 -0.960689 7.61869 228 216 234
2.06237 -0.289736 7.18224 240 233 216
2.04118 -0.285161 7.26476 242 231 220
2.0568 -0.278934 7.2412 248 236 225
2.06287 -0.217093 7.24756 234 210 212
2.06291 -0.214366 7.24776 236 216 215
2.07326 -0.218999 7.22131 236 212 214
2.07338 -0.216274 7.22128 239 218 217
2.0733 -0.216334 7.22147 236 212 214
2.07335 -0.213616 7.22167 239 218 217
2.05807 -0.152932 7.37113 220 214 203
2.07391 -0.0905498 7.38375 246 246 238
2.08449 -0.0956643 7.35612 223 222 216
2.08445 -0.0929552 7.35653 227 226 219
2.08448 -0.0902427 7.35672 251 250 243
2.0577 -0.0726155 7.47362 234 240 224
2.06846 -0.0723714 7.44594 234 240 223
2.07916 -0.074861 7.41806 212 216 206
2.07914 -0.0721288 7.41845 233 239 221
2.07917 -0.0693942 7.41866 226 231 218
2.08976 -0.0691638 7.3914 225 230 217
2.07376 -0.048216 7.48159 210 221 210
2.08444 -0.0508093 7.45365 212 221 214
2.08447 -0.0480623 7.45385 207 218 206
2.08471 -0.0425626 7.45359 210 223 207
2.07394 -0.0398896 7.48197 212 226 208
2.08457 -0.0425157 7.45422 210 224 207
2.08469 -0.0207789 7.48762 224 235 217
2.08487 -0.00963711 7.48843 224 235 222
2.1013 0.11602 7.83524 55 113 217
2.09566 0.1163 7.86781 53 112 214
2.10713 0.462941 7.86136 228 221 223
2.10145 0.46164 7.8938 228 221 224
2.09132 0.525381 7.92908 199 175 183
2.10907 0.563531 7.83419 207 186 182
2.10345 0.565593 7.86679 222 201 197
2.10904 0.566439 7.83458 208 195 188
2.10343 0.568511 7.86716 223 210 203
2.09897 0.619334 7.83438 245 229 229
2.11006 0.616902 7.80403 246 233 233
2.08899 1.20694 7.66584 220 187 165
2.09518 1.27213 7.70566 236 196 187
2.08956 1.27697 7.7374 235 197 190
2.08977 1.28862 7.73823 224 185 178
2.10078 1.28076 7.70836 234 196 189
2.10077 1.28364 7.70856 228 190 184
2.11118 1.56291 7.73023 208 208 182
2.11342 -1.91243 9.09575 101 102 94
2.11946 -1.87807 9.05836 179 181 148
2.1199 -1.86805 9.05811 192 193 156
2.12059 -1.82235 9.0623 144 145 88
2.40256 -1.36711 7.21732 104 114 89
2.39731 -1.37582 7.24941 101 112 84
2.12047 -1.81275 9.06429 60 67 10
2.4014 -1.36543 7.22249 106 115 89
2.39618 -1.37412 7.25447 103 113 84
2.12079 -1.80929 9.06353 62 68 10
2.088 -1.39567 8.11135 106 127 126
2.11166 -0.94388 7.59655 186 168 175
2.047 -0.739601 7.4561 135 128 151
2.07835 -0.216547 7.22347 236 210 213
2.07841 -0.213828 7.22364 240 217 218
2.0786 -0.185307 7.25587 246 232 229
2.08907 -0.181991 7.22974 236 221 217
2.0947 -0.0961297 7.36031 229 231 222
2.08964 -0.0904468 7.3587 240 242 234
2.08973 -0.0877309 7.35869 239 239 228
2.10012 -0.0901408 7.33184 240 239 231
2.11052 -0.0952202 7.30461 230 229 223
2.11053 -0.089837 7.30517 229 228 219
2.08429 -0.0591529 7.45302 234 240 234
2.09496 0.0356678 7.72506 234 240 223
2.09504 0.0442931 7.726 231 235 217
2.10598 0.0440972 7.6965 235 238 221
2.08406 0.0587548 7.79081 220 233 212
2.10117 0.116099 7.86983 44 100 202
2.11615 1.20619 7.61047 229 192 171
2.1119 1.2874 7.67977 232 192 182
2.13236 -1.85026 9.01999 190 191 148
2.1328 -1.84028 9.01973 194 193 146
2.09421 -1.34267 7.97331 205 211 232
2.1053 -1.34321 7.94167 174 180 202
2.10016 -1.31962 7.97718 192 203 226
2.08549 -1.20869 7.90791 175 185 209
2.09672 -1.20399 7.87706 168 179 202
2.08255 -1.05339 7.77963 171 170 187
2.09347 -1.05223 7.74985 176 176 195
2.09362 -1.04936 7.74971 168 167 184
2.10461 -1.04535 7.72 157 158 174
2.07872 -0.968799 7.68273 197 183 193
2.07307 -0.972772 7.71419 200 186 196
2.10047 -0.96429 7.62441 178 165 176
2.09496 -0.968212 7.65538 181 168 179
2.11213 -0.909167 7.56677 173 153 163
2.12286 -0.916674 7.53657 189 170 181
2.07743 -0.290392 7.18828 231 212 197
2.10071 0.0584521 7.72906 223 237 216
2.10114 0.116149 7.87013 57 108 211
2.10776 0.180121 7.8767 43 106 250
2.10776 0.183071 7.8772 46 110 253
2.1028 0.221783 7.91292 62 132 241
2.10282 0.224696 7.91315 85 155 255
2.10332 0.254055 7.91535 32 90 247
2.09763 0.254891 7.94854 29 86 243
2.09803 0.278485 7.95033 52 113 251
2.10935 0.28027 7.91912 43 96 254
2.11706 0.698749 7.77794 242 231 236
2.11148 0.698374 7.80965 254 242 239
2.11151 0.701332 7.81009 253 242 239
2.11724 0.707487 7.77861 242 228 236
2.11735 0.716176 7.77925 238 224 234
2.11745 0.721983 7.77965 243 229 234
2.11369 0.809348 7.74994 213 202 208
2.11372 0.812291 7.75037 210 199 207
2.11383 0.818088 7.75078 214 199 209
2.11393 0.821008 7.75097 213 199 208
2.11368 1.08816 7.66779 251 240 221
2.10818 1.09224 7.69914 247 223 206
2.1113 1.58341 7.76506 215 210 186
2.11136 1.58641 7.76547 216 210 183
2.10578 1.59252 7.79765 217 211 187
2.10588 1.5984 7.79806 214 208 181
2.11691 1.59218 7.76793 221 215 188
2.0919 1.84151 8.0178 177 166 174
2.10346 1.82805 7.98504 173 161 175
2.10328 1.83416 7.98601 173 161 169
2.11461 1.82386 7.95413 179 168 178
2.11457 1.82686 7.95444 174 163 171
2.1268 -1.83568 9.06294 193 193 141
2.1269 -1.82915 9.06352 181 180 125
2.10546 -0.72252 7.23147 209 195 224
2.09493 -0.728241 7.28793 213 200 229
2.10553 -0.717165 7.23192 227 215 236
2.10029 -0.719993 7.26003 223 211 236
2.10034 -0.717272 7.26018 224 212 236
2.095 -0.722844 7.28837 226 215 236
2.10564 -0.714489 7.23191 219 209 229
2.10039 -0.717308 7.26003 215 205 229
2.10038 -0.714611 7.26041 216 206 229
2.09511 -0.720148 7.28835 218 209 229
2.09135 -0.667952 7.19925 177 172 188
2.08613 -0.673263 7.2266 179 174 190
2.08607 -0.670588 7.22714 187 183 199
2.07245 -0.584085 7.19747 226 235 239
2.0671 -0.589111 7.22502 213 222 236
2.06709 -0.586414 7.22538 209 218 229
2.0828 -0.582011 7.17168 229 237 241
2.0775 -0.587014 7.19908 216 225 239
2.0775 -0.584324 7.1994 212 220 231
2.113 0.165348 7.87784 28 78 210
2.10797 0.201022 7.91337 57 124 246
2.10834 0.221589 7.91496 75 147 255
2.12521 0.548416 7.83931 248 230 225
2.10844 0.554464 7.93788 209 191 187
2.1366 0.86323 7.62939 246 248 245
2.13123 0.866406 7.6604 251 254 245
2.12581 0.869611 7.69169 248 252 245
2.10998 0.908117 7.75502 219 219 217
2.4423 1.60923 6.62989 167 153 146
2.43963 1.61363 6.64977 167 153 146
2.43695 1.61805 6.66975 168 153 147
2.43426 1.62248 6.68981 168 153 147
2.43688 1.62477 6.6903 169 153 147
2.13978 1.64098 7.71259 216 214 196
2.13435 1.64725 7.7443 207 206 187
2.1323 -1.8947 9.05939 150 152 134
2.13249 -1.88166 9.06061 173 174 145
2.127 -1.82262 9.06413 127 128 71
2.09827 -1.45904 8.14788 138 154 147
2.09812 -1.45319 8.14911 123 137 134
2.4013 -1.37438 7.25615 98 109 81
2.40381 -1.36716 7.24659 83 92 68
2.10465 -1.41115 8.07987 172 190 194
2.11602 -1.40554 8.04771 177 194 201
2.09461 -0.995052 7.68631 203 191 208
2.10012 -0.981201 7.68971 183 171 186
2.09458 -0.985213 7.72112 198 185 200
2.00048 -0.837281 7.78991 127 116 125
1.99445 -0.840786 7.82224 131 120 129
2.09309 -0.268243 7.16607 244 229 224
2.09313 -0.265547 7.16628 244 231 226
2.08782 -0.2694 7.19379 245 228 224
2.08786 -0.266695 7.19402 245 229 227
2.10354 0.585114 7.90303 229 199 200
2.11471 0.582795 7.87215 242 219 219
2.12053 0.595301 7.84075 228 203 205
2.12057 0.598192 7.84088 227 200 201
2.11784 1.02842 7.69872 221 210 198
2.11794 1.03124 7.69856 228 217 205
2.15076 -1.89656 9.02133 123 126 115
2.14488 -1.90831 9.0619 97 99 92
2.14464 -1.90527 9.06333 120 123 113
2.13269 -1.86861 9.06181 189 190 153
2.14524 -1.86033 9.02161 192 193 156
2.13257 -1.85902 9.06375 190 191 149
2.1451 -1.8508 9.02363 193 193 151
2.133 -1.84901 9.06355 192 193 146
2.1332 -1.83595 9.06474 196 196 143
2.1333 -1.82942 9.06535 178 179 123
2.1334 -1.82289 9.06592 123 125 69
1.79228 -1.92281 10.1171 115 123 88
2.14634 -1.7888 9.02812 74 80 36
2.10177 -0.892973 7.59653 237 225 235
2.08732 -0.286914 7.22251 250 244 235
2.08736 -0.2842 7.22274 250 242 234
2.09286 -0.269615 7.19575 243 224 223
2.0929 -0.26691 7.19598 243 225 226
2.08262 -0.250357 7.25328 255 235 234
2.08265 -0.247633 7.25354 255 238 236
2.07726 -0.25146 7.28161 255 242 238
2.0773 -0.248725 7.28186 255 243 239
2.0881 -0.238501 7.22594 238 221 226
2.08279 -0.239556 7.25406 233 221 224
2.07743 -0.240619 7.28239 237 228 230
2.09842 -0.237668 7.20001 240 224 229
2.09316 -0.238715 7.22792 235 224 228
2.08786 -0.239771 7.25605 240 230 233
2.08818 -0.223506 7.2571 248 239 244
2.08284 -0.22451 7.28545 248 231 237
2.07794 -0.195651 7.31605 199 179 173
2.10529 -0.0466784 7.4936 234 239 230
2.10545 -0.0439154 7.49335 234 241 231
2.11371 0.212564 7.91629 36 103 234
2.1139 0.22134 7.91671 46 115 237
2.11505 0.295613 7.95772 68 122 255
2.13159 1.17559 7.64633 209 177 151
2.13763 1.23987 7.61578 230 202 182
2.1397 -1.82969 9.06715 183 183 128
2.11538 -1.45059 8.11779 162 176 172
2.41784 -1.36789 7.22237 113 124 98
2.11149 -1.39032 8.08048 152 172 183
2.12285 -1.38479 8.04827 154 174 187
2.11355 -1.16586 7.81739 166 172 205
2.10274 -1.15311 7.84917 163 171 205
2.10291 -1.15019 7.84901 179 189 220
2.11382 -1.14866 7.81877 159 168 203
2.11398 -1.14575 7.8186 179 188 223
2.11489 -1.07612 7.75585 216 218 236
2.12569 -1.07764 7.72566 188 193 213
2.104 -1.07454 7.78622 203 203 231
2.10415 -1.07165 7.7861 201 201 230
2.11499 -1.07042 7.75628 214 214 238
2.11514 -1.06754 7.75614 214 214 238
2.10049 -0.959896 7.72474 198 181 185
2.09494 -0.96384 7.75641 188 170 174
2.08933 -0.967815 7.78833 185 168 171
2.12246 -0.949761 7.66565 196 176 181
2.11704 -0.953634 7.69683 185 165 170
2.11156 -0.95754 7.72829 183 163 167
2.11855 -0.840659 7.50904 156 139 150
2.07348 -0.723912 7.43594 155 151 174
2.10582 -0.69603 7.26355 152 148 173
2.10077 -0.704147 7.2905 173 169 195
2.10063 -0.701481 7.29131 162 158 184
2.10056 -0.698792 7.2919 147 143 168
2.08862 -0.55317 7.14557 176 190 199
2.12824 0.0832443 7.74091 222 237 231
2.10641 0.0897288 7.80125 170 193 200
2.11741 0.0893557 7.77121 176 199 206
2.12832 0.0889855 7.74139 187 210 218
2.13447 0.129248 7.81421 51 100 217
2.11851 0.16515 7.87987 16 64 195
2.12967 0.170297 7.84964 25 76 207
2.11971 0.558145 7.90723 203 191 184
2.1141 0.560199 7.94035 202 190 183
2.1308 0.555934 7.87636 203 187 179
2.12526 0.557971 7.90922 202 186 178
2.13085 0.558834 7.87646 203 194 186
2.1253 0.560884 7.90934 202 193 185
2.14187 1.77278 7.85688 168 161 173
2.14486 -1.8922 9.06443 141 144 121
2.1387 -1.90093 9.10679 147 150 128
2.15735 -1.88383 9.02425 140 143 120
2.15127 -1.89247 9.06623 146 149 127
1.79562 -1.92973 10.1345 88 96 59
2.14618 -1.80731 9.07219 82 90 41
2.14629 -1.80077 9.07275 81 87 44
2.14614 -1.79763 9.0738 65 70 34
2.1466 -1.7973 9.07201 75 81 39
2.14637 -1.79425 9.07344 59 64 28
2.11967 -1.13455 7.82141 236 246 255
2.10151 -0.899692 7.62932 218 199 209
2.08401 0.00244309 7.65177 225 234 232
2.14447 0.0826994 7.71332 191 210 206
2.13385 0.09163 7.74329 159 184 207
2.13385 0.0945269 7.74378 140 173 203
2.14457 0.0884184 7.71372 158 182 194
2.14463 0.0913019 7.71398 139 171 191
2.1553 0.0880543 7.68433 152 176 187
2.15536 0.0909267 7.68458 133 165 183
2.1398 0.11162 7.81414 24 77 164
2.12889 0.123764 7.84612 31 77 186
2.12895 0.126694 7.84639 38 84 198
2.12335 0.124074 7.87875 35 78 186
2.12342 0.127016 7.879 33 77 189
2.1364 0.240559 7.89154 19 71 224
2.14108 0.511608 7.87695 204 183 181
2.13616 0.546942 7.87763 200 178 176
2.13623 0.549899 7.87792 189 166 164
2.13065 0.54894 7.91045 200 178 175
2.13628 0.549823 7.87745 204 185 178
2.13627 0.5528 7.87803 192 173 166
2.13077 0.551833 7.91027 204 185 177
2.15129 -1.90857 9.06367 103 105 98
2.15171 -1.905 9.06244 123 124 117
2.16415 -1.89658 9.02234 124 126 118
2.15779 -1.87386 9.024 166 167 139
1.82679 -1.88642 10.0226 78 88 62
1.81869 -1.89578 10.0729 94 104 78
2.11657 -1.35834 7.97937 184 200 217
2.11646 -1.35549 7.98012 188 202 219
2.11092 -1.364 8.01294 171 187 203
2.11082 -1.36114 8.01366 175 189 207
2.12777 -1.35301 7.94795 180 198 217
2.12767 -1.35016 7.94866 184 200 219
2.12219 -1.35862 7.98127 167 185 203
2.12209 -1.35577 7.98198 171 187 207
2.1234 -1.25171 7.88406 213 222 237
2.117 -0.938276 7.66545 205 184 192
2.11701 -0.935443 7.66575 207 186 194
2.07101 -0.341644 7.24276 223 205 191
2.07104 -0.338925 7.24303 226 213 199
2.06564 -0.345805 7.27058 226 211 194
2.0814 -0.340437 7.21673 224 206 192
2.08144 -0.337727 7.21697 227 214 200
2.0761 -0.344577 7.24432 227 212 195
2.09746 -0.296621 7.19585 248 238 235
2.10319 -0.253967 7.20088 250 229 230
2.09341 -0.210241 7.26022 222 199 203
2.10376 -0.209506 7.23404 221 198 203
2.12467 -0.185601 7.15422 245 228 228
2.12471 -0.182962 7.15436 244 227 226
2.08392 -0.159392 7.29002 238 228 215
2.08408 -0.156642 7.28984 233 225 214
2.09433 -0.158839 7.26365 236 226 214
2.0945 -0.156098 7.26346 231 223 213
2.11492 -0.155088 7.2118 239 230 219
2.11502 -0.152372 7.21184 235 227 218
2.06217 -0.168103 7.4048 161 144 131
2.11005 -0.102224 7.36592 212 210 196
2.09993 -0.0833481 7.39417 219 219 211
2.10002 -0.0701573 7.42648 206 213 202
2.09999 -0.0674237 7.42692 209 216 204
2.11052 -0.0672001 7.39957 209 216 204
2.11056 -0.0644738 7.39976 213 221 206
2.13813 0.0127254 7.57306 221 235 228
2.1164 0.017968 7.6983 215 230 216
2.13867 0.0600302 7.70965 218 228 209
2.13184 0.600815 7.84467 222 202 211
2.14271 0.601372 7.81488 219 194 201
2.13912 1.01057 7.70556 245 236 231
2.13917 1.01351 7.70595 245 234 228
2.14656 1.11281 7.58378 248 231 218
2.12496 1.12362 7.70718 237 213 194
2.14658 1.11563 7.58391 248 231 218
2.12511 1.12641 7.70683 237 213 194
2.1306 1.13095 7.67659 245 231 214
2.13063 1.1339 7.67709 245 226 211
2.13631 1.14407 7.64702 227 201 182
2.17012 -1.90039 9.02526 110 112 105
2.16426 -1.86763 9.02639 206 207 174
2.1766 -1.85941 8.98662 219 220 187
2.12691 -1.45406 8.12088 127 140 137
2.12679 -1.44526 8.12237 143 154 155
1.80567 -1.91141 10.1769 100 109 93
2.14655 -1.80936 9.11705 70 77 36
2.1273 -1.40941 8.08827 175 187 194
2.1386 -1.40381 8.05603 170 183 190
2.12324 -1.27738 7.91669 202 211 228
2.1056 -0.972955 7.75998 211 193 197
2.12442 -0.190435 7.2133 218 197 195
2.12598 -0.0829906 7.34212 219 221 208
2.12613 -0.0802801 7.34189 216 217 208
2.1363 -0.0827125 7.31538 219 221 207
2.13645 -0.080012 7.31516 214 215 205
2.14654 -0.0824371 7.28888 199 203 187
2.12705 0.00476849 7.56992 207 220 215
2.13605 0.539969 7.91191 231 209 211
2.13738 0.615219 7.84813 242 217 218
2.18815 1.14131 7.40791 244 219 196
2.13588 1.12506 7.6782 239 224 204
2.19928 1.1338 7.37702 240 215 192
2.14653 1.11795 7.64914 235 220 201
2.22583 1.34608 7.30219 238 235 215
2.12863 -1.28925 7.91765 180 189 214
2.12854 -1.28641 7.91833 177 186 211
2.11819 -1.24777 7.95261 184 194 215
2.12935 -1.24289 7.92139 187 196 219
2.1193 -1.16253 7.85383 196 202 238
2.11823 -0.874124 7.60339 197 178 188
2.11226 -0.628784 7.18008 121 127 147
2.11398 -0.5334 7.12772 226 237 235
2.13344 0.0686048 7.77565 229 236 226
2.13347 0.0714626 7.77583 220 228 218
2.11739 0.100949 7.90981 31 79 150
2.12848 0.100527 7.87897 35 83 153
2.13949 0.100108 7.84834 26 72 142
2.14038 0.14951 7.85181 25 69 185
2.13753 0.305803 7.93139 69 129 232
2.14859 0.304575 7.90033 65 125 232
2.14656 0.508534 7.87886 225 203 204
2.14661 0.511432 7.87893 219 197 196
2.15913 0.595947 7.78612 229 209 216
2.13858 0.979504 7.73678 250 239 244
2.17084 -1.8549 9.02938 209 211 169
2.17083 -1.83886 9.03194 200 201 151
2.17125 -1.8289 9.03174 191 192 138
2.17135 -1.8224 9.03235 188 190 133
2.16531 -1.81464 9.07698 108 117 66
2.12275 -1.40886 8.11949 123 141 143
2.13333 -1.35633 7.98576 176 194 214
2.11699 -0.957805 7.73021 201 181 186
2.11168 -0.964515 7.76087 207 187 191
2.11862 -0.839664 7.57376 123 108 122
2.14706 -0.696036 7.12704 146 139 161
2.13417 0.109101 7.88163 8 54 139
2.12865 0.109353 7.91448 23 68 155
2.1453 0.117347 7.85162 26 66 165
2.13984 0.117632 7.88425 28 67 166
2.14557 0.131909 7.85273 27 72 180
2.14043 0.15267 7.88689 26 67 186
2.14054 0.158511 7.88729 35 76 197
2.15213 0.511256 7.88093 222 202 200
2.15259 0.537656 7.88303 236 212 211
2.14714 0.53962 7.91591 232 208 207
2.15266 0.540552 7.88305 226 202 200
2.14719 0.542531 7.91598 222 198 196
2.16352 0.535532 7.85234 229 204 203
2.15812 0.537482 7.88501 225 200 199
2.16357 0.538421 7.85244 220 196 193
2.15817 0.540382 7.8851 216 192 189
2.15815 0.544436 7.85095 207 180 177
2.15274 0.546419 7.88357 210 184 181
2.17469 0.558821 7.75572 201 172 167
2.15301 0.561105 7.88475 238 208 203
2.16406 0.566801 7.78604 170 151 147
2.16401 0.575453 7.78703 203 183 186
2.17475 0.57321 7.75712 206 185 189
2.14612 0.799808 7.76163 230 218 222
2.14622 0.80273 7.76184 230 219 222
2.14071 0.802779 7.79361 235 223 222
2.1408 0.805715 7.79385 234 222 222
2.14633 0.808525 7.76223 222 208 211
2.14092 0.811531 7.79421 223 210 208
2.15284 0.871733 7.70168 232 234 239
2.15288 0.874662 7.70212 229 231 239
2.14749 0.874969 7.73324 233 235 239
2.14752 0.877911 7.7337 224 225 234
2.14377 0.970667 7.73828 247 238 239
2.13836 0.974306 7.7701 246 237 237
2.17691 -1.8971 9.02586 131 134 125
2.17661 -1.89415 9.02761 142 145 133
2.17093 -1.9058 9.06781 137 140 131
2.17649 -1.88463 9.02959 142 144 122
2.14429 -1.41283 8.05668 148 160 168
2.14314 -0.988882 7.63769 193 184 196
2.13781 -0.992892 7.66865 179 170 182
2.12323 -0.896783 7.60353 197 174 185
2.11783 -0.900428 7.6343 207 184 194
2.1339 -0.893429 7.57495 196 175 184
2.12857 -0.897047 7.60549 206 185 193
2.12907 -0.844883 7.54498 173 151 169
2.12359 -0.245468 7.17964 248 238 236
2.11844 -0.246541 7.20738 244 229 228
2.12372 -0.237477 7.18017 247 236 239
2.11858 -0.23852 7.20791 245 224 229
2.13459 -0.19247 7.18704 231 209 207
2.13711 -0.0296631 7.41218 236 248 236
2.13714 -0.0269333 7.41238 226 238 226
2.13723 -0.0242022 7.41235 216 227 218
2.12157 -0.0138067 7.5022 215 227 217
2.12166 -0.00823236 7.50262 224 235 231
2.1217 -0.00546982 7.50282 225 236 232
2.1428 -0.00273754 7.44726 214 224 220
2.15888 0.585323 7.85395 237 215 221
2.15359 0.600994 7.81889 229 209 211
2.16438 0.595772 7.7886 232 210 214
2.16442 0.598642 7.78872 233 211 213
2.1437 0.661841 7.8536 231 210 217
2.15461 0.659244 7.82317 231 215 220
2.14982 0.697332 7.82403 247 234 240
2.15751 1.13046 7.68711 242 210 201
2.2381 1.18507 7.30784 210 207 177
2.18989 1.13365 7.50341 216 190 164
2.15775 1.14484 7.688 232 207 185
2.15783 1.14776 7.68831 229 210 184
2.16335 1.15796 7.59254 231 195 177
2.15809 1.16227 7.6233 240 204 186
2.1528 1.1666 7.65428 240 210 192
2.19521 1.1845 7.44771 252 218 210
2.19003 1.18601 7.47729 241 206 198
2.1746 1.19629 7.56733 248 221 212
2.17103 -1.87673 9.07194 204 205 174
2.1834 -1.86842 9.03173 199 200 170
2.17114 -1.8702 9.07251 205 206 173
2.17123 -1.86369 9.07319 206 208 172
2.17133 -1.85715 9.07377 209 211 173
2.17173 -1.83104 9.0762 174 178 125
2.14488 -1.37437 8.02283 129 145 160
2.13977 -1.28982 7.92149 162 172 197
2.13996 -1.27822 7.92238 145 154 182
2.14132 -1.15859 7.82721 205 216 235
2.13587 -1.16336 7.85961 198 208 226
2.12197 -0.344263 7.17263 247 229 215
2.12199 -0.341574 7.17291 247 230 214
2.11682 -0.345698 7.20032 244 224 212
2.11685 -0.342999 7.20059 247 226 212
2.12277 0.0919395 7.98163 118 138 154
2.15202 0.501175 7.9149 219 196 201
2.15215 0.504067 7.91469 218 198 200
2.15767 0.511078 7.88288 229 209 208
2.15226 0.509946 7.9151 223 202 202
2.15223 0.512936 7.91576 225 204 204
2.16322 1.14764 7.6903 235 222 197
2.18391 -1.83593 9.03474 212 215 169
2.18402 -1.82942 9.03528 209 213 162
2.12804 -1.38562 8.08893 132 148 163
2.15008 -1.38068 8.02548 120 138 138
2.15053 -1.37464 8.02471 122 139 152
2.16119 -1.37523 7.99374 118 136 136
2.16164 -1.36923 7.99299 116 132 145
2.13895 -1.35662 7.98768 175 195 214
2.15007 -1.35128 7.95621 176 191 217
2.16091 -1.35179 7.92474 137 154 165
2.17184 -1.34653 7.89382 129 145 157
2.14639 -1.17898 7.82793 175 183 212
2.14332 -0.976256 7.67233 221 210 219
2.13796 -0.983074 7.70323 203 191 202
2.14364 -0.964966 7.67278 230 213 222
2.14385 -0.962096 7.67243 197 179 187
2.14411 -0.959199 7.67187 195 176 183
2.13937 -0.874198 7.57891 194 174 184
2.13934 -0.871413 7.57938 182 163 174
2.15435 0.311109 7.93771 96 150 253
2.14686 0.520714 7.94932 221 196 197
2.1588 0.897887 7.73906 226 226 227
2.15712 1.11023 7.68554 244 223 201
2.18989 -1.86219 9.0341 193 193 162
2.19009 -1.8492 9.03531 198 200 162
2.1903 -1.83619 9.03647 205 209 163
2.1904 -1.82969 9.03709 198 201 152
2.16599 -0.732659 7.19411 150 146 174
2.16101 -0.735525 7.22189 157 153 185
2.156 -0.738406 7.24982 150 147 178
2.11526 -0.778622 7.47638 132 122 145
2.15678 -0.670448 7.13537 161 156 176
2.16126 0.0906275 7.82122 160 180 200
2.17183 0.356502 7.91139 188 190 210
2.1827 0.355082 7.88055 184 186 205
2.17459 0.876988 7.71025 236 235 236
2.18351 1.66076 7.73031 226 220 209
2.17932 1.70866 7.79828 198 185 173
2.1763 1.84355 7.87415 174 163 182
2.18284 -1.91027 9.07447 91 96 88
2.19517 -1.90181 9.03424 92 96 89
2.19542 -1.89841 9.03373 121 125 116
2.20739 -1.89342 8.9943 93 98 90
2.19586 -1.88844 9.03349 161 163 146
2.18364 -1.89032 9.07433 136 137 116
2.18375 -1.88379 9.07492 193 194 167
2.18386 -1.87725 9.07546 187 188 159
2.19051 -1.82318 9.03762 150 154 102
2.18458 -1.83154 9.07965 152 157 104
2.46729 -1.34742 7.14346 96 111 84
2.1907 -1.81019 9.03891 57 70 13
2.19049 -1.80713 9.04025 62 76 23
2.18824 -1.34157 7.86493 127 144 156
2.16201 -1.25398 7.86232 190 198 224
2.15663 -1.25914 7.89492 183 192 219
2.1512 -1.26434 7.92781 185 193 221
2.14349 -0.994579 7.70329 212 201 211
2.13314 -1.00824 7.7641 193 182 190
2.1549 -0.959723 7.67566 196 178 185
2.13884 -0.908823 7.60927 195 176 182
2.14945 -0.905424 7.58067 210 190 197
2.14959 -0.902618 7.58056 221 202 209
2.12726 -0.328476 7.1757 248 238 237
2.12779 -0.292567 7.20801 252 225 223
2.12265 -0.293817 7.23595 252 224 224
2.12336 -0.254823 7.20873 248 220 221
2.12858 -0.24431 7.21145 234 206 207
2.11541 -0.0720719 7.49581 202 207 193
2.11539 -0.0693149 7.49619 208 214 198
2.14984 0.0679498 7.78124 221 228 210
2.14452 0.0651179 7.81253 206 214 196
2.14445 0.068037 7.8133 227 230 214
2.13908 0.0651946 7.84488 211 220 200
2.13901 0.0681248 7.84561 227 230 213
2.15319 0.558892 7.95374 203 185 173
2.1642 0.556669 7.92256 203 184 172
2.16466 0.599795 7.85712 215 190 198
2.17551 0.594541 7.82635 213 184 195
2.1755 0.597437 7.82666 214 185 194
2.19616 -1.91041 9.07604 128 133 126
2.2081 -1.90542 9.0366 101 106 101
2.20843 -1.90195 9.03579 131 135 128
2.20224 -1.8887 9.03526 166 167 151
2.19005 -1.89058 9.0761 140 140 119
2.19016 -1.88405 9.07669 196 197 170
2.47337 -1.35512 7.12807 91 99 75
2.19699 -1.81695 9.04005 90 95 43
2.15067 -1.32799 7.99378 130 137 156
2.16161 -1.3257 7.96228 149 156 174
2.15076 -1.32215 7.99426 139 146 168
2.15095 -1.31916 7.99399 138 148 163
2.16202 -1.31398 7.96251 144 153 168
2.15988 -0.954478 7.67976 183 164 169
2.1599 -0.907606 7.55183 188 169 177
2.16828 -0.271355 7.13644 220 196 195
2.16834 -0.268725 7.13654 240 216 215
2.1503 -0.157487 7.2555 233 225 215
2.14169 -0.0663165 7.44289 233 238 221
2.15207 -0.066097 7.41547 239 244 227
2.14709 -0.0582502 7.44522 233 239 225
2.15736 -0.0607922 7.41782 238 245 228
2.15746 -0.0580603 7.41778 227 233 219
2.1679 -0.0551483 7.39031 229 236 224
2.16812 -0.0524226 7.38984 232 238 228
2.16838 -0.0496958 7.38917 229 237 226
2.1687 -0.0469678 7.38832 221 229 217
2.20277 -1.8562 9.03817 191 192 157
2.20287 -1.84971 9.03879 193 194 156
2.20307 -1.83671 9.04002 186 189 144
2.20318 -1.8302 9.04056 193 196 148
2.20328 -1.82371 9.04119 155 158 107
2.20337 -1.81721 9.04182 104 108 57
1.84521 -1.92807 10.1687 111 119 95
2.16116 -1.44348 8.09633 114 124 129
2.15582 -1.45238 8.12968 100 109 114
2.14447 -1.46182 8.20033 109 118 124
2.47487 -1.35512 7.15659 70 83 56
2.47 -1.36367 7.18799 56 68 42
2.46378 -1.37019 7.2373 65 77 51
2.16152 -1.4345 8.09627 125 135 140
2.15581 -1.4377 8.13175 148 158 163
2.15571 -1.43481 8.13249 137 147 152
2.16186 -1.43138 8.09546 145 156 161
2.15609 -1.43461 8.13118 168 179 184
2.15591 -1.43177 8.13221 157 168 173
2.17268 -1.4288 8.06402 114 124 129
2.16704 -1.43196 8.0992 137 147 152
2.16695 -1.42908 8.09992 126 136 141
2.1725 -1.41723 8.06624 136 147 152
2.15617 -1.41063 8.0964 142 157 161
2.1619 -1.39626 8.10023 81 99 100
2.1564 -1.30505 7.96184 181 193 210
2.15667 -1.29627 7.96213 198 208 228
2.16768 -1.29119 7.93086 213 223 236
2.15668 -1.28759 7.96325 188 197 218
2.1571 -1.28163 7.96257 200 208 229
2.16769 -1.28255 7.93199 209 218 232
2.14662 -1.23451 7.96256 134 143 176
2.15256 -1.15842 7.86574 222 235 245
2.1528 -1.15546 7.86527 221 234 245
2.1633 -1.15684 7.83535 214 226 243
2.16345 -1.15394 7.83523 225 238 245
2.13835 -1.00577 7.76731 217 205 208
2.13816 -1.003 7.76836 222 210 214
2.1489 -1.00486 7.73813 202 191 193
2.14878 -1.00207 7.73891 207 196 199
2.15943 -1.00392 7.70894 177 166 174
2.15938 -1.00111 7.70948 182 171 180
2.15965 -1.00103 7.70853 194 182 185
2.15953 -0.998254 7.70933 199 187 191
2.16003 -0.908722 7.58435 174 156 163
2.1548 -0.912397 7.61489 178 160 167
2.16011 -0.905942 7.58446 171 153 160
2.15488 -0.909605 7.615 175 157 164
2.17053 -0.905332 7.55591 167 150 157
2.16535 -0.908984 7.58627 172 154 161
2.14704 -0.681313 7.21884 157 149 171
2.14691 -0.678671 7.21962 164 156 178
2.1049 0.00555886 7.82928 202 218 202
2.17625 0.0416383 7.68796 230 240 224
2.17619 0.04451 7.68869 234 242 228
2.16659 0.0787998 7.822 185 198 182
2.16676 0.0816674 7.82167 178 192 184
2.16736 0.116542 7.85941 35 75 159
2.16742 0.119472 7.85966 31 74 162
2.16199 0.116823 7.89205 28 68 151
2.16205 0.119765 7.89232 26 68 155
2.1831 0.73498 7.77087 233 213 225
2.17784 0.734732 7.8023 233 211 226
2.17839 0.775697 7.77181 243 234 236
2.17848 0.778622 7.77206 239 230 233
2.17848 0.778546 7.77173 244 236 238
2.1785 0.781492 7.7722 240 232 235
2.17946 0.842334 7.74309 228 224 219
2.17753 1.04633 7.689 248 240 237
2.17759 1.04925 7.68938 247 239 234
2.17375 1.1284 7.72607 250 229 225
2.18577 1.17896 7.68392 235 211 210
2.18328 1.64648 7.7625 203 204 183
2.15763 -1.19559 7.90003 184 189 230
2.16465 -1.06317 7.80797 181 177 200
2.17524 -0.990479 7.6495 183 173 188
2.17533 -0.987677 7.6496 161 149 161
2.16497 -0.982934 7.67902 210 196 207
2.17542 -0.982056 7.65002 196 183 195
2.17041 -0.928784 7.58656 195 178 183
2.1808 -0.928084 7.55797 182 165 171
2.18088 -0.925315 7.55809 187 171 175
2.14951 -0.935724 7.64317 194 174 177
2.14421 -0.93953 7.67418 196 176 179
2.13336 -0.944431 7.73764 184 165 169
2.12792 -0.948319 7.7694 180 161 164
2.16013 -0.932208 7.61432 185 167 169
2.15489 -0.935983 7.64506 187 169 171
2.14416 -0.940841 7.70809 175 158 161
2.13878 -0.9447 7.73961 171 153 156
2.17659 -0.859966 7.52791 146 126 135
2.14659 -0.695023 7.24894 142 135 152
2.15655 -0.697861 7.2227 130 123 141
2.16191 -0.660182 7.13825 161 155 180
2.15695 -0.662761 7.16561 165 157 184
2.15196 -0.668034 7.19282 165 158 182
2.14377 -0.545361 7.13866 115 127 135
2.13894 -0.53693 7.16671 120 133 143
2.16692 0.0816059 7.85595 203 219 212
2.16712 0.0903245 7.89173 135 159 169
2.17262 0.101824 7.86034 86 113 175
2.17266 0.10471 7.86053 71 99 164
2.18233 0.316034 7.9479 110 157 236
2.18793 0.329638 7.91598 202 207 232
2.18385 0.775541 7.77377 244 239 242
2.18393 0.778467 7.77403 245 239 242
2.18392 0.778394 7.77373 240 234 236
2.18395 0.781341 7.77421 241 234 236
2.18405 0.787138 7.77461 231 223 227
2.18116 0.932048 7.74946 254 252 244
2.17808 1.07039 7.72402 251 239 232
2.21482 -1.9022 9.0375 131 135 128
2.20899 -1.91093 9.07955 131 136 127
2.20862 -1.88897 9.03705 159 162 145
2.20279 -1.89762 9.07899 158 161 143
2.22078 -1.88064 8.99711 159 161 145
2.21501 -1.88922 9.03875 159 161 143
2.20874 -1.88246 9.03754 151 152 129
2.20883 -1.87597 9.03822 200 200 173
2.20893 -1.86948 9.03881 191 191 159
2.20915 -1.85647 9.03997 184 184 144
2.20925 -1.84997 9.04056 195 196 152
2.20947 -1.83696 9.04172 184 186 136
2.20957 -1.83047 9.04234 191 193 142
2.20967 -1.82397 9.04294 181 185 132
2.17261 -1.42644 8.1023 126 136 140
2.17785 -1.34683 7.93056 173 187 210
2.15704 -0.350475 7.12667 249 240 231
2.15701 -0.347814 7.12713 249 243 233
2.15703 -0.345144 7.1274 249 237 228
2.15205 -0.351923 7.154 243 229 222
2.15736 -0.326622 7.12863 235 224 215
2.15238 -0.327982 7.15596 235 222 212
2.15241 -0.3253 7.15622 233 218 208
2.14737 -0.329352 7.18348 232 222 209
2.14739 -0.326662 7.18377 235 224 212
2.16353 -0.260571 7.13495 243 223 219
2.15855 -0.259013 7.16278 244 227 221
2.15365 -0.2655 7.18926 241 218 217
2.15358 -0.262818 7.18987 244 229 225
2.14863 -0.266644 7.21699 237 218 215
2.14445 -0.203135 7.25028 208 186 182
2.15512 -0.173875 7.25629 234 221 214
2.15004 -0.174692 7.28456 238 230 224
2.14736 -0.153412 7.30756 237 235 226
2.14621 -0.150867 7.31191 245 244 233
2.15578 -0.147763 7.2879 230 229 220
2.15699 -0.0698894 7.32438 220 223 206
2.15195 -0.067565 7.35332 214 220 201
2.13127 -0.0616015 7.50273 236 243 228
2.16266 -0.0582623 7.41971 233 239 226
2.17489 0.221638 7.90392 18 64 189
2.18229 1.01164 7.68852 250 239 247
2.18235 1.01457 7.68891 250 236 245
2.18292 1.0462 7.691 241 227 228
2.19453 1.09622 7.65811 248 229 215
2.21826 1.09807 7.54665 251 229 213
2.22043 1.10271 7.53956 251 230 218
2.21555 -1.85672 9.04164 188 188 147
2.21586 -1.83722 9.04346 185 187 137
2.21597 -1.83071 9.04403 193 196 145
2.21606 -1.82422 9.04466 191 195 142
2.21618 -1.8177 9.04521 178 184 129
2.17055 -0.987461 7.71403 185 169 181
2.1653 -0.991494 7.7455 187 173 185
2.16523 -0.988677 7.74609 187 172 185
2.18118 -0.983719 7.68466 184 167 181
2.17598 -0.987723 7.71591 186 171 185
2.17591 -0.984919 7.71651 186 170 185
2.14956 -0.985014 7.80783 164 147 159
2.16549 -0.964547 7.71392 153 135 141
2.1602 -0.968495 7.74542 138 120 126
2.16016 -0.96282 7.7463 142 122 124
2.16022 -0.959941 7.74641 138 118 122
2.16597 -0.958751 7.71297 181 164 167
2.16068 -0.962676 7.74448 166 149 152
2.16039 -0.957119 7.7463 170 151 150
2.16033 -0.954298 7.74687 166 147 148
2.16629 -0.955814 7.71218 186 170 172
2.16102 -0.959723 7.74365 171 155 157
2.1606 -0.954223 7.74593 176 157 155
2.16048 -0.951431 7.74674 172 153 153
2.16669 -0.952842 7.7111 195 179 180
2.16141 -0.956739 7.74257 180 164 165
2.16087 -0.9513 7.74533 185 166 163
2.16069 -0.948537 7.74638 181 162 161
2.17634 -0.958022 7.68421 169 152 155
2.17112 -0.961924 7.71544 154 137 140
2.17095 -0.956329 7.71679 158 139 138
2.17095 -0.953495 7.71717 154 135 136
2.13522 -0.147054 7.3833 204 204 193
2.16007 -0.184913 7.25719 230 208 208
2.15503 -0.185768 7.28541 237 215 216
2.22152 -1.88297 9.04102 150 150 127
2.22162 -1.87648 9.04164 198 198 168
2.22182 -1.86349 9.04286 194 193 158
2.22194 -1.85698 9.04342 189 187 147
2.22226 -1.83747 9.04515 192 194 143
2.22235 -1.83098 9.04581 197 199 149
2.22257 -1.81796 9.04694 183 187 133
1.8899 -1.89557 10.0759 89 99 86
2.22209 -1.41009 7.97592 115 125 126
2.1741 -1.19121 7.8711 193 198 238
2.18491 -1.18661 7.84057 197 203 238
2.16521 -0.997177 7.74505 190 176 187
2.16547 -0.980125 7.7464 171 154 165
2.17643 -0.952378 7.68465 155 138 141
2.16109 -0.969628 7.77678 157 141 147
2.16084 -0.966887 7.77807 164 148 153
2.17702 -0.946549 7.68325 174 158 158
2.16194 -0.963607 7.77438 176 160 165
2.16158 -0.960922 7.77612 183 168 170
2.18665 -0.95447 7.65592 151 134 137
2.17122 -0.971807 7.74838 153 137 143
2.17111 -0.969011 7.74915 160 144 149
2.18679 -0.951642 7.65583 153 137 138
2.1715 -0.968877 7.74776 155 139 144
2.17131 -0.966119 7.74882 162 147 150
2.187 -0.948778 7.65546 144 129 130
2.17183 -0.965924 7.74694 146 131 136
2.17159 -0.963192 7.74821 153 139 142
2.19704 -0.953677 7.62691 152 135 138
2.18168 -0.970993 7.71911 154 138 144
2.18163 -0.968178 7.71964 161 145 150
2.18168 -0.898584 7.59234 185 165 175
2.1923 -0.892412 7.56357 198 176 186
2.12603 -0.788606 7.54242 134 120 136
2.12569 -0.785946 7.54401 139 125 145
2.15225 -0.654858 7.22368 163 156 180
2.15224 -0.652175 7.22405 151 144 166
2.14721 -0.657444 7.25164 160 152 174
2.14719 -0.654753 7.25204 139 132 152
2.15424 -0.519372 7.14431 135 142 147
2.15432 -0.51407 7.14469 153 159 162
2.18918 0.115661 7.83281 22 61 138
2.18398 0.118868 7.86549 16 56 138
2.19987 0.115187 7.80261 21 59 136
2.19473 0.118379 7.83502 15 55 135
2.18004 0.19804 7.90409 21 63 176
2.19087 0.19724 7.8733 25 66 174
2.20161 0.196446 7.84277 28 69 175
2.2018 0.205125 7.84317 19 59 171
2.20181 0.208055 7.84367 19 59 173
2.19128 0.22055 7.87506 13 56 175
2.19137 0.223436 7.87502 18 60 181
2.19804 0.290349 7.88228 28 67 201
2.18501 0.473582 7.92415 230 213 222
2.19583 0.471704 7.89326 230 210 220
2.19603 0.47457 7.89277 229 208 220
2.19114 0.521784 7.8956 235 220 223
2.19114 0.524699 7.8959 235 217 219
2.18117 0.586604 7.89639 228 214 219
2.18121 0.589572 7.89678 226 214 219
2.19398 0.71976 7.80739 242 224 231
2.19405 0.722698 7.8077 245 229 231
2.18881 0.725372 7.83993 241 224 231
2.20023 0.786845 7.747 246 240 245
2.19004 0.815985 7.77866 232 227 230
2.19312 1.00345 7.72499 234 228 229
2.18892 1.07013 7.72797 249 222 222
2.19431 1.07767 7.69733 251 241 236
2.19444 1.08056 7.69746 251 240 235
2.19437 1.0805 7.69733 252 241 237
2.19442 1.08343 7.69774 252 240 236
2.19453 1.0892 7.69812 252 238 236
2.19467 1.09209 7.69823 252 237 236
2.19581 -1.43615 8.10727 95 105 109
2.19059 -1.42097 8.10569 133 145 150
2.19019 -1.41534 8.10797 152 165 169
2.16286 -1.35496 8.14041 122 129 144
2.19044 -1.18688 7.84241 208 215 245
2.18518 -1.19175 7.87483 194 201 231
2.18619 -1.07102 7.78074 185 185 205
2.18641 -1.0681 7.78034 186 182 204
2.16164 -0.875314 7.68415 149 133 140
2.16149 -0.872551 7.6851 139 124 132
2.17168 -0.880571 7.65593 173 156 165
2.17169 -0.877745 7.65623 163 147 157
2.20515 0.103444 7.80366 68 96 156
2.19998 0.10367 7.83578 79 107 167
2.19839 0.991815 7.72629 231 221 221
2.19838 0.994687 7.72653 228 220 221
2.21708 1.70162 7.77853 237 232 227
2.21722 1.70456 7.77867 222 215 212
2.21712 1.70449 7.77852 214 209 204
2.21721 1.70747 7.77889 199 192 189
2.22902 1.73402 7.81712 221 216 218
2.22898 1.73713 7.818 206 201 202
2.2276 -1.90271 9.04098 127 131 122
2.22185 -1.91142 9.08295 128 132 122
2.22205 -1.89838 9.08417 162 163 144
2.2342 -1.88997 9.04388 163 162 143
2.22811 -1.87025 9.04402 197 196 161
2.22823 -1.86373 9.04454 188 187 150
2.22833 -1.85723 9.04514 192 190 149
2.22855 -1.84422 9.04629 190 190 141
2.22864 -1.83773 9.04693 192 193 144
2.22875 -1.83123 9.0475 191 191 143
2.22897 -1.81822 9.04868 180 184 130
2.22906 -1.81172 9.04931 162 173 116
2.22917 -1.80521 9.04989 136 146 99
2.20624 -1.41271 8.04152 138 148 153
2.20145 -1.42707 8.07241 90 101 105
2.20094 -1.41861 8.07547 112 122 127
2.19075 -1.43905 8.14092 104 117 122
2.19051 -1.43626 8.14223 103 115 120
2.19564 -1.40356 8.07431 171 186 189
2.18596 -1.42645 8.13716 124 139 142
2.18539 -1.36158 8.07225 128 137 147
2.22714 -1.32313 7.84327 101 110 118
2.20085 -1.36549 8.00763 95 110 110
2.20084 -1.35965 8.00832 103 114 118
2.19565 -1.37403 8.04052 89 104 104
2.19555 -1.37117 8.04126 92 106 108
2.19002 -1.26938 7.90491 206 214 234
2.15624 -0.765357 7.40124 151 138 159
2.10085 -0.816967 7.75446 97 80 90
2.16213 -0.351358 7.18771 246 237 227
2.16215 -0.348669 7.188 248 240 233
2.17211 -0.350127 7.1621 251 239 232
2.17212 -0.347449 7.16241 252 242 238
2.16269 -0.32201 7.18954 248 230 221
2.17282 -0.307567 7.16512 250 239 235
2.17284 -0.304884 7.1654 251 242 238
2.17299 -0.296922 7.16589 252 241 239
2.16806 -0.298179 7.19345 252 238 237
2.16815 -0.292836 7.19382 252 239 240
2.1582 -0.288503 7.22004 251 242 240
2.16824 -0.287493 7.1942 253 244 243
2.1641 -0.24313 7.22494 254 237 234
2.15907 -0.241488 7.25339 254 241 239
2.16426 -0.240456 7.22467 252 235 232
2.15917 -0.238811 7.25333 252 239 237
2.16448 -0.237775 7.22421 247 230 227
2.15934 -0.236127 7.25306 247 234 232
2.17428 -0.239617 7.19878 246 229 225
2.16925 -0.237975 7.22726 246 233 230
2.16438 -0.221618 7.2268 213 187 187
2.16448 -0.218903 7.22684 206 180 177
2.16026 -0.175108 7.2884 242 237 231
2.14805 -0.147055 7.36767 237 237 224
2.16086 -0.154336 7.31985 239 238 229
2.16108 -0.15158 7.31948 235 235 227
2.16739 -0.079819 7.38894 208 211 195
2.16738 -0.0770549 7.38941 209 213 197
2.20708 0.50198 7.8654 231 209 216
2.20188 0.50379 7.89801 229 208 216
2.20198 0.509653 7.89848 233 212 217
2.20219 0.521378 7.89937 246 235 235
2.20224 0.52434 7.89974 249 237 237
2.20751 0.525333 7.86712 251 240 239
2.20266 0.563516 7.86818 228 201 193
2.20272 0.566405 7.86823 229 201 196
2.19256 0.625972 7.83417 241 223 227
2.19255 0.628938 7.83477 240 222 226
2.18731 0.628271 7.8666 240 223 225
2.19976 1.08037 7.69932 250 231 232
2.19982 1.0833 7.69971 249 233 232
