ply
format ascii 1.0
element vertex 734
property float x
property float y
property float z
property float nx
property float ny
property float nz
property uchar diffuse_red
property uchar diffuse_green
property uchar diffuse_blue
end_header
2.10978 -1.11839 6.12433 0.363318 -0.610656 -0.703633 109 125 104
2.1354 -1.12238 6.12655 0.245657 -0.674148 -0.696546 77 88 73
2.12676 -1.12939 6.12433 0.272684 -0.431652 -0.859837 27 30 23
2.2096 -1.12469 6.11754 0.0775541 -0.666313 -0.741628 41 51 42
2.23398 -1.10504 6.05833 -0.00991483 -0.704926 -0.709212 141 156 139
2.26196 -1.12184 6.11211 0.149344 -0.7038 -0.694522 72 86 70
2.34733 -1.12339 6.1092 0.248599 -0.33151 -0.91011 60 74 61
2.3516 -1.12285 6.10913 0.410115 -0.00699488 -0.912007 67 81 67
2.36871 -1.10583 6.07703 0.146721 -0.617346 -0.772889 183 195 183
2.37074 -1.11301 6.10175 -0.0162115 -0.503471 -0.86386 173 188 170
2.38874 -1.11332 6.10328 -0.00401925 -0.085182 -0.996357 183 198 178
2.38651 -1.10736 6.08495 -0.0090733 -0.0317159 -0.999456 194 207 190
2.48748 -1.1105 6.07387 0.469149 -0.143156 -0.871439 156 165 153
2.51699 -1.10599 6.07422 0.264059 -0.189114 -0.945785 191 198 189
2.54285 -1.10838 6.0784 0.584961 -0.20228 -0.785432 192 200 188
2.57267 -1.11391 6.06611 0.107792 0.204905 -0.972828 123 133 117
2.63569 -1.10829 6.05297 -0.196596 -0.579885 -0.790622 164 176 161
2.64395 -1.10682 6.03432 0.03856 -0.432756 -0.900686 141 154 138
2.66124 -1.10352 6.01897 0.0597654 -0.47845 -0.876079 148 159 143
2.69567 -1.11199 6.06478 0.10009 -0.465179 -0.87954 159 172 156
2.69075 -1.11634 6.07987 -0.100876 -0.336304 -0.936335 145 159 143
2.69075 -1.11634 6.07987 -0.100876 -0.336304 -0.936335 145 159 143
2.71716 -1.1142 6.07364 -0.131939 -0.207284 -0.969343 159 172 156
2.7353 -1.10566 6.05928 0.110208 -0.612076 -0.783082 192 204 192
2.75356 -1.10758 6.03304 0.115592 -0.604484 -0.788186 158 172 156
2.77207 -1.11279 6.04542 0.473936 -0.0121119 -0.880476 128 140 125
2.78292 -1.10316 6.04162 0.232735 -0.644644 -0.728195 191 200 188
2.80723 -1.10626 6.05955 -0.321349 0.202547 -0.925046 187 195 185
2.82303 -1.10549 6.04982 -0.0320606 -0.336817 -0.941024 186 195 184
2.84041 -1.10226 6.0322 0.242399 -0.24187 -0.939543 190 199 188
2.8755 -1.09869 6.02579 0.232773 0.209934 -0.949602 184 191 181
2.89015 -1.09484 6.00983 0.108662 -0.0261231 -0.993735 189 198 188
2.90948 -1.09581 6.01673 -0.0442121 -0.234111 -0.971204 187 196 187
2.93226 -1.09827 6.02858 0.0128294 -0.201386 -0.979428 189 198 189
2.9684 -1.08708 5.98189 -0.727704 0.136153 -0.672242 194 202 193
2.96026 -1.07471 5.90405 0.0194097 -0.617434 -0.786384 191 200 190
3.03699 -1.09853 5.97967 -0.0724485 -0.111252 -0.991148 163 164 147
3.06598 -1.08059 5.93834 -0.497027 0.0324564 -0.867128 17 18 12
3.08615 -1.0867 5.92489 -0.29012 0.862328 -0.414995 4 5 3
3.10127 -1.05583 5.79173 -0.872563 0.254613 -0.416901 2 2 2
-0.560275 -1.131 6.26094 0.860146 0.0792413 -0.503855 3 3 3
-0.526137 -1.12157 6.21761 0.841656 -0.199322 -0.501882 3 3 2
-0.550931 -1.14808 6.30448 0.767208 -0.00813916 -0.641346 2 3 2
-0.540315 -1.13222 6.30351 0.689035 0.106741 -0.716825 5 5 4
-0.534346 -1.13821 6.30846 0.627588 -0.0731113 -0.775105 5 5 4
-0.520783 -1.14915 6.31401 0.796526 -0.0581795 -0.601799 4 4 2
-0.487708 -1.13384 6.30272 -0.490491 0.184284 -0.851738 19 21 14
-0.469869 -1.1318 6.29676 -0.3888 0.596179 -0.702428 24 25 18
-0.460627 -1.13571 6.30506 -0.315903 0.659753 -0.681859 19 20 15
-0.429549 -1.12714 6.26791 -0.234119 0.285989 -0.929192 24 26 19
-0.377983 -1.11821 6.22387 0.118521 0.412297 -0.903307 27 29 22
-0.333731 -1.10466 6.0749 -0.311583 0.274015 -0.909853 5 5 4
-0.328372 -1.10301 6.10594 -0.108812 0.71209 -0.693605 7 8 6
-0.330788 -1.13532 6.28259 0.0175668 0.683684 -0.729567 12 13 9
-0.236459 -1.13173 6.29762 0.741014 0.572839 -0.350362 53 56 46
-0.210753 -1.13212 6.29114 0.713129 0.65702 -0.244483 42 45 37
-0.192869 -1.15091 6.37603 0.449226 0.595392 -0.666111 31 32 23
2.07732 -1.1165 6.13696 0.334075 -0.632022 -0.699244 157 171 155
2.0887 -1.09234 6.08951 0.091046 -0.460436 -0.883012 212 218 208
2.1125 -1.09637 6.09872 0.340601 -0.619372 -0.707367 216 221 211
2.135 -1.09501 6.08335 0.410591 -0.57624 -0.706656 209 216 205
2.15771 -1.0984 6.0932 0.414795 -0.570177 -0.709114 208 216 203
2.17906 -1.09152 6.07137 0.499389 -0.451468 -0.73945 210 214 203
2.17288 -1.09111 6.07002 0.460064 -0.496348 -0.736193 209 214 202
2.17906 -1.09154 6.0715 0.482092 -0.484169 -0.730184 210 214 203
2.1987 -1.08161 6.02738 0.359188 -0.415095 -0.835871 212 217 205
2.20671 -1.09772 6.04005 0.115758 -0.640583 -0.759114 179 192 174
2.2346 -1.08481 6.03662 0.235031 -0.278616 -0.9312 213 220 210
2.22552 -1.08493 6.04613 0.11289 -0.22206 -0.968476 212 219 210
2.25174 -1.08084 6.03105 0.14554 -0.221304 -0.964283 209 215 207
2.23793 -1.0826 6.03709 0.136927 -0.225136 -0.964658 212 219 209
2.28351 -1.1049 6.08454 0.165671 -0.606254 -0.777824 196 206 196
2.2729 -1.0814 6.03553 0.061874 -0.352529 -0.933753 214 220 214
2.32107 -1.09085 6.06153 0.128382 -0.714887 -0.687353 209 214 208
2.34212 -1.10921 6.11509 0.210133 -0.302993 -0.929537 208 217 205
2.37798 -1.0965 6.09364 -0.74836 -0.219395 -0.625958 207 212 206
2.38658 -1.10128 6.07054 0.295189 -0.342554 -0.891919 200 209 198
2.3822 -1.08267 6.02192 0.198262 -0.567581 -0.799089 204 209 202
2.48022 -1.08423 6.04936 0.691991 -0.0882319 -0.716494 198 200 194
2.50706 -1.08611 6.05054 0.608433 -0.294161 -0.737074 199 201 196
2.52876 -1.08817 6.05547 0.660899 -0.173265 -0.7302 200 202 197
2.53675 -1.08567 6.05805 0.568487 -0.355732 -0.741807 198 200 194
2.56046 -1.09712 6.06482 0.458563 -0.489029 -0.742004 197 201 194
2.58148 -1.09691 6.05896 0.122168 0.180726 -0.975917 197 202 192
2.62993 -1.09268 6.04021 -0.00658667 -0.455697 -0.890111 193 198 188
2.65062 -1.08869 6.02086 -0.00525303 -0.362449 -0.931989 190 195 186
2.66343 -1.08329 5.99242 -0.0184722 -0.428264 -0.903465 195 200 191
2.67227 -1.08596 6.00807 -0.0300954 -0.320642 -0.946722 195 200 191
2.6723 -1.08598 6.00819 -0.0306923 -0.323329 -0.945789 195 200 191
2.6723 -1.08598 6.00819 -0.0306923 -0.323329 -0.945789 195 200 191
2.67758 -1.07866 5.9681 -0.0131665 -0.449811 -0.893027 192 199 189
2.68462 -1.08136 5.98358 0.0150326 -0.210436 -0.977492 192 199 190
2.70932 -1.09046 6.03229 0.454114 -0.474482 -0.754087 189 194 187
2.72819 -1.08685 6.01749 0.138381 -0.169914 -0.975695 192 200 191
2.74718 -1.08471 6.00879 0.094114 -0.484435 -0.86975 191 198 191
2.7581 -1.08949 6.00229 0.185597 -0.543292 -0.818772 188 197 188
2.78028 -1.07679 6.00108 0.60054 -0.242084 -0.762068 198 202 196
2.82935 -1.0848 6.01918 0.272487 -0.207752 -0.939463 190 195 187
2.83009 -1.0831 6.01374 0.333776 -0.0388783 -0.94185 191 196 189
2.85528 -1.06743 5.94646 0.586471 -0.248327 -0.770964 186 191 186
2.88194 -1.08127 6.0202 0.562953 -0.293916 -0.772462 184 190 185
2.85776 -1.06547 5.93562 0.525432 -0.356206 -0.772683 186 191 186
2.92124 -1.0817 6.02058 0.577972 -0.255521 -0.775021 194 201 195
2.95598 -1.07367 5.9855 -0.791802 0.460509 -0.401225 186 192 184
3.04133 -1.082 5.97081 -0.197322 -0.171339 -0.96525 170 170 152
3.05778 -1.06653 5.94396 -0.226698 -0.172491 -0.958569 102 102 91
3.08958 -1.04599 5.80666 -0.523256 0.0442895 -0.851024 3 3 3
3.08969 -1.04746 5.80531 -0.505208 0.0356734 -0.86226 3 3 3
3.10206 -1.03712 5.79538 -0.716082 -0.0652435 -0.694961 2 2 2
-0.527756 -1.1206 6.31389 0.484518 0.029707 -0.874276 18 19 14
-0.519914 -1.13117 6.32137 0.553443 -0.079635 -0.829071 25 27 19
-0.504385 -1.12332 6.3301 0.392588 -0.108267 -0.91332 130 132 121
-0.479707 -1.11833 6.31132 -0.371107 0.14029 -0.917932 147 150 137
-0.461971 -1.12032 6.31363 -0.180399 0.131458 -0.974769 138 141 128
-0.394761 -1.10931 6.25777 0.020831 0.929757 -0.367583 143 146 133
-0.361841 -1.11395 6.23285 0.426302 0.529725 -0.733252 68 71 61
-0.333948 -1.12599 6.27257 0.425248 0.500455 -0.754129 43 45 37
-0.340208 -1.12442 6.32711 0.773024 0.390527 -0.499922 139 141 127
-0.307283 -1.13909 6.36142 0.726056 0.580177 -0.369104 81 83 71
-0.159204 -1.14531 6.3858 0.714192 0.524311 -0.463711 80 82 67
-0.127276 -1.15211 6.41784 0.693676 0.532356 -0.485192 81 83 67
2.10285 -1.08627 6.08421 0.630064 -0.340092 -0.698109 217 221 211
2.13432 -1.06457 6.0217 0.651752 -0.295356 -0.698559 211 217 207
2.16392 -1.05829 5.97721 0.627615 -0.329497 -0.705359 211 216 208
2.19416 -1.06183 5.99061 0.392627 -0.366193 -0.843651 210 215 205
2.18449 -1.05689 5.97842 0.354664 -0.421553 -0.83457 209 215 205
2.20965 -1.06216 5.9973 0.409885 -0.336282 -0.847885 211 218 208
2.21905 -1.05603 5.97968 0.390492 -0.364539 -0.845356 212 220 211
2.21433 -1.06187 6.00008 0.39049 -0.367034 -0.844277 212 220 210
2.21982 -1.05632 5.98116 0.399007 -0.350753 -0.847211 212 220 212
2.26353 -1.06596 6.03293 0.413084 -0.324254 -0.851012 214 221 213
2.27278 -1.0815 6.03896 0.198426 -0.388281 -0.899925 215 221 214
2.29455 -1.08411 6.05643 0.143857 -0.442796 -0.885007 208 214 207
2.34626 -1.07726 6.05157 0.63853 -0.274188 -0.719097 205 209 203
2.34153 -1.0758 6.02561 0.648653 -0.252984 -0.717809 204 208 203
2.34153 -1.0758 6.02561 0.648653 -0.252984 -0.717809 204 208 203
2.36387 -1.08477 6.06389 0.600856 -0.337263 -0.724724 207 211 206
2.42855 -1.07653 6.02772 -0.735884 -0.411999 -0.537338 204 210 199
2.43522 -1.07981 6.03635 0.538973 -0.413445 -0.733874 200 206 199
2.55754 -1.08173 6.05335 0.528942 -0.406631 -0.744897 199 203 196
2.57448 -1.07553 6.02913 0.399319 -0.282331 -0.872258 205 209 201
2.58702 -1.07654 6.02748 0.603789 -0.284515 -0.744641 203 208 200
2.64037 -1.07405 6.02148 -0.784483 -0.204774 -0.585366 202 206 196
2.65855 -1.07084 6.00474 -0.841897 -0.264206 -0.470536 202 208 197
2.67362 -1.0668 5.98322 0.380962 -0.29067 -0.877712 202 207 199
2.76397 -1.07072 5.99813 0.356064 -0.320464 -0.877794 190 196 187
3.06996 -1.05671 5.93469 -0.701129 -0.0291201 -0.712439 9 10 5
3.08293 -1.04743 5.92639 -0.73393 -0.0135024 -0.679091 5 6 3
3.09205 -1.02703 5.80881 -0.753315 0.0373239 -0.656599 3 3 3
-0.534398 -1.10639 6.27729 0.733041 0.0362565 -0.679218 7 8 5
-0.544779 -1.09592 6.27804 0.86586 0.0699648 -0.49537 4 4 3
-0.535341 -1.10351 6.30613 0.643715 -0.00395382 -0.765256 10 11 7
-0.521467 -1.11113 6.31779 0.612269 0.0786676 -0.786726 69 70 64
-0.463174 -1.10729 6.33295 -0.333254 0.443863 -0.831822 182 185 175
-0.440033 -1.10654 6.3208 -0.405504 0.534739 -0.741364 185 187 179
-0.361007 -1.10102 6.25411 -0.0101826 0.923907 -0.382481 183 185 177
-0.352653 -1.10548 6.3027 0.754645 0.469238 -0.458615 186 188 180
-0.332461 -1.10615 6.32736 0.777717 0.420468 -0.467293 182 185 177
-0.318391 -1.11226 6.3466 0.864456 0.439677 -0.243721 184 185 178
-0.303746 -1.12056 6.36962 0.884766 0.357143 -0.299397 192 193 185
-0.291814 -1.12721 6.40318 0.834861 0.493018 -0.244829 184 185 175
-0.162126 -1.13283 6.42313 0.868471 0.41673 -0.268504 189 192 182
-0.143007 -1.13343 6.42196 0.68369 0.570514 -0.455063 187 190 181
-0.127448 -1.13698 6.44101 0.593121 0.681698 -0.428364 190 193 184
3.0572 -1.04715 5.94527 -0.601481 -0.108985 -0.791418 113 112 99
3.06802 -1.03141 5.91582 -0.937132 0.00046273 -0.348976 8 9 4
3.0912 -1.00668 5.80834 -0.793087 -0.0203183 -0.608769 3 3 4
3.09394 -1.01038 5.77975 -0.916614 -0.149206 -0.370885 1 1 2
-0.556902 -1.08244 6.28761 0.301647 0.0132571 -0.953328 3 5 1
-0.542683 -1.08501 6.30583 0.228235 -0.0858979 -0.969809 6 7 4
-0.545418 -1.08911 6.29744 0.742397 -0.0459868 -0.66838 5 6 3
-0.519171 -1.09044 6.32042 0.713493 -0.100525 -0.693413 116 119 112
-0.506026 -1.10145 6.32633 0.335759 -0.017208 -0.941791 181 184 175
-0.483471 -1.09444 6.33957 -0.42616 0.515821 -0.743179 175 179 172
-0.339289 -1.08479 6.29196 0.854186 0.461913 -0.238755 182 184 177
3.0614 -1.02373 5.93638 -0.930162 -0.0650709 -0.361337 57 56 46
3.08186 -1.02411 5.92006 -0.850814 0.0030908 -0.525458 5 6 3
3.09959 -0.99298 5.79086 -0.739952 -0.081225 -0.667737 2 2 2
3.09312 -1.0046 5.80606 -0.743293 -0.045671 -0.667405 3 3 3
3.10055 -0.993083 5.78885 -0.784658 -0.0438812 -0.618374 2 2 2
-0.548628 -1.06726 6.29221 0.375025 -0.0453277 -0.925906 4 6 2
-0.534803 -1.07006 6.31196 0.23001 -0.0863716 -0.969348 13 15 11
-0.531675 -1.0792 6.30885 0.703654 -0.040822 -0.709369 14 16 12
-0.517597 -1.07035 6.32069 0.636219 -0.0519075 -0.76976 133 137 131
-0.50293 -1.08006 6.32388 0.349218 -0.0740399 -0.934112 181 187 181
-0.336606 -1.08155 6.30861 0.843038 0.480872 -0.240933 180 184 176
-0.317741 -1.07776 6.30862 0.855267 0.457649 -0.243056 182 186 177
3.05275 -1.01663 5.97156 -0.937498 0.0148935 -0.347671 167 167 150
3.05879 -1.00113 5.94021 -0.857027 -0.121436 -0.500758 98 97 85
3.06857 -1.00996 5.91623 -0.934922 -0.0277412 -0.353767 8 8 4
3.08175 -1.00169 5.92008 -0.858472 -0.00414458 -0.512843 6 6 4
3.10169 -0.974721 5.79455 -0.652231 -0.0169872 -0.75783 2 2 2
3.09226 -0.984996 5.80699 -0.762182 -0.058352 -0.644728 3 3 3
-0.545316 -1.04722 6.29112 0.791465 -0.0510732 -0.609077 3 6 2
-0.52543 -1.05362 6.31408 0.374451 -0.0842138 -0.923414 51 54 50
-0.500489 -1.05939 6.32078 0.12683 -0.0953433 -0.987332 181 188 182
3.0536 -0.989687 5.97272 -0.937941 0.021491 -0.346127 165 164 151
3.06786 -0.988855 5.92141 -0.836524 -0.0625305 -0.54435 13 12 7
3.07788 -0.977528 5.9085 -0.938207 -0.00417956 -0.34605 6 6 3
3.08905 -0.966773 5.80385 -0.55959 -0.0322579 -0.828142 3 3 3
-0.533113 -1.03713 6.30719 0.328558 -0.101448 -0.93902 13 16 12
-0.516209 -1.03762 6.31617 0.568064 -0.105655 -0.816174 142 148 141
-0.502778 -1.04884 6.32018 0.212749 -0.0881371 -0.973124 180 186 181
3.05733 -0.979178 5.94128 -0.854289 -0.132847 -0.502535 119 116 105
3.06585 -0.966416 5.92001 -0.842323 -0.0664035 -0.534867 17 17 11
3.08822 -0.949486 5.80514 -0.537456 -0.0531472 -0.841615 3 3 3
3.09981 -0.956869 5.79332 -0.719995 0.0154111 -0.693808 2 2 2
-0.555533 -1.01371 6.27806 0.156182 0.546025 -0.823082 3 5 1
-0.544962 -1.02588 6.29541 0.789776 -0.0535285 -0.611055 5 7 4
-0.52386 -1.0211 6.30913 0.372668 -0.104517 -0.92206 65 69 63
-0.512178 -1.01792 6.31455 0.504769 -0.151942 -0.849777 171 177 170
-0.499617 -1.02974 6.32191 0.428895 -0.117321 -0.895704 179 187 181
3.05375 -0.962336 5.97139 -0.937546 0.0109261 -0.347691 170 166 153
3.05738 -0.957363 5.94915 -0.937632 0.00370274 -0.347609 134 128 118
3.07628 -0.955484 5.91021 -0.857429 -0.0328055 -0.513556 7 7 3
3.07043 -0.946186 5.8936 -0.93827 -0.00416779 -0.345879 7 7 3
3.09497 -0.94957 5.88045 -0.42263 0.857828 -0.29243 4 5 1
3.08756 -0.931819 5.80505 -0.570723 -0.0191701 -0.820919 3 3 3
3.09925 -0.939923 5.79467 -0.755736 -0.0148475 -0.654708 2 2 2
-0.540961 -1.00329 6.28641 0.728881 -0.0556781 -0.682373 6 8 4
-0.52643 -1.00729 6.30351 0.565759 -0.102826 -0.818134 38 40 35
-0.50612 -1.00168 6.31931 0.689514 -0.0378843 -0.723281 181 187 180
3.05241 -0.94774 5.9505 -0.875993 -0.0279469 -0.481514 154 150 135
3.06478 -0.943593 5.92246 -0.87264 -0.0567569 -0.485054 24 22 16
3.08423 -0.938333 5.90226 -0.851458 0.0284041 -0.523654 5 5 3
3.09398 -0.916738 5.79976 -0.45715 0.0671652 -0.88685 3 3 3
-0.545295 -0.980518 6.26328 0.800901 -0.0253687 -0.598259 4 6 1
-0.535783 -0.98753 6.29891 -0.2943 -0.0994652 -0.950523 10 11 7
-0.518795 -0.989946 6.30694 0.561962 -0.06574 -0.824547 121 124 117
-0.492714 -0.991627 6.32896 0.85151 0.0151628 -0.524119 180 184 176
3.0576 -0.930151 5.93079 -0.177041 -0.0769067 -0.981194 102 98 84
3.07144 -0.927465 5.91132 -0.825725 -0.0842119 -0.557752 9 9 5
3.08327 -0.917728 5.90909 -0.878489 0.0260975 -0.477049 6 6 5
3.08358 -0.924708 5.9049 -0.882642 0.00456412 -0.470024 5 6 5
3.09581 -0.899759 5.79964 -0.644551 -0.0557435 -0.762527 3 3 3
3.10495 -0.908857 5.7983 -0.801953 -0.00530704 -0.597363 2 2 2
3.10495 -0.908865 5.79835 -0.799622 -0.0055112 -0.600478 2 2 2
-0.541406 -0.96553 6.28037 0.544983 -0.111445 -0.831008 7 8 3
-0.537517 -0.952477 6.24151 0.819386 -0.167678 -0.54817 7 8 2
-0.549998 -0.973311 6.29142 0.639373 0.112857 -0.760569 5 7 2
-0.549998 -0.973311 6.29142 0.639373 0.112857 -0.760569 5 7 2
-0.526997 -0.969448 6.29787 0.742084 -0.0554339 -0.668011 34 35 30
-0.503136 -0.968804 6.31326 0.660388 -0.0520934 -0.749116 180 184 177
3.05218 -0.917946 5.948 -0.874166 -0.0431505 -0.483707 158 153 136
3.06446 -0.914696 5.92005 -0.872871 -0.0342416 -0.486748 26 25 16
3.07816 -0.907213 5.90774 -0.882818 0.0196968 -0.469302 7 7 5
3.08755 -0.895594 5.88982 -0.848924 0.0362187 -0.527273 4 4 3
3.09684 -0.9063 5.87073 -0.839975 0.0358022 -0.541442 4 4 3
3.10625 -0.886094 5.80412 -0.245789 0.449951 -0.858564 2 2 2
3.10625 -0.886104 5.80417 -0.244512 0.449271 -0.859284 2 2 2
-0.534875 -0.936505 6.1946 0.847086 -0.0402442 -0.52993 7 8 3
-0.545398 -0.947654 6.27784 0.723408 -0.0621346 -0.687619 6 7 2
-0.525676 -0.960179 6.29762 0.596088 -0.0833321 -0.798583 44 45 40
-0.510859 -0.951862 6.30526 0.462607 -0.110979 -0.87959 178 180 173
-0.493981 -0.950223 6.30448 0.491492 -0.0190923 -0.870673 183 188 180
3.04496 -0.893445 5.96734 -0.153248 0.233168 -0.960285 187 184 167
3.0574 -0.900695 5.93063 -0.436513 -0.0777232 -0.896335 114 111 99
3.06722 -0.893876 5.91546 -0.737139 -0.117926 -0.665371 12 13 8
3.07779 -0.883767 5.90582 -0.882016 -0.00062856 -0.471219 7 8 4
-0.546848 -0.93535 6.26444 0.728544 -0.0184414 -0.68475 6 7 2
-0.522929 -0.940824 6.29865 0.657843 -0.041512 -0.75201 78 80 74
-0.535053 -0.929693 6.28571 0.50346 -0.0617897 -0.861806 12 13 8
-0.50864 -0.931255 6.30817 0.489504 -0.0828643 -0.868055 179 181 173
3.06408 -0.875883 5.92149 -0.622809 -0.15562 -0.766741 36 37 28
3.05575 -0.863946 5.82805 -0.807202 0.201515 -0.554812 27 27 20
-0.556442 -0.911412 6.27582 0.665574 0.0813223 -0.741888 5 6 2
-0.555999 -0.909538 6.27128 0.726211 0.0640894 -0.684478 5 6 2
-0.549745 -0.919545 6.28393 0.60041 -0.0283195 -0.799191 6 7 3
-0.52128 -0.920437 6.29721 0.768582 -0.0349157 -0.638797 95 98 91
-0.533176 -0.911065 6.28738 0.592014 -0.118341 -0.797192 13 15 10
-0.532727 -0.90962 6.28752 0.599455 -0.111727 -0.792572 14 16 10
3.051 -0.867536 5.9345 -0.724442 -0.12804 -0.677339 158 157 137
3.06239 -0.856259 5.91967 -0.67376 -0.0564459 -0.736791 47 49 37
3.05759 -0.851796 5.8445 -0.938455 -0.00693753 -0.345332 7 8 3
3.07568 -0.865532 5.91216 -0.668171 -0.0822588 -0.739447 10 11 6
-0.544794 -0.896768 6.26499 0.796147 -0.0355227 -0.604059 5 7 3
-0.544469 -0.895226 6.26349 0.805243 -0.0346882 -0.591929 5 7 3
-0.520164 -0.898825 6.29668 0.761407 -0.0458974 -0.646647 113 115 108
-0.507575 -0.90944 6.30654 0.457655 -0.0808676 -0.885445 183 186 177
3.04926 -0.84766 5.93116 -0.703564 -0.0448492 -0.709215 162 162 141
3.06045 -0.836502 5.91754 -0.62609 -0.0353235 -0.77895 63 65 52
3.07358 -0.84596 5.91116 -0.698358 -0.0667277 -0.712632 10 11 7
-0.552738 -0.886533 6.26093 0.447269 -0.0689055 -0.891741 5 6 3
-0.56331 -0.891281 6.28581 -0.368898 0.00328083 -0.929464 5 6 2
-0.543793 -0.875121 6.26669 0.766275 -0.051901 -0.640413 6 7 4
-0.542494 -0.882291 6.28108 0.097541 -0.116679 -0.988368 8 9 6
-0.531438 -0.888143 6.28728 0.554624 -0.115991 -0.823977 18 20 15
-0.51892 -0.876999 6.29407 0.743238 -0.0442141 -0.667565 125 127 119
-0.507775 -0.886854 6.29822 0.126497 -0.102091 -0.9867 177 180 171
3.04716 -0.827747 5.92767 -0.644117 -0.0219608 -0.764612 162 160 140
3.07147 -0.825539 5.90497 -0.771226 -0.0155969 -0.63637 9 11 7
3.09307 -0.832165 5.90671 -0.882079 0.0173675 -0.470782 5 5 5
-0.541523 -0.860202 6.23077 0.394279 -0.388595 -0.832789 6 7 3
-0.539627 -0.860623 6.21127 0.577369 -0.216118 -0.787361 6 7 4
-0.541744 -0.863774 6.23835 0.464388 -0.284537 -0.838679 6 7 3
-0.539612 -0.860618 6.21124 0.574866 -0.218316 -0.788586 6 7 4
-0.537859 -0.85656 6.26498 0.848027 -0.0553547 -0.527054 9 10 6
-0.527548 -0.868417 6.28246 0.852443 -0.0126866 -0.522666 30 31 26
-0.53046 -0.86571 6.28034 0.835238 -0.116365 -0.537435 19 20 16
-0.502339 -0.865051 6.29319 -0.110801 -0.125193 -0.985926 181 184 173
3.04696 -0.806744 5.92725 -0.712876 -0.0171471 -0.701081 161 160 136
3.06015 -0.815342 5.91564 -0.65376 -0.0459152 -0.755308 66 67 52
3.071 -0.805321 5.9035 -0.777106 -0.0159783 -0.629167 12 12 7
3.0825 -0.816133 5.89669 -0.882264 0.00398035 -0.470738 7 7 7
-0.538431 -0.852745 6.26032 0.836681 -0.11653 -0.53515 8 9 6
-0.527249 -0.845122 6.28265 0.761818 -0.0789795 -0.642959 35 36 31
-0.531347 -0.852468 6.28326 0.535801 -0.127439 -0.834671 20 21 16
-0.5313 -0.85291 6.28617 0.285102 -0.137823 -0.948537 23 24 19
-0.531243 -0.852442 6.28288 0.566034 -0.127035 -0.814535 20 21 16
-0.5313 -0.85291 6.28617 0.285102 -0.137823 -0.948537 23 24 19
-0.517116 -0.8556 6.29197 0.46519 -0.110941 -0.878232 146 148 139
-0.500397 -0.853952 6.29007 0.0929916 -0.124275 -0.987881 183 186 175
3.05875 -0.795969 5.91437 -0.541392 -0.0612102 -0.838539 84 84 68
3.09013 -0.788816 5.89349 -0.825228 0.00665149 -0.56476 5 5 6
-0.549424 -0.818251 6.22093 0.830859 -0.00556428 -0.556455 5 5 1
-0.536268 -0.833263 6.26481 0.847275 -0.0596893 -0.527789 10 11 7
-0.507928 -0.837974 6.28733 -0.223594 -0.0794535 -0.971438 179 181 171
-0.512788 -0.834877 6.29147 0.208125 -0.112965 -0.971557 171 172 163
3.04495 -0.788773 5.92407 -0.632395 -0.0024953 -0.774642 161 158 135
3.05674 -0.778224 5.91404 -0.420217 -0.0750186 -0.904317 109 108 91
3.07009 -0.783729 5.89334 -0.879445 -0.0269043 -0.475239 11 11 8
3.07985 -0.774269 5.89114 -0.88262 -0.00207857 -0.470082 6 6 7
-0.541701 -0.811692 6.25491 0.764142 -0.0875197 -0.639084 7 8 4
-0.525095 -0.823738 6.2829 0.646795 -0.0410669 -0.761558 57 58 53
-0.510852 -0.814369 6.29203 0.538436 -0.0887238 -0.837983 178 179 171
-0.503575 -0.820271 6.28519 -0.255932 -0.16401 -0.95268 179 181 171
3.04827 -0.762831 5.9145 -0.190414 -0.147717 -0.970527 164 162 142
3.06939 -0.760759 5.89352 -0.865744 -0.0350696 -0.499258 12 11 7
3.09757 -0.757243 5.88749 -0.850156 0.0603711 -0.523058 5 5 5
3.09757 -0.757243 5.88749 -0.850156 0.0603711 -0.523058 5 5 5
3.09931 -0.766526 5.89099 -0.755216 -0.0306519 -0.654759 4 5 4
3.09737 -0.751005 5.84559 -0.788133 -0.0762575 -0.610763 4 5 3
3.1243 -0.76575 5.87233 -0.87758 -0.0773282 -0.473152 4 4 4
-0.563235 -0.785524 6.23148 0.859547 0.0262842 -0.510381 4 5 2
-0.551016 -0.799019 6.23586 0.781965 -0.116768 -0.612287 4 5 1
-0.543128 -0.792303 6.26941 0.71283 -0.0835929 -0.696337 8 8 5
-0.523578 -0.803766 6.28192 0.595289 -0.0674328 -0.800677 76 77 71
-0.530337 -0.804976 6.2768 0.627711 -0.0742918 -0.774893 23 24 19
-0.513552 -0.805325 6.28752 0.345012 -0.150997 -0.926373 173 174 167
-0.492608 -0.803536 6.28096 0.0135381 -0.118507 -0.992861 182 183 176
-0.469965 -0.800473 6.26882 -0.463234 -0.0974955 -0.880857 178 178 171
-0.453772 -0.803395 6.27888 -0.3722 -0.348096 -0.860405 184 184 177
3.05921 -0.749847 5.90986 -0.772623 -0.0639402 -0.631637 75 75 60
3.06861 -0.738756 5.89665 -0.830418 0.00839483 -0.557078 12 12 8
3.07886 -0.749873 5.88165 -0.877363 -0.0132724 -0.479643 6 6 7
3.08684 -0.738992 5.85945 -0.866064 0.0601305 -0.496303 5 5 4
3.10334 -0.735608 5.79031 -0.886494 0.00421714 -0.462721 3 3 3
3.11271 -0.725174 5.77852 -0.872823 0.00938246 -0.487946 3 3 3
3.11446 -0.724549 5.77499 -0.872986 0.0158559 -0.487487 3 3 3
-0.553072 -0.770642 6.22421 0.856189 -0.00747798 -0.516608 4 5 2
-0.552271 -0.787536 6.27595 0.58928 0.00353371 -0.807921 7 7 4
-0.533563 -0.778137 6.27058 0.784942 -0.0253875 -0.619049 14 15 10
-0.521568 -0.788895 6.28228 0.419707 -0.132535 -0.897931 104 104 99
-0.50353 -0.788598 6.28822 0.462424 -0.1422 -0.875182 184 185 178
-0.480708 -0.785564 6.27451 0.0311737 -0.0307039 -0.999042 180 180 173
3.04736 -0.740648 5.92305 -0.72983 0.000526545 -0.683628 162 160 139
3.05841 -0.727679 5.90901 -0.552754 -0.0478407 -0.83197 84 84 69
3.07891 -0.728269 5.8813 -0.882255 -0.0147264 -0.470542 6 5 7
3.08638 -0.723701 5.8808 -0.880396 -0.0120124 -0.474088 6 5 6
3.09564 -0.724349 5.81294 -0.887981 0.0733608 -0.453991 4 4 4
3.09564 -0.724349 5.81294 -0.887981 0.0733608 -0.453991 4 4 4
3.10532 -0.713401 5.79269 -0.885853 -0.00794089 -0.463897 3 3 3
-0.549436 -0.75659 6.24595 0.825442 -0.169763 -0.538354 5 6 3
-0.5319 -0.755874 6.27127 0.632881 -0.0698784 -0.771089 20 20 17
-0.531405 -0.757062 6.26978 0.747407 -0.0549574 -0.662089 19 20 17
-0.519647 -0.768192 6.28154 0.64988 -0.0387672 -0.759048 129 130 126
-0.504297 -0.759554 6.29022 0.573516 -0.0486375 -0.817749 185 187 181
3.02797 -0.718462 5.91033 -0.188696 -0.0583661 -0.9803 168 168 150
3.04468 -0.719047 5.91114 -0.19703 -0.102333 -0.975042 161 160 139
3.05552 -0.709468 5.90922 -0.409437 -0.0821332 -0.908634 125 124 106
3.0703 -0.717486 5.89867 -0.525073 -0.058578 -0.849039 13 13 9
3.09422 -0.703249 5.80835 -0.87189 0.0196162 -0.489309 4 4 4
3.1142 -0.701804 5.77374 -0.888143 0.010626 -0.459444 3 3 3
-0.558464 -0.743212 6.23132 0.787881 -0.0554452 -0.613326 4 5 2
-0.545873 -0.742447 6.21747 0.271668 -0.438502 -0.856687 5 6 3
-0.541943 -0.745258 6.25388 0.727066 -0.0665231 -0.683337 8 8 6
-0.517434 -0.747069 6.28087 0.535121 -0.113513 -0.837115 151 151 147
2.98586 -0.690041 5.80368 0.361428 -0.0345979 -0.931758 176 180 167
3.00327 -0.691668 5.81973 0.427785 -0.0305191 -0.903365 149 151 134
3.1045 -0.692655 5.79373 -0.883581 0.0252667 -0.467596 3 3 3
3.10449 -0.692643 5.79364 -0.883772 0.0252454 -0.467237 3 3 3
3.1131 -0.675623 5.74667 -0.873069 0.0258397 -0.486911 2 2 2
3.09517 -0.675505 5.72744 -0.861599 0.274292 -0.427096 3 3 3
-0.544421 -0.729424 6.21072 0.805063 -0.196754 -0.559609 5 6 2
-0.538297 -0.722959 6.25034 0.794269 -0.0981625 -0.599584 9 10 6
-0.529563 -0.735883 6.27037 0.655796 -0.0691659 -0.751763 28 29 25
-0.515237 -0.72715 6.28048 0.598715 -0.0889215 -0.796011 163 164 158
3.01401 -0.680865 5.87226 0.649546 0.0637592 -0.757644 179 178 161
3.09193 -0.665956 5.75874 -0.847553 0.0336423 -0.529643 4 4 4
-0.556805 -0.698109 6.21249 0.83737 0.0284838 -0.545894 4 5 1
-0.549849 -0.711337 6.24086 0.85393 -0.0271676 -0.519678 6 7 3
-0.526095 -0.713664 6.26746 0.742844 -0.0853391 -0.664003 47 48 43
-0.497204 -0.717923 6.27776 -0.187554 -0.152648 -0.970321 180 181 174
3.00209 -0.660004 5.81312 0.398439 -0.16786 -0.901703 144 144 130
3.07964 -0.654115 5.76579 -0.882348 0.148243 -0.446638 2 4 3
3.09171 -0.644728 5.75597 -0.886444 0.0187643 -0.462455 4 4 4
3.11012 -0.652777 5.73721 -0.328641 -0.00214071 -0.944452 2 2 2
3.10636 -0.655432 5.73885 0.0491896 -0.000801848 -0.998789 2 2 2
-0.549297 -0.689934 6.24586 0.7839 -0.0358132 -0.619854 7 7 4
-0.538617 -0.702469 6.26167 0.600731 -0.0738043 -0.796037 11 12 9
-0.524137 -0.692767 6.26856 0.500661 -0.126259 -0.856386 75 75 71
-0.512402 -0.704372 6.27939 0.673184 -0.0889689 -0.734103 177 177 171
-0.496259 -0.69508 6.2834 0.716579 -0.0818183 -0.692691 181 181 174
3.07994 -0.632844 5.76872 -0.538839 -0.0554287 -0.840583 3 4 3
3.09993 -0.633601 5.73751 -0.465687 -0.0291614 -0.884469 3 3 3
3.11846 -0.639529 5.74361 0.172896 -0.0459175 -0.983869 1 1 1
-0.553293 -0.676312 6.20596 0.674022 -0.0559541 -0.736589 4 5 1
-0.547807 -0.668809 6.24349 0.761323 -0.0128293 -0.648246 8 9 6
-0.535569 -0.679406 6.25433 0.749196 -0.0306582 -0.661638 13 14 11
-0.519459 -0.674542 6.27024 0.810925 -0.0267302 -0.58454 134 136 131
-0.508047 -0.683521 6.27287 0.420764 -0.0781466 -0.903798 180 181 176
-0.492938 -0.673695 6.28386 0.657822 0.00877772 -0.753122 183 187 179
3.09136 -0.622286 5.7548 -0.870966 -0.0201063 -0.490932 4 4 4
3.10779 -0.619146 5.73407 -0.28853 0.0475928 -0.956287 2 2 2
3.1015 -0.611374 5.73995 -0.864937 0.0220157 -0.501397 3 3 3
3.11708 -0.618011 5.72004 0.257586 0.641105 -0.722934 1 1 1
-0.551768 -0.654623 6.20209 0.752282 0.115953 -0.648557 5 6 3
-0.535134 -0.658747 6.2559 0.729809 -0.0402849 -0.682463 14 16 11
-0.507857 -0.663855 6.28541 0.788179 -0.0601124 -0.612503 182 185 176
3.07157 -0.612724 5.87547 -0.882451 -0.0122121 -0.470246 9 10 7
3.09112 -0.600547 5.75517 -0.860206 -0.00712348 -0.509897 4 4 4
3.11829 -0.605183 5.73564 0.327691 0.521282 -0.787962 1 1 1
3.11396 -0.601425 5.72805 -0.861546 -0.000227134 -0.507679 1 1 1
-0.543312 -0.630545 6.18718 0.85861 0.0369995 -0.511292 6 7 3
-0.545324 -0.647212 6.23765 0.765388 -0.0438513 -0.642073 8 9 6
-0.532606 -0.637605 6.25067 0.845615 -0.0271778 -0.533101 17 18 13
-0.529494 -0.640975 6.25261 0.85279 -0.0323348 -0.521251 27 28 22
-0.518637 -0.652467 6.26988 0.79364 -0.0236687 -0.607927 148 150 144
-0.503225 -0.641469 6.28827 0.818856 -0.0193108 -0.573674 183 187 175
3.06554 -0.600375 5.81825 -0.912948 0.0365752 -0.406432 6 7 3
3.10287 -0.590162 5.74113 -0.877642 -0.0844513 -0.471819 3 3 3
3.10035 -0.589536 5.73708 -0.800159 -0.100375 -0.591329 3 3 3
3.11364 -0.578994 5.72915 -0.562179 -0.0979076 -0.8212 2 2 2
3.11138 -0.579339 5.73396 -0.286091 0.0551199 -0.956616 2 2 2
-0.54551 -0.625072 6.23475 0.705435 -0.0511653 -0.706926 7 7 4
-0.529481 -0.619384 6.25891 0.371696 -0.135891 -0.918355 35 36 31
-0.51788 -0.630785 6.26945 0.817728 -0.0617998 -0.572278 159 160 152
3.0642 -0.577676 5.81661 -0.881184 -0.0290312 -0.471881 8 8 4
3.08582 -0.587334 5.86847 -0.864313 -0.0161755 -0.502695 6 6 5
3.09051 -0.578114 5.74587 -0.853592 -0.0546696 -0.518066 4 4 4
3.10443 -0.567695 5.73725 -0.886042 -0.0181662 -0.46325 2 2 2
-0.552441 -0.61299 6.21166 0.648249 0.0554606 -0.759406 5 6 3
-0.543852 -0.605133 6.23446 0.680395 -0.0523 -0.730977 7 8 5
-0.531885 -0.614787 6.25072 0.881212 -0.00201237 -0.472716 20 21 16
-0.515254 -0.60815 6.26585 0.667045 -0.0415281 -0.743859 165 167 159
-0.520327 -0.603588 6.26132 0.183989 -0.0388352 -0.982161 122 123 116
-0.502381 -0.619083 6.28703 0.940682 -0.00177872 -0.339284 181 185 173
3.06027 -0.579146 5.88949 -0.878338 -0.0362744 -0.476662 48 50 35
3.07064 -0.565047 5.86932 -0.882898 -0.0094513 -0.46947 11 11 7
3.07572 -0.573489 5.86478 -0.884518 0.00145394 -0.466504 7 7 6
3.07572 -0.573489 5.86478 -0.884518 0.00145394 -0.466504 7 7 6
3.09074 -0.557133 5.74812 -0.884577 -0.0234047 -0.465807 4 4 4
3.11657 -0.556939 5.72503 -0.740971 -0.0928659 -0.665085 2 2 2
-0.55355 -0.593472 6.21941 0.581389 -0.153141 -0.799084 5 6 4
-0.539469 -0.58567 6.22992 0.606128 -0.0773664 -0.791595 9 10 6
-0.528705 -0.588167 6.25826 0.199209 -0.0666552 -0.977687 44 46 40
-0.513456 -0.588072 6.26371 0.605507 -0.0296151 -0.795289 171 173 164
-0.502127 -0.599129 6.27848 0.655217 -0.032487 -0.754741 178 181 171
3.0589 -0.55738 5.89076 -0.854102 -0.0549666 -0.517193 70 70 54
3.08097 -0.555857 5.87491 -0.884766 -0.00143339 -0.466033 8 8 7
3.07627 -0.552267 5.8686 -0.87072 -0.0095887 -0.491686 8 8 7
3.08924 -0.548763 5.86146 -0.886308 0.0174778 -0.462767 6 6 4
3.06322 -0.554871 5.81385 -0.880764 -0.0338677 -0.472342 9 9 4
3.08999 -0.534492 5.74449 -0.867922 -0.0274046 -0.495944 4 4 4
3.09957 -0.546127 5.73426 -0.878599 -0.079838 -0.47084 3 3 3
3.11413 -0.537907 5.7247 -0.863054 -0.0642683 -0.501007 2 2 2
3.11271 -0.534992 5.72442 -0.812491 -0.0244019 -0.582463 2 2 2
-0.565742 -0.569582 6.22547 0.633292 -0.304351 -0.711556 4 4 4
-0.548584 -0.577808 6.23179 0.807059 -0.0397393 -0.589133 7 9 5
-0.535529 -0.568338 6.24039 0.750488 -0.0949445 -0.654029 11 14 9
-0.511924 -0.568756 6.26143 0.418439 -0.220261 -0.881132 175 177 168
-0.493321 -0.578023 6.26557 -0.0850672 -0.214979 -0.972907 177 180 170
3.0317 -0.535958 5.89883 -0.200503 -0.0405051 -0.978855 178 178 160
3.05748 -0.536717 5.88922 -0.752677 -0.0293571 -0.657735 83 83 66
3.06834 -0.545833 5.875 -0.772236 -0.0982323 -0.627695 15 15 9
3.07973 -0.536666 5.87221 -0.8846 -0.00154733 -0.466348 8 8 7
3.06242 -0.532107 5.79196 -0.821225 0.00312942 -0.570596 8 8 4
3.09915 -0.523944 5.73326 -0.888349 0.0717914 -0.453522 3 3 3
-0.546551 -0.556693 6.22313 0.854752 -0.0350186 -0.517854 7 8 6
-0.543039 -0.549807 6.23339 0.680437 -0.0777262 -0.728673 9 9 7
-0.543039 -0.549807 6.23339 0.680437 -0.0777262 -0.728673 9 9 7
-0.522429 -0.55928 6.25286 0.651081 -0.0850805 -0.754224 93 95 87
-0.523082 -0.558529 6.25219 0.694951 -0.0651799 -0.716097 85 87 80
-0.489397 -0.566892 6.2506 -0.357512 0.2757 -0.892286 177 180 169
3.04371 -0.527262 5.89817 -0.690297 -0.0186907 -0.723285 163 163 143
3.05509 -0.517728 5.88888 -0.671646 -0.0842076 -0.736071 103 104 86
3.06816 -0.525348 5.87086 -0.79956 -0.0320934 -0.599729 14 14 8
3.07882 -0.516186 5.86904 -0.884858 -0.000575979 -0.465861 8 8 6
3.06408 -0.52399 5.817 -0.877701 -0.0617495 -0.475214 9 9 4
3.06185 -0.511364 5.78877 -0.82349 -0.00822862 -0.567272 8 8 4
3.08854 -0.511186 5.72788 -0.687428 0.230029 -0.688861 4 4 4
3.11051 -0.507922 5.73792 -0.667796 -0.111306 -0.735975 2 2 2
3.11371 -0.514311 5.72312 -0.813429 -0.033688 -0.580688 2 2 2
-0.558162 -0.546786 6.2325 0.707457 -0.0215093 -0.706429 6 6 6
-0.544765 -0.536844 6.23169 0.666587 -0.0589984 -0.743089 8 8 6
-0.553135 -0.539334 6.22831 0.808404 0.0177335 -0.588361 6 6 6
-0.553135 -0.539334 6.22831 0.808404 0.0177335 -0.588361 6 6 6
-0.534063 -0.547175 6.23776 0.759704 -0.0547775 -0.647958 15 16 12
-0.522439 -0.536608 6.24987 0.64042 -0.0565916 -0.765937 97 99 89
-0.521606 -0.537464 6.25045 0.618319 -0.0638225 -0.783332 108 109 100
-0.50234 -0.536333 6.27472 0.852378 -0.0186713 -0.522592 184 186 176
-0.509737 -0.549349 6.26136 0.649917 -0.12631 -0.749435 180 182 171
-0.50847 -0.550519 6.25776 0.354559 -0.13162 -0.925723 181 183 172
3.03199 -0.517764 5.90868 -0.684165 -0.027535 -0.728807 181 181 163
3.04327 -0.507946 5.89658 -0.722214 -0.0145038 -0.691517 163 164 143
3.05642 -0.515181 5.88602 -0.782417 -0.0178235 -0.6225 82 83 66
3.06384 -0.502049 5.8225 -0.882179 -0.0258125 -0.470206 8 8 4
3.0676 -0.504674 5.86828 -0.810339 -0.0181601 -0.58568 14 14 9
3.06483 -0.501495 5.81811 -0.849023 -0.0344571 -0.527231 7 7 3
3.11292 -0.494426 5.72327 -0.884229 -0.0523932 -0.464105 2 2 2
3.11788 -0.495289 5.71192 -0.943796 -0.0256734 -0.329531 1 1 1
-0.542923 -0.522833 6.18569 0.835758 -0.0296026 -0.548299 6 7 5
-0.543411 -0.514692 6.2281 0.808507 -0.0226644 -0.588051 8 9 5
-0.554443 -0.527738 6.23905 0.451446 0.301678 -0.839754 7 7 6
-0.533279 -0.525295 6.23368 0.796102 -0.0314272 -0.604346 15 16 11
3.04269 -0.488452 5.89591 -0.754871 -0.0213352 -0.655526 168 167 148
3.05574 -0.495947 5.88396 -0.701994 -0.0224507 -0.711829 88 88 71
3.05921 -0.491844 5.88049 -0.419344 -0.100302 -0.902269 44 45 32
3.06691 -0.485463 5.86619 -0.816362 -0.0181977 -0.577254 15 14 8
3.06576 -0.479041 5.82157 -0.812663 -0.0289671 -0.582014 8 8 4
3.05857 -0.488556 5.78498 -0.896203 0.0150591 -0.443388 6 6 3
3.06379 -0.479784 5.8138 -0.881913 -0.0306007 -0.470417 8 9 4
3.11527 -0.482627 5.73798 -0.944583 -0.00798929 -0.328175 1 1 1
3.11201 -0.473068 5.73131 -0.88647 -0.0326511 -0.461632 2 2 2
-0.538594 -0.50024 6.13939 0.74432 -0.224723 -0.628878 6 6 6
-0.532311 -0.502866 6.23072 0.826242 -0.0378522 -0.562042 16 17 12
-0.515402 -0.50391 6.25079 0.616027 -0.126924 -0.777432 170 172 162
-0.504574 -0.515821 6.25835 0.482444 -0.0592629 -0.87392 181 183 173
3.05432 -0.47831 5.88328 -0.572331 -0.0452288 -0.818775 104 104 87
3.06608 -0.468527 5.87438 -0.512775 -0.104798 -0.852103 18 17 10
3.08088 -0.471291 5.87378 -0.871355 0.00130288 -0.490651 7 8 6
3.10599 -0.470219 5.75634 -0.937014 -0.0880753 -0.338004 3 3 3
-0.552008 -0.495558 6.21044 0.679742 -0.00662905 -0.733421 6 6 5
-0.538074 -0.480693 6.13864 0.730659 -0.202783 -0.651932 7 7 7
-0.539586 -0.486803 6.2252 0.684095 -0.0497575 -0.727694 10 11 7
-0.532981 -0.494669 6.22092 0.863303 -0.0467059 -0.502521 13 13 9
-0.522711 -0.487704 6.24401 0.457337 -0.140748 -0.878085 91 92 85
-0.492364 -0.498563 6.24806 0.173554 -0.0763242 -0.981862 181 183 172
3.02258 -0.460556 5.88975 -0.397683 0.202029 -0.895004 194 195 175
3.03634 -0.459482 5.87323 -0.202355 -0.0306749 -0.978832 170 170 147
3.03262 -0.45821 5.86549 -0.202002 0.0307534 -0.978902 171 172 149
3.05535 -0.453145 5.87918 -0.739187 -0.0329996 -0.672691 84 84 69
3.06692 -0.45199 5.86898 -0.546283 -0.106436 -0.830811 16 16 10
3.07013 -0.457409 5.86057 -0.876214 -0.0104084 -0.48181 11 11 7
3.06507 -0.4578 5.81938 -0.771321 -0.0641918 -0.633201 8 8 4
3.07741 -0.452414 5.86457 -0.884402 -0.00812798 -0.466656 8 9 7
3.11096 -0.450456 5.72654 -0.887949 0.00288084 -0.459932 2 2 2
-0.535651 -0.46601 6.15659 0.668378 -0.0785311 -0.739664 8 8 7
-0.545675 -0.470495 6.23092 0.866821 -0.0260066 -0.497941 10 11 7
-0.541796 -0.47404 6.18738 0.852313 -0.0531874 -0.520321 7 7 5
-0.545707 -0.474483 6.20848 0.79758 -0.0415414 -0.601781 7 7 5
-0.545707 -0.474483 6.20848 0.79758 -0.0415414 -0.601781 7 7 5
-0.545707 -0.474483 6.20848 0.79758 -0.0415414 -0.601781 7 7 5
-0.530367 -0.481392 6.23533 0.696041 0.0082083 -0.717955 25 26 20
-0.519612 -0.468964 6.2449 0.593396 -0.105181 -0.798008 132 134 126
-0.505984 -0.479953 6.24612 0.208725 -0.108909 -0.971891 182 184 175
-0.485544 -0.470691 6.23513 -0.236612 0.0333338 -0.971032 182 184 174
3.02856 -0.44584 5.88951 -0.938112 0.000216071 -0.346333 190 190 172
3.04447 -0.446069 5.87977 -0.198712 -0.118273 -0.972895 157 158 137
3.06027 -0.445379 5.86821 -0.882179 -0.0175141 -0.470588 30 29 20
3.08039 -0.446904 5.86337 -0.884958 0.00935578 -0.465577 7 8 6
3.09966 -0.43554 5.72346 -0.888857 0.0514375 -0.455289 3 3 3
3.11054 -0.423896 5.71661 -0.889498 0.0128294 -0.456759 1 1 1
-0.552161 -0.457801 6.201 0.846025 -0.00858358 -0.533075 5 5 4
-0.536785 -0.442081 6.12605 0.784603 0.0242931 -0.619523 7 8 6
-0.530535 -0.457886 6.23045 0.803858 -0.0245943 -0.594312 25 26 20
-0.504695 -0.461787 6.25393 0.551734 -0.0797218 -0.830201 182 183 173
-0.504916 -0.457293 6.24866 0.413408 -0.0670427 -0.908074 184 185 175
3.03336 -0.4338 5.9107 -0.196207 -0.0659517 -0.978342 192 192 171
3.0416 -0.422951 5.90488 -0.939355 0.0146344 -0.342635 191 189 169
3.04921 -0.433974 5.88298 -0.939709 0.00191333 -0.341969 144 143 123
3.05976 -0.422578 5.86662 -0.883241 -0.00332805 -0.468908 30 30 18
3.06965 -0.434645 5.85994 -0.849859 -0.012234 -0.526868 11 11 6
3.07974 -0.424748 5.8553 -0.847084 -0.000228806 -0.531458 6 7 4
3.10133 -0.412484 5.73036 -0.940679 0.108291 -0.321552 3 3 3
3.12118 -0.41365 5.70845 -0.945412 -0.010347 -0.325714 1 1 1
-0.55601 -0.436163 6.21697 0.855865 -0.0451871 -0.515222 6 6 6
-0.547316 -0.439183 6.2025 0.856971 -0.0200727 -0.514974 6 6 5
-0.547294 -0.439318 6.20416 0.856701 -0.0227488 -0.515311 6 6 5
-0.547294 -0.439318 6.20416 0.856701 -0.0227488 -0.515311 6 6 5
-0.53986 -0.446068 6.21112 0.856003 -0.0182753 -0.516647 9 10 7
-0.530072 -0.435065 6.23054 0.744413 -0.0264894 -0.667194 30 31 25
-0.518635 -0.447304 6.2437 0.619954 -0.0412791 -0.783552 151 153 145
-0.504656 -0.438507 6.25252 0.640633 -0.0560907 -0.765796 192 194 183
3.05065 -0.411543 5.88691 -0.883033 0.000834596 -0.469309 141 141 123
3.06922 -0.411833 5.8568 -0.865233 -0.0144626 -0.501161 11 11 5
3.07104 -0.41055 5.81193 -0.592128 -0.186173 -0.784043 6 6 4
3.10478 -0.394792 5.74022 -0.944332 0.0194643 -0.328419 3 3 3
3.11239 -0.402391 5.72449 -0.607097 -0.0272653 -0.79416 1 1 1
3.13281 -0.394186 5.72776 0.189722 -0.0983056 -0.976904 1 1 1
-0.548361 -0.416579 6.13661 0.858116 -0.00492157 -0.513432 5 6 5
-0.54316 -0.424285 6.2252 0.868719 -0.0348867 -0.494074 10 11 8
-0.51753 -0.425138 6.24258 0.726886 -0.0532399 -0.684691 162 163 154
3.03103 -0.400106 5.90738 -0.62098 0.655615 -0.429596 194 195 176
3.05962 -0.399823 5.86535 -0.880776 -0.00880016 -0.473452 30 31 21
3.06903 -0.388989 5.85497 -0.868474 -0.0123399 -0.49558 12 12 7
3.0791 -0.401784 5.85357 -0.862887 -0.00269739 -0.505389 8 8 7
3.0699 -0.388784 5.81038 -0.689319 -0.123281 -0.713891 8 8 7
3.10468 -0.386236 5.74276 -0.944372 0.0464965 -0.325577 3 3 3
3.1125 -0.385162 5.72573 -0.17846 -0.286098 -0.941435 1 1 1
3.13176 -0.38535 5.7248 0.20757 -0.166409 -0.963962 1 1 1
-0.547623 -0.392673 6.13524 0.561359 -0.010279 -0.827509 6 6 4
-0.536523 -0.406992 6.15474 0.755337 -0.0152102 -0.655161 7 8 5
-0.541763 -0.403242 6.22392 0.667506 -0.111452 -0.736217 12 12 10
-0.529007 -0.414121 6.23028 0.633018 -0.0787877 -0.770117 38 39 32
-0.515703 -0.404699 6.2413 0.718561 -0.0810484 -0.690725 171 172 163
-0.504512 -0.41579 6.25466 0.735815 -0.083731 -0.671986 184 186 174
-0.49787 -0.401138 6.26356 0.309159 -0.182875 -0.933262 187 188 177
3.0393 -0.386577 5.91452 -0.193091 -0.0485161 -0.979981 190 191 175
3.0504 -0.388931 5.88626 -0.882633 -0.00932638 -0.46997 149 149 135
3.05939 -0.37727 5.8652 -0.875129 -0.0185213 -0.483536 33 34 24
3.0696 -0.374149 5.81101 -0.88388 -0.0253438 -0.467026 7 7 7
3.06937 -0.374107 5.8104 -0.885025 -0.0234111 -0.464955 7 7 7
3.06937 -0.374107 5.8104 -0.885025 -0.0234111 -0.464955 7 7 7
3.10342 -0.370398 5.72377 -0.572793 -0.288041 -0.767425 2 2 2
3.12749 -0.368532 5.72684 0.381726 -0.192042 -0.904105 1 1 1
-0.538731 -0.382506 6.20785 0.856464 -0.0199798 -0.51582 10 10 8
-0.536745 -0.39123 6.16744 0.856558 -0.0109739 -0.515934 8 8 5
-0.5272 -0.395092 6.23246 0.344139 -0.140054 -0.928415 56 57 50
-0.527534 -0.39343 6.23178 0.381274 -0.148231 -0.912501 53 55 48
-0.512257 -0.384158 6.23688 0.401426 -0.139349 -0.905229 181 182 173
-0.492497 -0.383435 6.2335 0.00989007 -0.3165 -0.948541 187 189 178
3.04082 -0.368109 5.93697 -0.881627 -0.00275214 -0.471939 194 195 176
3.04995 -0.366582 5.88589 -0.882293 -0.0158183 -0.470434 156 158 140
3.04873 -0.36593 5.8823 -0.939963 0.00330894 -0.341261 156 157 139
3.05372 -0.364341 5.86662 -0.940156 -0.00502309 -0.340706 75 77 62
3.05372 -0.364341 5.86662 -0.940156 -0.00502309 -0.340706 75 77 62
3.05372 -0.364341 5.86662 -0.940156 -0.00502309 -0.340706 75 77 62
3.06868 -0.366243 5.85279 -0.835131 -0.062114 -0.546533 11 12 7
3.06883 -0.356397 5.80545 -0.797452 0.111765 -0.592941 7 8 5
3.10119 -0.360097 5.73607 -0.825468 -0.0262128 -0.563839 3 3 3
3.095 -0.353894 5.72304 -0.936552 -0.0970364 -0.336828 3 3 2
3.11357 -0.353912 5.70511 -0.945474 0.0162296 -0.325292 1 1 1
-0.551976 -0.371668 6.2032 0.859701 0.005628 -0.510766 6 6 4
-0.542913 -0.376017 6.161 0.242004 0.108625 -0.964176 6 6 3
-0.534777 -0.379628 6.22689 0.365303 -0.0971466 -0.925806 18 19 14
-0.525914 -0.364157 6.22895 0.420165 -0.0849303 -0.903464 71 72 66
-0.526056 -0.364806 6.22858 0.42564 -0.066003 -0.902482 69 70 64
-0.518206 -0.379705 6.23432 0.42797 -0.068239 -0.901213 158 160 152
-0.51837 -0.37777 6.23393 0.457166 -0.0896801 -0.884848 156 158 150
-0.503691 -0.380255 6.25062 0.756149 -0.0700457 -0.65064 186 188 178
3.03991 -0.346541 5.93992 -0.859682 -0.00923997 -0.510746 199 201 181
3.05309 -0.357684 5.9384 -0.849625 -0.0557909 -0.524428 184 186 169
3.04801 -0.343592 5.88165 -0.939501 -0.012496 -0.342317 165 166 147
3.04892 -0.344485 5.88111 -0.939771 -0.00689895 -0.341735 161 163 144
3.05891 -0.354939 5.86503 -0.853335 -0.0264876 -0.52069 40 41 29
3.06784 -0.343796 5.8479 -0.780843 -0.0512818 -0.622619 11 13 7
3.07336 -0.346578 5.84239 -0.884501 -0.00303305 -0.466529 8 10 5
3.07336 -0.346578 5.84239 -0.884501 -0.00303305 -0.466529 8 10 5
3.08263 -0.345868 5.83956 -0.874722 -0.113418 -0.471167 6 8 3
3.10258 -0.340843 5.70967 -0.932718 -0.0255162 -0.359702 1 1 1
-0.550172 -0.348255 6.21511 0.491237 -0.133827 -0.860684 8 8 8
-0.526005 -0.36176 6.22855 0.421907 -0.0684338 -0.904053 70 71 65
-0.533671 -0.348257 6.22376 0.459366 -0.112247 -0.881127 20 21 17
-0.5344 -0.347413 6.22291 0.481551 -0.116465 -0.868645 19 20 16
-0.508461 -0.36351 6.23377 0.117285 -0.0737187 -0.990358 184 185 175
3.04201 -0.32906 5.90689 -0.881368 -0.0221228 -0.471911 197 199 181
3.05781 -0.333335 5.86383 -0.883228 -0.0172447 -0.468627 47 49 37
3.07403 -0.324363 5.8448 -0.868169 -0.00826788 -0.496199 10 11 7
3.07403 -0.324363 5.8448 -0.868169 -0.00826788 -0.496199 10 11 7
3.06172 -0.33057 5.79109 -0.880037 0.0225989 -0.474367 8 9 5
3.06857 -0.329374 5.80721 -0.756857 -0.00332759 -0.653572 7 9 5
3.09411 -0.328941 5.73215 -0.942451 -0.0388296 -0.332082 4 4 3
-0.540047 -0.328937 6.17158 0.840912 -0.0812771 -0.535034 8 8 5
-0.550852 -0.338154 6.20796 0.850832 -0.00207658 -0.525434 7 7 6
-0.550852 -0.338154 6.20796 0.850832 -0.00207658 -0.525434 7 7 6
-0.543131 -0.344209 6.21183 0.613025 -0.0753007 -0.786467 10 10 9
-0.543131 -0.344209 6.21183 0.613025 -0.0753007 -0.786467 10 10 9
-0.524504 -0.332217 6.22617 0.582099 -0.0350607 -0.812362 86 88 80
-0.525071 -0.332817 6.22616 0.53405 -0.0494107 -0.844008 81 84 76
-0.517268 -0.345889 6.23165 0.358636 -0.127221 -0.924768 177 179 170
-0.498756 -0.345498 6.23166 0.173222 -0.125796 -0.976816 186 189 177
3.03941 -0.323978 5.93223 -0.881546 -0.0101831 -0.471989 198 200 180
3.04792 -0.322122 5.87982 -0.939424 -0.0158301 -0.34239 165 167 148
3.05708 -0.310663 5.86306 -0.882382 -0.0300815 -0.469571 52 54 43
3.06584 -0.32169 5.84398 -0.793173 -0.064306 -0.605592 13 14 8
3.06071 -0.308574 5.7903 -0.927872 0.00527371 -0.372861 9 10 5
3.08134 -0.322956 5.82954 -0.877233 -0.098838 -0.469779 8 9 3
-0.550021 -0.314567 6.2111 0.576702 -0.08705 -0.812304 8 8 8
-0.548848 -0.315708 6.21041 0.636345 -0.0895348 -0.766191 9 9 8
-0.540788 -0.320727 6.14924 0.679573 -0.112716 -0.724897 6 7 3
-0.542669 -0.319153 6.15199 0.376062 -0.114655 -0.919474 6 6 3
-0.523304 -0.314483 6.22589 0.689484 -0.0841525 -0.719395 105 106 97
-0.523277 -0.313592 6.22577 0.674703 -0.0771135 -0.73405 106 107 98
-0.533562 -0.315091 6.2177 0.616493 -0.0494291 -0.785807 21 22 16
-0.532923 -0.316276 6.21894 0.582923 -0.057464 -0.810493 22 23 17
-0.509848 -0.324685 6.23096 0.260161 -0.0345275 -0.964948 180 183 172
-0.509689 -0.323454 6.23115 0.273308 -0.0277614 -0.961526 181 184 173
3.03904 -0.300912 5.92937 -0.881213 -0.0138078 -0.472518 196 199 178
3.04091 -0.305341 5.89167 -0.882263 -0.0068719 -0.470706 188 191 172
3.04682 -0.299568 5.87845 -0.939745 -0.00803562 -0.341782 171 174 156
3.04172 -0.297967 5.75091 -0.933275 -0.0974071 -0.345703 10 11 6
3.06807 -0.29608 5.7668 -0.942047 0.0265213 -0.334431 6 7 5
-0.550214 -0.30397 6.14958 0.775711 -0.0376516 -0.629965 6 6 3
-0.530177 -0.297529 6.21551 0.693613 -0.048607 -0.718706 28 29 23
-0.507906 -0.305077 6.23241 0.361012 -0.0939288 -0.927819 187 188 178
3.03783 -0.282203 5.88361 -0.878655 -0.0570943 -0.474031 190 193 173
3.05264 -0.287515 5.85297 -0.940272 -0.00807205 -0.34033 64 65 55
3.04388 -0.27287 5.75783 -0.941165 0.0156356 -0.337586 11 12 5
-0.54193 -0.285224 6.20009 0.78987 -0.098683 -0.605282 11 12 9
-0.541046 -0.286625 6.20074 0.8294 -0.101502 -0.549357 12 12 9
-0.531906 -0.29617 6.21717 0.570984 -0.0579623 -0.818913 25 26 20
-0.520654 -0.294639 6.22501 0.609376 -0.0546657 -0.790994 135 137 127
-0.506254 -0.286254 6.23255 0.64093 -0.0807422 -0.763341 188 189 177
3.03863 -0.27795 5.92762 -0.872551 -0.00265291 -0.488515 194 196 176
3.04879 -0.270611 5.87292 -0.830393 -0.142967 -0.538523 165 167 151
3.05958 -0.263346 5.84704 -0.656929 -0.110647 -0.745789 23 24 15
3.08626 -0.259847 5.70413 -0.942779 0.0673824 -0.326539 3 3 3
-0.550026 -0.275036 6.19892 0.844242 0.00507689 -0.535938 7 8 5
-0.551373 -0.274644 6.21209 0.559017 0.0645756 -0.826638 8 9 6
-0.529379 -0.277602 6.21472 0.664888 -0.0842606 -0.742175 34 35 27
-0.528731 -0.27772 6.21529 0.736454 -0.123511 -0.665117 39 41 32
-0.530107 -0.264214 6.209 0.745006 -0.0286778 -0.666442 30 31 23
-0.518754 -0.275762 6.22422 0.656687 -0.0867745 -0.749154 155 157 146
-0.505417 -0.266778 6.22547 0.383767 -0.105234 -0.917414 186 188 176
3.03663 -0.259596 5.88437 -0.879583 -0.0365051 -0.474343 186 188 169
3.04878 -0.254645 5.86306 -0.939996 -0.00994417 -0.34104 147 149 133
3.07071 -0.253076 5.84091 -0.754198 -0.0691065 -0.653001 11 12 7
3.05817 -0.250687 5.83432 -0.926729 -0.0682046 -0.369487 18 19 11
3.07222 -0.250969 5.78587 -0.942437 -0.00214832 -0.334378 7 7 4
3.07819 -0.246855 5.72058 -0.943576 0.00523011 -0.331114 3 3 3
-0.547902 -0.2529 6.1791 0.883493 -0.0556106 -0.465131 7 7 3
-0.521762 -0.248955 6.117 0.962723 -0.0683033 -0.261721 7 8 3
-0.526903 -0.258197 6.21547 0.439471 -0.116148 -0.890716 66 67 57
-0.525738 -0.257452 6.21686 0.509942 -0.0935879 -0.855102 83 85 75
-0.516185 -0.256418 6.22475 0.756205 -0.0456761 -0.652738 179 181 169
-0.517777 -0.254445 6.22152 0.547396 -0.090274 -0.831991 164 166 155
3.03769 -0.246828 5.87952 -0.939515 0.00655798 -0.342444 188 191 173
3.04732 -0.235402 5.86791 -0.765019 -0.126772 -0.631406 170 171 154
3.05071 -0.239734 5.86095 -0.366129 -0.1033 -0.924813 133 134 119
3.06122 -0.236905 5.79147 -0.883623 -0.025747 -0.467491 9 10 6
3.06734 -0.231852 5.78643 -0.801569 -0.0542123 -0.59544 7 7 5
3.064 -0.232551 5.70504 -0.942689 -0.00111973 -0.333671 4 4 3
3.064 -0.232551 5.70504 -0.942689 -0.00111973 -0.333671 4 4 3
