69 69.5 0 70.5 70.5 70 70 70 70.5 71 71 71 71 71 71 71.5 71.5 73 73 73 73 73 73.5 74 74 74 74 0 0 73.5 74.5 75 75 75 75 76 76.6667 76.6667 0 77 77 77 77 77 0 0 0 78 78 78 78 78 78.5 79 79 79 0 80 80 80.5 81 81 81 81 81 81 81 81.5 82 83 0 82 82 82 82 82.5 84 84 84 84 84 84 84 84.5 85.5 0 85 0 85 85 85 85.5 85.6667 86 0 0 0 0 0 86 86.5 87.5 0 0 88 88 88 88 88.5 89 89 89 89 89 89 89 89 89 90 89.5 0 90 90 90 90 90 90.5 91 91 92 92 92 92 92 92 92.5 0 93 93 93 93 93 93 93 93 93.5 94 94 94 94 94 94 0 94 94.3333 0 95.6667 95.6667 0 0 95 95 95 95 95 95.5 0 97 97 97 97 97 97 97 97 97.5 98 98 97.5 97.5 98 98 98 98 98 98 98 98.5 99 99 99 99 99 99 99 99 99 99 99 99.5 100 100 100 100 0 100 100 100 100 100 100 100.5 101 101 101 0 101 101 101 101 101 101 101.333 101.667 102 102 102 102 102 103 0 103 103 103 103 103 103.667 104 104 104 104 104 104 104 104 104 104 104 104 104 104.5 104.5 105 105 105 105 105 105 105 105 105 0 105 0 0 0 0 106 106 106 106 106 106 106 106 106 106 106 106 106 106 106 106.5 107 107 107 107 107 107 107 107 107 107 107 107 107 107 107 107 107 107 107 107 107 107 107 0 106.5 107 0 0 107 107 0 0 107 107 107 107 107 107 107.5 108 108 108 108 108 108 108 108 108 108 108 108 108 108 108 108 108 108 108 108 108 108 108 108.5 109 109 109 109 109 109 109 109 0 109 109 109 109 109 109 0 109 109 108.667 108.333 108.333 108 108 108 108 108 108 108 108 108.5 109 109 109 109 109 109 109 109 109 109 109 109 109 109 109 109 109 109 109 109 109 109 109 109 109 109 108.5 108.5 108 108 108 108 108 0 108 108 108 108 108 108 108.333 108.5 0 0 109 109 109 109 109 109 109 109 109 109 109 108.5 108.5 108 108 108 108 108 108 108 108 108 108 108 108 108 108 108 108 108 108 108 108 108 108 108 0 0 107 107 107 107 107 107 107 107 107 107 107 107 107 107 107 107 107 107 107 106.5 106.5 106 106 106 106 106 106 106 106 106 106 106 106 106 106 106 106 0 106 0 0 105 0 105 105 0 105 105 105 105 105 105 105 105 105 105 105 105 104.5 104.5 104 104 104 104 104 104 104 104 104 104 104 104 0 103 103 102.5 102.5 102 102 102 102 0 0 102 102 0 102 0 0 102 102 101.5 101.5 101 101 101 101 101 101 101 101 101 101 101 101 101 100.5 100.5 100 100 100 100 100 100 100 100 100 100 0 99 99 98.5 98.5 97.8333 97.8333 0 0 98 0 98 98 98 98 98 98 97.5 97.5 97 97 97 97 97 97 97 97 97 97 97 96.5 96.5 0 95 0 95 95 0 95 95 95 95 95 94.5 94.5 94 94 94 94 94 94 94 94 0 0 0 0 92 92 92 92 0 0 92 92 92 92 91.5 91.5 91 91 91 91 91 91 91 91 91 91 0 0 89 89 89 90 0 89 89 89 89 88.6667 88.6667 88.3333 0 0 88 0 0 0 0 87 87 86.5 86.5 86 86 86 86.5 0 86 86 86 85.5 85.5 85 85 0 84 84 84 84 84 84 83.5 83.5 83 83 83 0 82.5 83 0 0 0 0 81 81 81 81 81 81 81 81 80.5 80.5 80 80 80 0 0 79 79 79 78.5 78.5 78 78 78 78 78 78 78 0 76.5 76.5 76 76 76 0 76 76 76 75.5 75.5 75 75 75 0 74 74 74 73.5 73.5 73 73 0 72.5 0 73 73 0 0 71 71 71 71 71 71 71 0 0 70 70 0 69 69 69 69 68.5 68.5 68 0 0 0 68 0 0 66.5 66.5 66 66 0 0 0 0 65.5 65.5 65 0 64 64 64 64 0 63.5 63.5 63 63 0 0 62 0 61.5 61.5 61 61 61 0 0 0 0 0 0 59 59 59 59 0 58.5 58.5 0 57 57 57 57 57 56.6667 56.3333 0 56 56 0 55 55 54.5 54.5 54 54 54 54 54 0 52.5 52.5 52 52 0 52 52 51 51 0 0 0 0 50 50 49.5 49.5 49 0 48 48 48 0 0 47 47 0 0 46 46 45.5 45.5 45 45 45 45 45 0 0 43 0 43 43 43 42.5 42.5 0 41 41 0 0 40.5 40.5 40 40 0 0 39 0 0 38 38 38 0 37 36.5 36.5 36 36 36 36 0 34.5 34.5 34 34 0 34 34 0 0 32 32 32 32 0 30.5 30.5 0 0 30 30 0 0 0 29 0 28 28 27.5 27.5 0 27 27 0 26 25.5 25.5 25 25 25 25 0 0 0 0 23 23 23 0 0 21 21 21 21 20.5 20.5 20 0 19 19 0 0
68 69.5 70 0 70 70 70 70 70.5 71 71 71 71 71 71 70.5 70.5 72 73 73 73 73 73.5 74 74 74 74 74 74.5 74.5 75 75 75 75 75 75 76.5 77 77 77 77 77 0 77 77.5 78 78 0 0 78 78 78.4 78.6667 79 79 0 0 80 80.5 81 81 81 81 81 81 81 81 81.5 82 82 0 0 82 82 82.5 83 83 84 84 84 84 84 84.5 85 85 85.5 85.5 85 85 85 85 85.5 86 86 86 86 86 86 86 0 87 0 0 88 88 88 88 88 88.5 0 0 89 89 89 89 89 89 89.5 90 0 0 90 90 90 90 90 90.5 91 91 91 92 92 92 92 92.5 93 93 92.5 92.5 93 93 93 93 93 93 93.5 94 94 94 94 94 94 94 94 94.3333 95 95 0 95 95 95 95 95 95 0 95.5 0 97 97 97 97 97 97 97 97 97.5 98 98 97.5 97.5 98 98 98 98 98 98 98.5 99 99 99 99 99 99 99 99 99 99 99 99.5 100 100 100 100 0 0 99.5 100 100 100 100 101 101 101 101 101 101 101 101 101 101 101 101 101.333 101.667 102 102 102 0 102 102 102 102 102.5 103 103 103.5 104 104 104 104 104 104 104 104 104 104 104 104 104 104.5 105 105 105 105 105 105 105 105 105 105 105 105 105 105.5 105.5 106 0 0 106 106 106 106 106 106 106 106 106 106 106 106 106 106.5 107 107 107 107 107 107 107 107 107 107 107 107 107 107 107 107 106.5 106.5 106 106.5 107 107 107 107 107 107 107 0 0 106.5 106.5 106.5 0 107 107 107 107 0 0 108 0 108 108 108 108 108 108 108 108 108 108 108 108 108 108 108 108 108 108 108 108 108 108.5 109 109 109 109 109 109 109 109 109 109 109 109 109 109 109 109 109 109 109 108.667 108.667 108.333 108 0 0 0 108 108 108.5 109 109 109 109 109 109 109 109 109 109 109 109 109 109 109 109 109 109 109 109 109 109 109 109 109 109 109 108.5 108.5 108 108 108 108 108 108 108 108 108 0 0 0 108 0 0 0 109 109 109 109 109 109 109 109 109 109 109 108.5 108.5 108 108 108 108 108 108 108 108 108 108 108 108 108 108 108 108 108 108 108 108 108 108 108 0 0 0 0 107 107 107 107 107 107 107 107 107 107 107 107 107 107 107 107 107 107 106.5 106.5 106 106 106 106 106 106 106 106 106 106 106 106 106 106 106 106 0 106 0 0 105 105 105 105 105 0 0 105 105 105 105 105 105 105 105 105 104.5 104.5 104 104 104 104 104 104 104 104 104 104 104 104 104 0 103 102.5 102.5 102 102 102 102 102 102 102 0 102 0 0 0 102 102 0 101.5 101.5 101 101 101 101 101 101 101 101 101 101 101 101 101 100.5 100.5 100 100 100 100 100 100 100 100 100 100 100 0 98.5 98.5 98 98.5 0 98 98 0 98 98 98 98 98 0 98 97.3333 97 97 97 97 97 97 97 97 97 97 97 97 96.5 96.5 96 0 0 94 95 0 95 95 95 95 95 94.5 94.5 94 94 94 94 0 94 0 0 0 94 93.5 93.5 93 0 0 92 0 92 92 92 92 92 91.5 91.5 91 91 91 91 91 91 91 91 91 91 90.5 90.5 0 0 89 0 0 89 89 89 89 0 0 88 88 88 88 88 88 0 87 87 86.5 86.5 86 86 86 86 86.5 0 86 86 86 85.5 85.5 85 85 0 0 84 84 84 84 84 83.5 83.5 83 83 83 82.5 82.5 83 83 83 0 0 0 81 81 81 81 81 81 81 80.5 80.5 80 80 0 80 0 79 79 79 78.5 78.5 78 78 78 78 78 78 78 77.5 77.5 0 76 76 76 76 76 76 76 75.6 75.6 75 75 75 75 0 74 74 0 0 73 73 0 72.5 73 73 73 0 0 71 71 71 71 71 71 0 70.5 70.5 70 70 0 0 0 69 69 68.5 68.5 68 68 0 0 0 0 0 66.5 66.5 66 66 0 0 66 0 65.5 65.5 65 0 64 64 64 64 64 63.5 63.5 63 63 63 0 62 0 61.5 61.5 61 61 61 61 61 61 0 0 59 59 59 0 59 59 0 0 58 0 57 57 57 57 56.3333 56.3333 0 56 56 0 0 54.5 54.5 54.5 54 54 54 54 54 0 52.5 52.5 52 0 52 52 52 0 0 0 50 0 50 50 50 49.5 49.5 49 49 0 48 0 47.5 47.5 0 47 47 47 0 46 45.5 45.5 45 45 45 45 45 0 0 43 0 43 43 43 42.5 42.5 42 0 41 41 41 40.5 40.5 40 40 0 0 39 0 0 38 38 38 38 0 36.5 36.5 36 36 36 36 0 0 0 34 34 34 34 34 33.5 33.5 0 32 32 32 31 31 31 31 0 30 30 0 29.4 29 29 29 0 28 27.5 27.5 0 27 27 27 0 25.5 25.5 25 25 25 0 0 0 0 0 23 23 23 22.5 22.5 0 21 21 21 20.5 20.5 20 0 0 0 18.5 18.5
68 69.5 70 0 69.5 70 70 70 70.5 71 71 71 71 71 71 71 71 0 73 73 73 73.5 74 74 74 74 74 74 74.5 74.5 75 75 75 75 75 75 77 77 77 77 77 76.5 76.5 77.5 78 0 0 0 0 78 78 78.4 78.6667 0 0 79 80 80 80.5 81 81 81 81 81 81 81 81.5 82 82 82 0 82.5 82.5 82 82.5 83 83 83 84 84 84 84 84.5 85 85 85 85 85 85 85 85.6667 86 86 86 86 86 86 86 86 0 0 0 0 0 0 0 0 88.5 89 89 0 0 0 89 89 89 89.5 90 90 90.5 0 90 0 90 90 90.5 91 91 91 91 91 92 92 92 92.5 93 93 93 0 93 93 93 93 93 93.5 94 94 94 94 94 94 94 94 94 94.5 95 95 0 95 0 95 95 0 0 95.5 96 96 96 97 97 0 0 0 97.3333 97.6667 98 98 98 97.5 97.5 98 98 98 98 98 98 98.5 99 99 99 99 99 99 99 99 99 99 99.5 100 100 100 100 100 0 0 99.5 100 100 100 100.5 101 101 101 101 101 101 101 101 101 0 101 101.5 102 102 102 102 102 102 0 102 102 102 101.833 101.833 102 104 104 104 104 104 104 104 104 104 104 104 104 104 104.5 105 105 105 105 105 105 105 105 105 105 105 105 104.5 104.5 105.5 106.167 106.167 0 105.667 106 106 106 0 106 106 106 106 106 106 106 106 106.5 107 107 107 107 107 107 107 107 107 107 107 107 107 107 106.5 106.5 106 106 106.5 107 107 107 107 107 107 107 107 107 0 0 106 107 0 0 107 0 0 0 108 108 108 108 108 108 108 108 108 108 108 108 108 108 108 108 108 108 108 108 108 108 108 108 108.5 109 109 109 109 109 109 109 109 109 109 109 109 109 109 109 109 109 109 109 108.5 108.5 108 0 0 108 108 108.333 108.5 109 109 109 109 109 109 109 109 109 109 109 109 109 109 109 109 109 109 109 109 109 109 109 109 109 109 109 109 108.5 108.5 108 108 108 108 108 108 108 108 108 108 108 108.5 109 109 109 109 109 109 109 109 109 109 109 109 109 109 109 109 108.5 108.5 108 108 108 108 108 108 108 108 108 108 108 108 108 108 108 108 108 108 108 108 108 108 108 107.5 107.5 107 107 107 107 107 107 107 107 0 0 0 107 107 107 107 107 107 107 107 107 106.5 106.5 106 106 106 106 106 106 106 106 106 106 106 106 106 106 106 106 0 106 105.5 105.5 105 105 105 105 0 0 105 105 105 105 105 105 105 105 105 0 104.5 104.5 104 104 104 104 104 104 104 104 104 104 104 104 104 104 104 103.5 103.5 103 0 102 102 102 102 102 102 0 0 0 0 102 102 101.6 101.6 0 0 101 101 101 101 101 101 101 101 101 0 101 101 100.5 100.5 100 100 100 100 100 100 100 100 100 100 100 100 0 0 0 98 0 98 98 98 98 98 98 98 98 0 97.3333 97.3333 97 97 97 97 97 97 97 97 97 97 97 97 96.5 96.5 96 96 0 0 95 95 95 95 95 95 94.5 94.5 94 94 94 94 94 94 94 94 94 0 94 93.5 93.5 93 93 0 92 0 92 92 92 0 92 91.5 91.5 91 91 91 91 91 91 91 91 91 91 90.5 90.5 0 0 89 90 0 89 89 89 89 88.5 88.5 88 88 88 88 88 0 88 0 87 86.5 86.5 86 86 86 86 86 86 86 86 86 85.5 85.5 85 85 85 0 84 84 84 84 83.5 83.5 83 83 83 83 83 0 0 83 83 82.5 82.5 0 81 0 0 81 81 81 81 80.5 80.5 80 80 0 0 0 79 79 79 78.5 78.5 78 78 78 78 78 78 78 77.5 77.5 0 0 76 76 76 76 76 76 75.6 75.6 75 75 0 0 75 0 74 73.5 73.5 73 73 0 72.5 73 73 73 72.5 72.5 0 71 71 71 71 71 71 70.5 70.5 70 70 70 0 0 69 69 68.5 68.5 68 68 68 68 0 0 67 66.5 66.5 66 66 0 0 66 66 65.5 65.5 65 65 0 64 64 0 64 63.5 63.5 63 63 0 0 62 0 61.5 61.5 61 61 61 61 61 0 0 0 59 59 59 59 59 59 58.5 58.5 58 0 57 57 57 57 56.5 56.5 56 56 56 0 0 55 54.5 54.5 54 54 54 54 54 54 0 0 52 52 52 52 52 0 0 0 0 50 50 0 0 0 0 49 49 0 0 48 47.5 47.5 0 47 47 47 0 46 45.5 45.5 45 45 45 45 45 0 0 0 0 43 43 43 42.5 42.5 42 0 41 41 0 0 0 40 0 39.6667 39.6667 39 38.5 38.5 38 38 38 38 0 36.5 36.5 36 36 36 36 0 0 0 34 0 34 34 34 33.5 33.5 0 32 32 0 31 31 31 31 0 30 0 29.4 29.4 29 29 29 0 28 27.5 27.5 0 27 27 27 0 25.5 25.5 25 25 0 25 0 0 0 0 23 23 23 22.5 22.5 0 21 21 21 20.5 20.5 20 0 0 19 18.5 18.5
68.5 68.75 70 69.8333 69.8333 70 70 70.5 71 71 71 71 71 71 71 71.5 0 0 72 73 73 73.5 74 74 74 74 74 74 74.5 74.5 75 75 75 75 75 75 75.5 77 77 77 77 76.5 76.5 77.5 78 78 78 78 78 0 78.5 79 79 79 79 79 80 80 0 0 81 81 81 81 81 81 81.5 82 82 82 82 82.5 82.5 82 82.5 83 83 83 84 84 84 84.5 85 85 85 84.5 84.5 85 85 85.5 86 86 86 86 86 86 86 86 0 87 87 87 0 0 88 88 88 0 89 89 89 89 89 89 89 89.5 0 90 90 0 0 89 0 90 90 90.5 91 91 91 91 91 91 92 92.5 93 93 93 93 0 0 93 93 93 93.6667 94 94 94 94 94 94 94 94 94 94.5 95 95 95 95 95 0 95 0 0 95.5 96 96 96 96 96 97 97 97 97 97.3333 97.6667 98 0 98 0 0 0 0 98 0 98 98.5 99 99 99 99 99 99 99 99 99 99 99.5 100 100 100 100 100 100 0 0 100 100 100 100 100.5 101 101 101 101 101 101 101 101 101 101 101 0 102 102 102 102 0 0 102 0 0 102 101.833 101.833 102.5 103.5 103.5 103 103 104 104 104 104 104 104 104 104 104 104.5 105 105 105 105 105 105 105 105 105 105 105 105 105 105.5 106 105.5 105.5 0 0 106 106 106 0 106 106 106 106 106 0 106 106.667 107 107 107 107 107 107 107 107 107 107 107 106.5 106.5 106 106 106 106 106 106.5 107 107 107 107 107 107 107 107 107 107.5 0 107 0 107 0 0 106.5 0 107.5 108 108 108 108 108 108 0 108 108 108 108 0 0 108 108 108 108 108 108 108 108 108 108 108.5 109 109 109 109 109 109 109 109 109 109 109 109 109 109 109 109 109 109 109 109 108.5 108.5 108 108 108 108 108 108 108.333 0 0 109 109 109 109 109 109 109 109 109 109 109 109 109 109 109 109 109 109 109 109 109 109 109 109 109 109 109 108.5 108.5 108 108 108 108 108 108 108.5 0 108.5 109 109 109 109 109 109 109 0 0 0 0 109 109 109 109 109 109 109 108.5 108.5 108 108 108 108 108 108 108 108 108 108 108 108 108 108 108 108 108 108 108 108 108 108 108 107.5 107.5 107 107 107 107 0 0 0 0 0 107 0 107 107 107 107 107 107 107 107 107 106.5 106.5 106 106 106 106 106 106 106 106 106 106 106 0 106 106 106 0 106 0 0 0 105 105 105 105 105 105 105 105 105 105 105 0 105 105 105 105 105 104.5 104.5 104 104 104 104 104 104 104 104 104 104 104 104 104 104 104 103.5 103.5 103 103 103 103 103 0 102 102 102 102 102 0 102 102 101.6 101.6 0 0 101 101 101 101 101 101 101 101 101 101 101 100.5 100.5 100 100 100 100 100 100 100 100 100 100 100 0 100 99.5 99.5 0 0 0 98 98 0 98 98 98 98 98 98 97.5 97.5 97 97 97 97 97 97 97 97 97 97 97 96.5 96.5 96 96 96 96 96 0 95 95 95 95 95 94.5 94.5 94 94 94 94 94 94 94 94 94 94 94 0 0 0 93 93 0 92 92 92 92 92 92 91.5 91.5 91 91 91 91 91 91 91 91 91 90.5 90.5 90 90 0 89 89 0 89 89 89 89 88.5 88.5 88 88 88 0 88 88 88 88 0 86.5 86.5 86 86 0 86 86 86 86 86 86 85.5 85.5 0 85 85 85 0 84 84 84 83.5 83.5 83 83 83 83 83 0 83 83 83 82.5 82.5 0 82 0 0 81 81 81 81 80.5 80.5 80 80 80 0 80 0 79 79 78.5 78.5 78 78 78 78 78 78 78 77.5 77.5 77 0 0 75.5 76 76 76 76 75.6 75 75 75 75 75 75 0 0 73.5 73.5 73 73 73.5 0 73 73 73 72.5 72.5 72 0 71 71 71 0 71 70.5 70.5 70 70 70 70 0 69 69 68.5 68.5 68 0 0 0 0 68 0 66.5 66.5 66 66 0 0 66 66 65.5 65.5 65 65 0 64 0 64 63.5 63.5 63 63 63 63 0 0 0 61.5 61.5 61 61 61 61 0 61 0 0 59 59 59 59 0 0 0 0 58 58 0 57 57 57 0 0 56 56 56 56 0 55 54.5 54.5 54 54 54 54 54 53.5 53.5 0 0 52 52 52 52 0 0 51 0 0 0 50 50 49.5 49.5 49 49 0 48 48 47.5 47.5 0 47 47 47 47 0 0 45 45 45 45 45 0 0 0 43 43 43 43 43 42.5 42.5 42 0 0 41 41 40.5 40.5 40 0 39.6667 0 39 0 0 0 0 38 38 0 36.5 36.5 36 36 36 36 36 0 0 0 34 34 34 34 33.5 33.5 33 0 32 0 32 0 0 31 31 0 0 29.4 29.4 0 0 0 0 28 27.5 27.5 0 27 27 27 0 0 25 25 0 25 25 24.5 24.5 0 0 23 23 22.5 22.5 22 0 21 21 21 20.5 20.5 0 0 19 19 18.5 18.5
68.5 68.75 70 69.8333 69.8333 70 70.6667 70.6667 0 71 71 71 71 71 71.6667 72 0 72 72 73 73 73.5 74 74 74 74 74 74 74.25 74.25 75.5 75.5 75 75 75 75.5 76 77 77 77 77 76.5 76.5 78 78 78 78 78 78 78 78.5 79 79 79 79 79 79 0 0 0 81 81 81 81 81 0 81.5 0 82 82 82 0 0 82.5 83 83 83 83 83 84 84 84.5 85 85 85 85 0 84.5 85 85.5 86 86 86 86 86 86 86 86 86.5 87 87 87 0 87.5 88 88 88.5 89 89 89 89 89 89 89 89 90 90 90 90 90 0 0 0 90 90.5 91 91 91 91 91 91 91 91 92.5 93 93 93 93 93 93 93 93 93.5 94 94 94 94 94 94 94 94 94 94 94.5 95 95 95 95 95 95 95 0 0 95 96 96 96 96 96 96 97 97 97 97.5 98 98 98 0 98 0 97.6667 97.6667 98 98 98.6667 99 99 99 99 99 99 99 99 99 99 99.5 100 100 100 100 100 100 100 0 100 0 100 100 100.5 101 101 101 101 101 101 101 101 101 101 101 101.5 102 102 102 102 102 0 102 102 102 102 0 101.5 101.5 0 0 0 103 103 103 103 103 103 103 104 104 104 104.5 105 105 105 105 105 105 105 105 105 105 105 105 105 105.5 106 106 106 0 0 106.5 106.5 106 106 0 106 106 106 0 0 106.5 106.667 107 107 107 107 107 107 107 107 106.5 106.5 106 106 106 106 106 106 106 106 106.5 107 107 107 107 107 107 107 107 107 107 107.167 107.167 107 107 107 0 0 106.5 0 108 108 0 0 108 108 0 108 108 0 0 0 108 108 108 108 108 108 108 108 108 108 108 108.5 109 109 109 109 109 109 109 109 109 109 109 109 109 109 109 109 109 109 109 109 108.5 108.5 108 108 108 108 108 0 0 109 109 109 109 109 109 109 0 0 109 109 109 109 109 109 109 109 109 109 109 109 109 109 109 109 109 109 109 109 108.5 108.5 108 108 108 108 108.5 109 109 109 109 109 109 109 109 109 109 109 109 109 109 109 109 0 0 109 109 109 109 109 108.5 108.5 108 108 108 108 108 108 108 108 108 108 108 108 108 108 108 108 108 108 108 108 108 108 108 107.5 107.5 107 107 107 107 107 107 107 0 107 0 107 107 107 107 107 107 107 107 107 107 106.5 106.5 106 106 106 106 106 106 106 106 106 106 106 0 106 106 106 0 106 106 0 0 105 105 105 105 105 0 105 105 0 0 0 0 0 105 105 105 104.5 104.5 104 104 104 104 104 104 104 104 104 104 104 104 104 104 104 104 103.5 103.5 103 103 103 103 103 103 103 103 0 102 0 102 102 102 101.6 101 0 0 0 101 101 101 101 101 101 101 101 101 101 100.5 100.5 100 100 100 100 100 100 100 100 100 100 100 0 99.5 0 0 0 99 99 0 98 98 98 98 98 0 0 0 97.5 97.5 97 97 0 97 97 97 97 97 97 97 97 96.5 96.5 96 0 96 96 96 96 0 95 95 95 95 94.5 94.5 94 94 94 94 0 94 94 94 94 94 93.5 93.5 0 93 0 0 93 93 0 92 92 92 92 91.5 91.5 91 91 91 91 91 91 91 91 91 90.5 90.5 0 90 0 89 89 0 89 89 89 89 88.5 88.5 88 88 0 0 0 88 0 88 0 0 0 86 86 86.5 86.5 86 86 86 86 86 85.5 85.5 85 85 85 85 85 0 84 84 83.5 83.5 83 83 0 83 83 0 83 83 82.5 82.5 82 82 82 0 0 81 81 81 80.5 80.5 80 80 0 80 80 80 80 0 78.5 78.5 78 78 78 78 78 78 78 78 0 0 77 77 76.5 76.5 76 0 76 0 0 75 75 75 75 75 0 0 74 73.5 73.5 73 73 73 73 73 73 73 72.5 72.5 72 72 0 71 71 71 71 70.5 70.5 70 70 70 70 0 69 69 68.5 68.5 68 68 68 0 68 68 0 0 0 66 66 0 0 66 66 65.5 65.5 65 65 65 0 64 64 63.5 63.5 63 63 63 63 63 62.5 62.5 61.5 61.5 61 61 61 0 61 61 60.5 60.5 0 59 0 0 59 59 58.5 58.5 58 58 0 57 57 0 56.5 56.5 56 56 56 56 0 0 54.5 54.5 54 54 54 54 54 0 0 0 52 52 52 0 52 51.5 51.5 51 0 50 0 0 0 0 0 49 0 49 0 48 0 0 47 47 47 47 47 0 0 45 45 45 45 45 45 0 0 0 43 43 43 43 42.5 42.5 42 42 0 41 41 40.5 40.5 0 0 0 0 39 38.5 38.5 38 38 38 38 38 0 0 36 36 36 36 0 35.5 35.5 0 34 34 34 34 33.5 33.5 33 0 32 32 31.5 31.5 31 31 0 0 0 0 0 0 0 29 29 0 27.5 27.5 0 27 27 27 26.5 26.5 0 0 25 25 0 24.5 24.5 0 0 23 23 22.5 22.5 22 22 0 21 21 0 0 20 0 0 19 18.5 18.5
68.5 69 69 70 70 70.6667 70.6667 70.6667 71 0 0 71 71 71.5 71.6667 72 0 0 72 72 73.5 74 74 74 74 74 74 74.5 75 0 75 75 75 75 75 75.5 76 76 77 77 77 77 0 78 78 78 78 78 78 78 78.5 79 79 79 79 79 79 80 0 81 81 81 81 81 81 82 82 82 82 82 82 0 82.6667 82.6667 0 0 0 83 83 84 84.5 85 85 85 85 85 0 84.5 0 85.5 86 86 86 86 86 86 86 86.5 87 87 87 87 0 87.5 88 88 88.5 89 89 89 0 89 89 89 89.5 90 90 90 90 90 90 90 0 90 90.5 91 91 91 91 91 91 0 91 93 93 93 0 93 93.5 0 93 93 93.5 94 94 94 94 94 94 94 94 94 94.5 95 95 95 95 95 95 95 95 0 95.5 96 96 96 96 96 96 96 96 97 97.5 98 98 98 98 98 98 0 97.6667 0 97.5 98.5 99 99 99 99 99 99 99 99 99 99 99 99.5 100 100 100 100 100 100 100 100.5 0 100 100.5 100.5 101 101 101 101 101 101 101 101 101 101 101 101.5 102 102 102 102 102 102 102 102 102 102 102 0 0 0 0 0 0 0 0 103 103 103 103 103 103 103 103 103.5 104 105 105 105 105 105 105 105 105 105 105 105 105.5 106 106 106 106 0 0 106 106 106 106 0 106 106 106 106 106 106.5 106.667 107 107 0 106.333 106.333 106 106 106 106 106 106 106 106 106 106 106 106 106.5 107 107 107 107 107 107 107 107 107 107 107 107 107 107 107 107 107 107.5 107.5 0 108 0 0 0 108 108 108 108 108 0 108 108 108 108 108 108 108 108 108 108 108 108 108.5 109 109 109 109 109 109 109 109 109 109 109 109 109 109 109 109 109 109 109 109 108.5 108.5 108 108 108 108.5 109 109 109 109 109 109 109 109 109 0 0 0 0 109 109 109 109 109 109 109 109 109 109 109 109 109 109 109 109 109 109 109 108.5 108.5 108 108 108 108.5 109 109 109 109 109 109 109 109 109 109 109 109 109 109 109 109 109 109 109 0 109 109 109 109 108.5 108.5 108 108 108 108 108 108 108 108 108 108 108 108 108 108 108 108 108 108 108 108 108 108 108 107.5 107.5 107 107 107 107 107 107 107 107 107 107 107 0 0 107 107 107 0 107 107 107 106.5 106.5 106 106 106 106 106 106 106 106 106 106 106 106 0 106 106 106 0 106 105.5 105.5 0 0 105 105 105 105 105 105 105 105 105 105 105 105 105 105 0 104.5 104.5 104 104 104 104 104 104 104 104 104 104 104 104 104 0 104 103.5 103.5 103 103 103 103 103 103 0 102.5 0 0 0 103 0 102 101.5 101.5 101 0 0 101 101 101 101 101 101 101 101 101 101 101 100.5 100.5 100 100 100 100 100 100 100 100 100 100 100 0 99 99 0 98 99 99 99 99 0 98 98 98 98 0 97.5 97.5 97 97 97 97 97 97 97 97 97 97 97 97 96.5 96.5 96 96 96 96 96 96 96 96 0 95 95 94.5 94.5 94 94 94 94 94 94 94 94 94 94 0 0 0 0 0 0 0 93 93 0 0 92 91.5 91.5 91 91 91 91 91 91 91 91 91 91 90.5 90.5 90 90 90 90 0 89 89 89 89 89 88.5 88.5 88 88 88 88 0 88 88 88 87.6667 87.3333 87.3333 0 86 86 86 86 86 86 86 85.5 85.5 0 85 85 85 85 85 85 0 84 83.5 83.5 83 83 0 0 83 83 83 83 82.5 82.5 82 82 82 0 0 0 0 81 80.5 80.5 80 80 80 80 0 80 80 80 0 0 78 78 78 78 78 78 78 78 77.5 77.5 77 77 0 0 76 76 76 75.5 75.5 75 75 75 75 75 0 75 75 73.5 73.5 73 73 73 73 73 73 73 72.5 72.5 72 72 0 71 0 71 71 70.5 70.5 70 0 70 70 0 0 69 68.5 68.5 68 68 68 68 68 0 67.5 67.5 0 66 66 0 66 66 66 65.5 65.5 65 65 65 0 64 64 63.6667 63.6667 63 63 63 0 63 63 0 0 61 61 61 61 61 61 61 60.5 60.5 0 59 59 0 0 59 0 0 58 58 58 0 0 57 56.5 56.5 56 56 56 56 56 0 54.5 54.5 54 54 54 54 54 0 0 0 0 52 52 0 52 51.5 51.5 51 51 0 50 50 0 0 0 0 49 49 0 48 0 0 46.5 47 47 47 47 46.5 46.5 0 45 45 45 0 45 0 0 0 43 43 43 43 42.5 42.5 42 42 0 41 41 40.5 40.5 0 0 0 0 0 0 0 38 38 38 38 38 0 0 36 36 36 0 36 35.5 35.5 0 34 34 34 34 33.5 33.5 33 0 0 0 31.5 31.5 31 0 31 0 30 0 0 0 29 29 29 0 0 0 27 27 27 27 26.5 26.5 0 0 25 25 25 24.5 24.5 0 0 23 23 22.5 22.5 22 22 0 21 0 20.5 20.5 20 20 0 0 0 0
68.5 69 69 69.5 69.5 70.5 70.5 71 71 71 71 71 71 71.5 71.6667 72 0 0 72 72 74 74 74 74 74 74 74.3333 74.5 75 75 75 75 75 75 75 75.5 76 76 77 77 77 77.6667 78 78 78 78 78 78 78 78.5 79 79 79 79 79 79 79 80 81.5 81.5 81 81 81 81 81.5 82 82 82 82 82 82.5 0 82.6667 0 0 83 83 83 83 83 84.5 85 85 85 85 85 85.5 0 0 84.5 86 86 86 86 86 86 86 86.5 87 87 87 87 87 87.5 0 88.6667 89 89 89 89 89 89 89 89 90 90 90 90 90 90 90 90 0 0 0 91 91 91 91 0 91 91 91.5 92 93 93 93 93 93 0 0 0 94 94 94 94 94 94 94 94 94 94 94.5 95 95 95 95 95 95 95.5 95.5 0 95.5 96 96 96 96 96 96 96 96 96 96.5 98 98 98 98 98 98 98 98 0 97 98.25 99 99 99 99 99 99 99 99 99 99 99.5 100 100 100 100 100 100 100 100 100 100 100 100.5 100.5 101 101 101 101 101 101 101 101 101 101 101 101.5 102 102 102 102 102 102 102 102 102 102 102 102.5 103 102.833 102.833 103 0 102.833 0 103 0 102.833 103 103 103 103 103.5 104 104 104 104 104 104 104 104 104 104 105 105 105 105.5 106 106 106 106 106 0 106 106 106 106 0 106 0 105.5 105.5 105 105.5 106 106 106 106 106 106.333 106 106 106 106 0 106 106 106 106 106 106.5 107 107 107 107 107 107 107 107 107 107 107 107 107 107 107 107 107 107 107 107.5 107.5 0 108 0 0 0 107.5 108 108 108 108 0 0 108 108 108 108 108 108 108 108.333 108.5 109 109 109 109 109 109 109 109 109 109 109 109 109 109 109 109 109 109 109 109 109 109 108.5 108.5 108 108 108.5 109 109 109 109 109 109 109 109 109 109 109 109 109 109 109 109 0 109 109 0 0 109 109 109 109 109 109 109 109 109 109 109 109 109 108.5 108.5 108 108 109 109 109 109 109 109 109 109 109 109 109 109 109 0 0 0 0 0 0 0 0 0 0 109 109 0 0 108 108 108 108 108 108 108 108 108 108 108 108 108 108 108 108 108 108 108 108 108 108 108 108 107.5 107.5 107 107 107 107 107 107 107 107 107 107 107 107 0 0 0 0 107 107 107 107 106.5 106.5 106 106 106 106 106 106 106 106 106 106 106 106 0 106 0 0 0 0 105.5 105.5 105 105 105 105 105 105 105 105 105 105 105 105 0 0 0 105 104.667 104.5 104.5 104 104 104 104 104 104 104 104 104 104 104 104 104 104 104 103.5 103.5 103 103 103 103 103 103 0 102.5 103 102.5 102.5 0 103 0 101.5 101.5 101 0 0 101 101 101 101 101 101 0 101 101 101 101 100.5 100.5 100 100 100 100 100 100 100 100 100 100 100 0 0 0 98.5 98.5 99 99 99 99 99 99 0 98 98 98 97.5 97.5 0 97 0 0 97 0 0 97 97 97 97 97 96.5 96.5 96 96 0 96 96 96 96 96 96 0 95 94.5 94.5 94 94 94 94 94 94 94 94 94 94 93.5 93.5 93 0 0 93 93 93 93 0 92 92 91.5 91.5 91 91 91 91 91 91 91 91 91 91 90.5 90.5 90 90 90 90 90 0 89 89 89 88.5 88.5 88 88 88 88 88 88 88 88 88 87.6667 87.6667 87.3333 0 87 86.5 86.5 86 86 86 86 85.5 85.5 85 85 85 85 85 85 85 85 0 83.5 83.5 83 83 0 0 83 83 83 83 82.5 82.5 82 82 82 82 0 0 81 81 80.5 80.5 80 0 80 80 0 80 80 80 79.5 79.5 0 78 78 78 78 78 78 0 77.5 77.5 77 0 77 0 76 76 76 75.5 75.5 75 75 0 0 0 75 75 75 0 0 73 73 73 73 73 73 73 72.5 72.5 72 72 0 0 71 71 71 70.5 70.5 0 0 0 70 70 70 0 0 68 68 68 0 68 68 0 0 0 0 0 66 66 66 66 66 65.5 65.5 65 65 0 0 64 64 63.6667 63.3333 63 63 63 63 63 63 62.5 62.5 0 61 61 0 61 61 61 60.5 60.5 60 0 59 0 59 58.6667 58.3333 58.3333 58 58 58 0 57 57 56.5 56.5 56 56 56 56 56 0 0 54 54 54 54 54 0 53.5 53.5 53 0 52 52 0 0 0 0 51 51 51 0 50 49.5 49.5 0 0 0 49 49 0 47.5 47.5 47.5 47 47 47 47 46.5 46.5 0 45 45 0 45 44.5 44.5 0 44 0 43 43 43 42.5 42.5 42 42 42 0 41 0 0 0 40 0 0 0 0 38.4 38 38 38 38 38 37.5 37.5 0 36 0 0 36 35.5 35.5 35 0 34 34 34 33.5 33.5 33 33 0 0 31.5 31.5 31 31 31 31 0 29.5 29.5 29 0 0 0 0 0 0 27 27 27 27 0 0 0 25 25 25 25 24.5 24.5 0 0 23 23 22.5 22.5 22 22 0 0 21 20.5 20.5 20 20 20 0 18.5 18.5
69 69 69 69 0 70.5 70.5 71 71 71 71 71 71 71.5 0 72 72 71.75 71.75 72 72.5 74 74 74 74 74 74.3333 74.5 0 75 74.8333 74.8333 75 75 75.5 76 76 76 76 77 77 77.5 79 0 78 78 78 78 78 78.5 79 79 79 79 79 79 79 0 79 80.5 81 81 81 81 81.5 82 82 82 82 82 82 0 83 0 83 83 83 83 83 83 0 85 0 0 85 85 85 0 84 0 86 86 86 86 86 86 86 86.5 87 87 87 87 87 87 88.5 0 89 89 89 89 89 89 89 89.5 90 90 90 90 90 90 90 90 90.5 90.5 91 91 91 91 91 91 91 91 91.5 92 92 0 93 93 93 93 0 0 94 94 94 94 94 94 94 94 94 94.5 95 95 95 95 95 95 0 95.5 94.6667 0 96 96 96 96 96 96 96 96 96 96.5 97 97 98 98 98 98 98 98 98 0 97 98.25 0 99 99 99 0 99 99 99 0 0 99.6667 100 100 100 100 100 100 100 100 100 100 100 100.5 100.5 101 101 0 101 101 101 101 101 101 101 101.5 102 102 102 102 102 102 102 102 102 102 102 102 102.5 103 102.833 102.833 103 102.833 102.833 103 103 102.833 102.833 103 103 103 103.5 104 0 0 104 104 104 104 104 104 104 104 104 104 104 104.5 105 105 105 105 105 105 0 104.5 104.5 105 105 0 105 0 105 105.5 106 106 106 106 106 106 106 106 106 106 106 106 106 106 106 106 106.5 107 107 107 107 107 107 107 107 107 107 107 107 107 107 107 107 107 107 107 107.5 0 107 0 108 108.5 0 108 108 108 108 108 108 0 108 108 108 108 108 108 108 108 108.333 109 109 109 109 109 109 109 109 109 109 109 109 109 109 109 109 109 109 109 109 109 109 108.5 108.5 108 108 108.5 109 109 109 109 109 109 109 109 109 109 109 109 109 109 109 109 109 109 109 109 109 0 0 0 0 109 109 109 109 109 109 109 109 109 108.5 108.5 108 108.5 109 109 109 109 109 109 109 109 109 109 109 109 109 109 109 109 109 109 109 109 109 109 109 109 109 109 0 0 108 108 108 108 108 108 108 108 108 108 108 108 108 108 108 108 108 108 108 108 108 108 108 108 107.333 107 107 107 107 107 107 107 107 107 107 107 107 107 107 107 107 107 107 0 0 0 0 106 0 106 106 106 106 106 106 0 106 106 106 106 0 0 0 0 0 106 105.5 105.5 105 105 105 105 105 105 105 105 105 105 105 105 105 105 105 105 104.667 104.667 0 104 0 104 104 104 104 104 104 104 104 104 104 104 104 104 103.5 103.5 103 103 103 103 103 0 0 102.5 103 103 103 103 103 103 102.5 102.5 102 0 101 101 101 101 101 0 101 101 101 101 101 100.5 100.5 100 100 100 100 100 100 100 100 100 100 100 0 0 99.5 99.5 99 99 99 99 99 99 99 99 99 99 0 98 0 0 0 0 0 0 97 97 97 97 0 97 97 97 0 96 0 0 96 96 96 96 96 96 96 96 95.5 95.5 0 94 94 94 94 94 94 94 94 94 94 93.5 93.5 93 93.1667 93.1667 0 93 93 0 93 0 92 91.5 91.5 91 91 91 91 91 91 91 91 91 91 90.5 90.5 0 90 89.5 89.5 90 90 90 0 89 88.5 88.5 88 88 88 88 0 88 88 88 0 87.5 87.5 87 87 87 87 0 86 86 86 86 0 0 85 85 85 85 85 85 85 85 85 0 0 83 83 83 83 0 83 83 83 82.5 82.5 82 82 82 82 82 0 81 0 80.5 80.5 0 0 0 80 80 80 80 80 79.5 79.5 79 0 78 78 78 78 78 78 77.5 77.5 0 77 77 77 0 76 76 75.5 75.5 75 75 75 75 0 75 0 0 0 0 73 73.3333 73 73 73 73 72.5 72.5 72 72 72 72 0 71 71 70.5 70.5 70 0 70.5 0 70 70 70 0 0 68 68 68 68 68 68 0 67.5 67.5 0 0 0 66 66 66 66 65.5 65.5 65 0 65 65 0 64 63.3333 63.3333 63 63 0 63 63 63 62.5 62.5 0 61 0 61 61 61 60.5 60.5 60 60 60 0 59 59 58.6667 58.6667 58.3333 58 58 0 58 0 56.5 56.5 56 56 56 56 0 56 0 0 0 54 54 54 54 54 53.5 53.5 53 0 52 52 0 0 0 0 51 51 51 0 0 0 0 49 49 49 49 49 0 48 48 0 47 47 47 47 46.5 46.5 46 0 0 45 45 44.5 44.5 0 44 0 43 43 43 42.5 42.5 42 42 42 0 41 40.5 40.5 0 40 0 0 40 38.4 38.4 38 38 38 38 38 37.5 37.5 0 0 36 36 36 35.5 35.5 35 0 34 34 33.5 33.5 33 33 0 0 0 31.5 31.5 0 31 31 31 0 29.5 29.5 29 0 0 0 0 0 0 27 27 27 0 26.5 26.5 0 25 25 25 25 24.5 24.5 0 0 23 23 22.5 22.5 22 0 22 0 21 0 0 0 20 0 0 18.5 18.5
69 69 69 69 69.5 69.5 71 71 71 71 71 71 71.5 72 72 72 72 72 0 0 72.5 74 74 74 74 74 74.5 75 75 75 75.1 75.1 0 75.3333 75.5 76 76 76 76 76 77.5 78 78.6667 0 78 78 78 78 78.5 79 79 79 79 79 79 79 79.6667 80 80 80.5 81 81 81 81.5 82 82 82 82 82 82 82 82.5 83.5 0 83 83 83 83 83 83.5 84 85 85 85 85 85 85 85 85 86 86 86 86 86 86 86 86.5 87 87 87 87 87 87 87 0 0 89 89 89 89 89 89 89.5 90 90 90 90 90 90 90 90 90 90.5 90.5 91 91 91 91 91 91 91 91.5 92 92 92 92 93 0 93 93 94.5 94.5 94 94 94 94 94 94 94 94 94 94.5 95 95 95 95 95 95 95 95 0 95.5 96.5 0 96 96 96 96 96 96 96 96.5 97 97 97 98 98 98 98 98 98 98.5 0 0 99 99 99 99 99 99 99 99 99 99.5 0 100 100 100 100 100 100 100 100 100 100 100.5 100.5 100.5 100.5 101 0 101 101 101 101 101 101 101.5 102 102 102 102 102 102 102 102 102 102 102 102 102 102.5 103 103 0 102.5 103 103 103 103 103.167 103.167 103 103 0 103.667 104 104 104 104 104 104 104 104 104 104 104 104 104 104.5 105 105 105 105 105 105 105 0 105 0 104.5 105 0 105 0 105 106 106 106 106 106 106 106 106 106 106 106 106 106 106 106 0 0 0 107 107 107 107 107 107 107 107 107 107 107 107 107 107 107 107 107 0 107.5 108 0 0 108 108 108.5 0 108.5 108.5 108 108 108 108 0 107.5 0 108 108 108 108 108.5 109 109 109 0 109 109 109 109 109 109 109 109 109 109 109 109 109 109 109 109 109 109 109 108.5 108.5 108 108.5 109 109 109 109 109 109 109 109 109 109 109 109 109 109 109 109 109 109 109 109 109 0 109 109 109 109 109 109 109 109 109 109 109 109 109 108.5 108.5 108.5 109 109 109 109 109 109 109 109 109 109 109 109 109 109 109 109 109 109 109 109 109 109 109 109 109 109 109 108.5 108.5 108 108 108 108 108 108 108 108 108 108 108 108 108 108 108 108 108 108 108 108 108 108 108 108 107.333 107.333 107 107 107 107 107 107 107 107 107 107 107 107 107 107 107 107 107 107 107 107 0 0 0 0 106 106 106 106 106 106 106 106 106 106 0 106 106 0 106 0 105.5 105.5 105 105 105 105 105 105 105 105 105 105 105 105 105 105 105 105 0 0 0 104 0 0 104 0 0 104 104 104 104 104 104 104 104 104 103.5 103.5 103 103 103 103 103 103 0 0 102 103 103 103 103 103 103 102.5 102.5 102 102 102 102 0 101 102 0 102 0 0 0 0 100.5 100.5 100 100 100 100 100 100 100 100 100 100 0 100 0 0 0 99 99 99 99 99 99 99 99 99 99 99 0 0 0 97 97 97 97 97 97 97 97 97 97 0 0 0 96 96 96 96 96 96 96 96 96 96 96 95.5 95.5 95 0 94 94 0 94 94 94 94 94 94 93.5 93.5 0 0 92.5 93 93 93 93 0 93 93 92.5 92.5 91 0 91 91 91 91 91 91 91 91 0 0 0 90 90 0 90 90 90 90 0 88.5 88.5 88 88 88 88 88 88 88 88 88 87.5 87.5 87 87 0 0 87 0 86 86 86 85.5 85.5 85 85 85 85 85 85 85 85 84.5 84.5 84 0 83 83.5 0 83 83 83 83 82.5 82.5 82 82 82 82 82 82 0 81 0 0 0 0 0 80 80 80 80 80 79.5 79.5 79 0 78 78 78 78 0 77.5 77.5 77 0 0 77 0 77 0 76 75.5 75.5 75 75 75 75 0 75 75 74.5 74.5 74 0 73.3333 73 73 73 73 72.6667 72.6667 72 72 0 72 72 0 71 70.5 70.5 70 70 0 70 70 70 70 69.5 69.5 0 68 0 68 68 68 68 67.5 67.5 67 67 0 0 66 66 65.5 65.5 65 65 65 65 65 0 64 63.5 63.5 63 63 0 63 63 63 62.5 62.5 62 0 61 61 61 61 60.5 60.5 60 60 0 0 59 0 0 0 58 0 0 58 58 0 56.5 56.5 56 56 56 56 0 56 55.5 55.5 0 54 54 54 0 54 53.5 53.5 53 53 0 52 0 0 51.5 51.5 51 51 51 51 0 0 0 49 49 49 0 0 49 0 0 47 47 47 47 47 46.5 46.5 0 0 45 45 45 44.5 44.5 44 44 44 0 43 42.5 42.5 42 42 42 42 0 0 40.5 40.5 0 0 40 40 40 38.4 38.4 38 38 0 38 38 37.5 37.5 0 36 0 36 36 35.5 35.5 35 35 0 34 33.5 33.5 33 33 0 0 32 0 0 31 31 31 31 0 29.5 29.5 29 0 0 0 0 0 0 27 27 0 27 26.5 26.5 26 0 25 25 25 0 0 24 0 23 23 22.5 22.5 22 0 22 0 20.5 20.5 0 0 20 20 0 18.5 18.5
69 69 69 69 69 70.25 71 71 71 71 71 71 71.5 72 72 72 72 72 0 0 73 73 74 74 74 74.5 75 75 75 75 75.1 75.1 0 75.3333 0 0 76 76 76 76 77.5 78 78 0 77.6667 78 78 78 78.5 79 79 79 79 79 79 79 79.5 80 80 0 81 81 81 82 82 82 82 82 82 82 82 82.5 83 0 0 83 83 83 83 83.5 84 84 85 85 85 85 0 0 85.5333 86 86 86 86 86 86 86.5 86.5 87 87 87 87 87 87 87 87.5 0 87.5 89 89 89 89 89 89.5 90 90 90 90 90 90 90 90 90.6667 91.5 91.5 0 91 91 91 91 91 91 91.5 92 92 92 92 92 93 93 93 0 93.5 0 0 94 94 94 94 94 94 94.5 95 95 95 95 95 95 95 95 95.5 96 96 96 0 0 96 96 96 96 96 96.5 97 97 97 97 97 98 98 98 98 98 98.5 99 0 99 99 99 99 99 99 99 0 0 0 0 100 100 100 100 100 100 100 100 100 100.5 101 101 100.5 100.5 101 101.5 101.5 101 101 101 101 101.5 102 102 102 102 102 102 102 102 102 102 102 102 102 102.5 103 103 103 102.5 102.5 103 0 103 103 103.5 103.5 103 103 103.5 103.667 0 104 104 0 0 104 104 0 104 104 104 104 104.5 105 105 105 105 105 105 105 105 0 105 104.833 104.833 105 0 0 0 106 106 106 106 106 106 106 106 106 106 106 106 106 106 106 106 106.5 106.667 107 0 107 107 107 107 107 107 107 107 107 107 107 107 107 107 107.667 0 107.5 108 108 108 108 108 108 108 108 108 107.5 107.5 108 108 108 0 108 0 108 108 108 108.5 109 109 0 0 109 109 109 0 109 109 109 109 109 109 0 109 109 109 109 109 109 109 109 108.5 108.5 108.5 109 109 109 109 109 109 109 109 109 109 109 109 109 109 109 109 109 109 109 109 109 109 109 109 109 109 109 0 109 109 109 0 109 109 109 110 109.5 109.5 109 109 109 109 109 109 109 109 109 109 109 109 109 109 109 109 109 109 109 109 109 109 109 109 109 109 109 109 109 108.5 108.5 108 108 108 108 108 108 108 108 108 108 108 108 108 108 108 108 108 108 108 108 108 108 108 107.5 107.5 107 107 107 107 107 107 107 107 107 107 107 107 107 107 107 107 107 107 107 107 107 106.5 106.5 0 106 0 106 106 106 106 106 106 0 106 106 106 106 106 106 106 106 105.5 105.5 105 105 105 105 105 105 105 105 105 105 105 105 105 105 105 105 105 104.5 104.5 0 104 104 104 104 104 104 104 0 104 104 104 104 104 104 103.5 103.5 103 103 103 103 103 0 0 102 102.5 103 103 103 103 103 102.5 102.5 102 102 102 102 102 102 102 102 0 102 102 0 0 101 100.5 100.5 100 100 100 100 100 100 100 100 100 100 0 100 0 0 98.5 99 99 99 99 99 99 99 99 99 99 99 98.5 98.5 0 97 97 97 97 97 0 0 0 97 0 97 96.5 96.5 96 96 96 96 96 96 96 96 96 96 96 95.5 95.5 95 95 95 0 94 94 94 94 94 94 93.5 93.5 93 0 0 0 0 0 0 0 0 93 0 0 0 0 91 91 91 91 91 91 91 91 90.5 90.5 90 0 90 90 0 90 90 90 90 90 0 0 88 88 88 0 88 88 88 88 88 87.5 87.5 0 87 87 87 87 87 0 86 0 85.5 85.5 85 85 85 85 85 85 85 85 84.5 84.5 84 84 0 83 0 83 83 83 83 82.5 82.5 82 82 82 82 82 82 82 0 0 0 0 0 0 80 80 80 80 80 79.5 79.5 79 79 0 78 78 78 78 77.5 77.5 77 0 0 77 77 77 77 0 75.5 75.5 75 75 75 0 75 75 75 74.5 74.5 74 73.3333 0 73 73 73 73 72.6667 72.3333 72 72 72 72 72 0 71 70.5 70.5 70 70 70 70 70 70 70 69.5 69.5 0 0 68 68 68 68 68 67.5 67.5 67 0 0 67 66 66 65.5 65.5 65 0 65 65 65 65 0 63.5 63.5 63 63 63 63 0 63 62.5 62.5 62 0 61 61 61 61 60.5 60.5 60 60 0 60 0 59 58.5 58.5 58 0 0 58 58 58 0 0 56 56 56 0 0 56 55.5 55.5 55 0 54 0 54 54 53.5 53.5 53 53 0 52 0 0 0 51 51 51 51 51 0 0 0 49 0 0 49 0 48 48 0 47 47 47 47 47 0 0 46 0 45 45 45 0 0 44 44 44 0 43 42.5 42.5 42 42 42 0 0 41 40.5 40.5 40 0 40 40 0 0 0 0 38 38 38 38 0 0 0 36 0 36 35.5 35.5 35 35 35 0 34 33.5 33.5 33 33 0 0 0 31.5 31.5 31 31 31 31 31 0 0 29 0 0 28 0 0 28 0 0 27 27 26.5 26.5 26 0 25 25 0 0 0 24 24 0 23 22.5 22.5 0 22 22 0 20.5 20.5 0 20 20 20 20 0 0
69 69 69 69 69 0 71 71 71 71 71 71 71.5 72 72 72 72 72 0 0 73 73 74 74 74 74.5 75 75 75 75 75 75 75.5 0 76 76 76 76 76 76 76.5 78 78 78.5 0 78 78 78.5 79 79 79 79 79 79 79 79.5 80 79.8333 79.8333 80 80 81 81.5 82 82 82 82 82 82 82 82.6667 83 83 0 83.5 83.5 83 83 83.5 84 84 84 84 85 85 85 85.5 85.5333 85.5333 86 86 86 86 86 86 86.5 87 87 87 87 87 87 87 87 0 0 87.5 88 89 89 89 89.5 90 90 90 90 90 90 90 90 90.5 91 0 0 91.5 91.5 91 91 91 91 91.5 92 92 92 92 92 92 92 93 93.5 93.5 94 0 94 94 94 94 94 94 94.5 95 95 95 95 95 95 95 95 95 95.5 96 96 96 0 0 95.5 96 96 96 96 96.5 97 97 97 97 97 97 98 98 98 98.5 99 99 0 0 99.5 99.5 99 99 99 99 99 99.5 100 100 100 100 100 100 100 100 100 0 100 100.5 101 101 100.5 100.5 101 0 101 101 101 101 101 101.5 102 102 102 102 102 102 102 102 102 102 102 102 102.5 103 103 102.5 102.5 103 0 103 0 103 103 104 0 103 103.5 104 104 0 0 104 104 104 104 104 104 104 104 104.25 104.5 105 105 105 105 105 105 105 105 105 105 105 105 0 105 0 105.5 105.5 106 106 106 106 106 106 106 106 106 106 106 106 106 106 106 106.5 107 107 107 107 107 107 0 0 107 107 107 107 107 107 0 0 107 0 0 108 108 108 108 108 108 108 108 108.5 0 108 107.5 107.5 0 108 108 0 108 0 108 108 108.5 109 109 109 109 109 0 109 109 109 109 109 109 109 109 109 109 109 109 109 109 109 109 109 108.5 108.5 108.5 109 109 109 109 109 109 109 109 109 109 109 109 109 109 109 109 109 109 109 109 109 109 109 109 109 109 109 109 109 109 109 0 0 0 0 110 110 109.5 109.5 109 109 109 109 109 109 109 109 109 109 109 109 109 109 109 109 109 109 109 109 109 109 109 109 109 109 109 109 108.5 108.5 108 108 108 108 108 108 0 108 108 108 108 108 108 108 108 108 108 108 108 108 108 108 108 108 107.5 107.5 107 107 107 107 107 107 107 107 107 107.5 108 108 108 108 108 0 107 107 107 107 106.5 106.5 106 106.5 107 0 0 107 107 107 0 106 0 106 0 0 0 106 106 106 105.5 105.5 105 105 105 105 105 105 105 105 105 105 105 105 105 105 105 105 105 104.5 104.5 104 104 0 0 104 104 104 104 104 104 104 104 104 104 104 104 103.5 103.5 103 103 103 103 103 103 0 0 102.5 103 103 103 103 103 102.5 102.5 102 102 102 102 102 102 102 102 102 102 102 102 102 0 0 100 0 0 100 100 100 100 100 100 100 100 100 100 99.5 99.5 99.5 99 99 99 99 99 99 99 99 99 99 99 98.5 98.5 98 98 0 97 97 97 97 97 0 0 0 97 96.5 96.5 96 0 96 96 96 96 96 96 96 96 96 95.5 95.5 95 95 95 0 94 94 94 94 94 94 93.5 93.5 0 93 0 93 93 0 0 0 0 93 0 0 92 92 0 91 91 91 91 91 91 91 90.5 90.5 90 90 0 90 90 90 90 90 90 90 89.5 89.5 0 88 88 88 88 88 88 88 88 0 0 86.5 87 87 0 0 0 0 0 0 85.5 85.5 85 85 85 85 85 85 85 85 84.5 84.5 84 0 0 0 83 83 83 83 82.5 82.5 82 82 82 82 82 82 82 82 0 0 0 0 80 80 80 80 80 80 79.5 79.5 79 79 79 79 0 78 0 78 77.5 77.5 77 0 77 77 77 77 77 0 75.5 75.5 75 75 75 75 75 75 75 74.5 74.5 74 74 0 73 73 73 73 72.3333 72.3333 72 72 72 72 72 72 0 70.5 70.5 70 70 70 70 70 70 70 69.5 69.5 69 0 68 68 68 68 68 0 0 67 67 0 0 0 0 65.5 65.5 0 65 65 65 65 65 0 63.5 63.5 63 0 0 63 0 63 62.5 62.5 0 0 61 61 61 61 60.5 60.5 60 60 60 0 0 0 0 0 0 58 58 58 58 58 0 0 56 56 56 0 0 56 55.5 55.5 55 0 0 54 54 54 53.5 53.5 53 53 53 0 0 0 0 51 51 51 51 0 0 49.5 49.5 49 0 0 49 49 49 49 48 0 47 47 47 47 46.5 46.5 46 46 0 45 45 0 0 44 44 44 44 0 42.5 42.5 42 42 0 42 42 0 0 40 40 0 40 40 39.5 39.5 0 0 0 38 38 0 0 37 37 0 0 36 35.5 35.5 35 35 35 0 34 33.6667 33.6667 33 33 0 33 0 31.5 31.5 31 31 31 31 31 0 0 29 29 0 0 0 0 0 0 0 27 27 26.5 26.5 26 0 25 25 0 0 0 24 24 0 23 0 0 22 22 22 0 20.5 20.5 0 20 20 20 20 0 0
69 69 69 69 69 69.5 70.5 71 71 71 71 71.5 72 72 72 72 72 72 72.5 72.5 73 73 73 74 74 74.5 75 75 75 75 74.5 74.5 75.5 76 76 76 76 76 76 76 76.5 0 0 0 0 78 78 78.5 79 79 79 79 79 79 79 79.5 80 80 0 80 80 81.5 82 82 82 82 82 82 82 82.5 83 83 83 83 83.5 83.5 83 83 83.5 84 84 84 84 85 85 85 85.5 86 0 86 86 0 86 86 86.5 87 0 0 0 87 87 87 87 87.5 0 0 87.5 88 88 89 89 89.5 90 90 90 90 90 90 90 90 90.5 91 91 91.5 91.5 91.5 91 91 91 91 91.5 92 92 92 92 92 92 92 92 93.5 94 93.5 93.5 94 94 94 94 0 0 0 95 95 95 95 95 95 0 95 95.5 96 96 96 96 96.6667 95.8333 95.8333 96 96 96 96.5 97 97 97 97 97 97 97 97 97 98.5 99 99 98.5 98.5 0 99 99.5 99.5 99 99 99 99.5 100 100 100 100 100 100 100 100 100 0 100.25 100.667 101 0 0 0 0 0 0 101.5 101 101 101.5 102 102 102 102 102 102 102 102 102 102 102 102 102 102.667 103 103 103 103 103 103 0 103 0 0 102.5 0 0 103.5 104 104 104 104 104 104 104 104 0 0 0 0 0 0 0 105 105 105 0 0 105 105 105 105 105 105 105 105 105 0 106 106 106 106 106 106 106 106 106 106 106 106 106 106 106 106 106.5 107 107 107 107 107 107 107 107 107 107 107 0 0 107 107 107 107 107.5 108 108 108 108 108 108 108 108 108 108 108 0 0 108 0 0 0 108 0 107.5 0 0 0 109 109 109 109 109 109 109 109 109 109 109 109 109 0 0 0 109 109 0 109 109 109 108.5 108.5 108 109 109 109 109 109 109 109 109 109 109 109 109 109 109 109 109 109 109 109 109 109 109 109 109 109 109 109 109 109 109 109 109 109 109.5 0 0 110 110 109.5 109.5 109 109 109 0 0 0 109 109 109 109 109 109 109 109 109 109 109 109 109 109 109 109 109 109 109 109 109 109 109 108.5 108.5 108 108 108 108 108 108 108 108 108 108 108 108 108 0 0 108 0 108 108 108 0 108 108 107.5 107.5 107 107 107 107 107 108 108 108 108 108 108 108 108 108 108 108 108 108 108 108 108 107.5 107.5 107 107 107 107 107 107 107 0 0 0 0 107 107 107 107 107 107 0 105.5 105.5 105 105 105 105 0 105 105 105 105 105 105 105 105 105 105 105 105 104.5 104.5 104 104 104 104 104 104 104 0 104 104 0 0 0 104 104 103.5 103.5 103 103 103 103 103 103 103 103 103.5 0 103 103 103 103 103 102.5 102.5 102 102 102 102 102 102 102 102 102 102 102 102 102 0 0 100 0 100 100 100 100 100 100 100 0 100 100 100 99.5 99.5 0 99 99 99 99 99 99 99 99 99 99 99 98.5 98.5 98 98 98 98 0 97 97 97 97 0 97 96.5 96.5 96 0 96 96 96 96 96 96 96 96 96 95.5 95.5 95 95 95 0 95 0 94 94 94 94 94 93.5 93.5 0 93 93 93 93 93 0 93 93 93 92.5 92.5 92 92 92 0 91 91 91 91 91 91 0 0 90 0 0 90 90 90 90 90 90 90 89.3333 89 89 0 88 88 88 88 88 88 87.5 87.5 0 0 87 87 87 87 87 87 87 85.5 85.5 85 85 85 85 85 85 85 85 85 84.5 84.5 84 0 0 0 0 83 83 83 82.5 82.5 82 82 82 82 82 82 82 82 0 0 0 80 80 0 80 0 80 80 79.5 79.5 79 79 79 79 0 0 78 78 77.5 77.5 77 77 77 77 77 77 77 76.5 76.5 0 75 75 0 75 75 75 75 74.5 74.5 74 74 74 0 73 73 73 72.5 72.5 72 0 72 72 72 72 72 0 0 0 0 70 70 70 70 70 0 0 69 0 68 68 68 68 67.5 67.5 0 67 67 67 0 0 66 65.5 65.5 65 65 65 65 65 65 64.5 64.5 0 63 0 0 63 0 63 0 0 62 62 0 61 61 61 60.5 60.5 60 60 60 0 60 0 58.5 58.5 0 58 58 58 58 0 57.5 57.5 0 56 56 56 0 56 55.5 55.5 55 0 54 54 54 54 53.5 53.5 53 53 53 0 52 51.5 51.5 51 51 51 0 51 0 49.5 49.5 49 49 0 0 49 49 49 48 0 47 47 47 0 46.5 46.5 46 46 0 45 45 0 0 44 44 44 44 0 42.5 42.5 42 0 42 42 42 0 0 40 40 0 40 0 39.5 39.5 39 39 0 38 38 37.5 37.5 37 37 0 0 36 35.5 35.5 35 35 35 0 34 33.6667 33.3333 33 0 33 33 33 0 0 31 31 31 31 31 30.5 30.5 0 29 0 0 0 0 0 0 27 27 27 26.5 26.5 26 26 0 25 0 0 0 24 24 24 0 22.5 22.5 22 22 22 22 0 0 20 20 20 20 20 0 0
69 69 69 69 69.5 70 70.5 0 71 71 71 72 72 72 72 72 72 72 72.5 72.5 73 73 73 74 74.5 75 75 75 75 75 75 75.5 75.5 76 76 76 76 76 76 76 76.5 77 0 0 0 0 0 0 79 79 79 79 79 79 79.5 80 80 80 80 80.1667 80.1667 80 82 82 82 82 82 82 82 82.5 83 83 83 0 83 83 83 83 83.5 84 84 84 84 84 85 85.5 86 86 86 86.5 86.5 86 86 86 86.5 87 87 87 87 0 0 87 87 87.5 88 88 0 89 87.6667 89 89.5 90 90 90 90 90 90 90 90 90.5 91 91 91 91.3333 91.5 91.5 91 91 91 91.5 92 92 92 92 92 92 92 92 92 92.5 94 93.5 93.5 94 0 94 94 94 94.5 0 95 0 95 95 95 95 95 0 95.5 0 0 0 0 96.6667 96.6667 95.8333 96 96 96.5 97 97 97 97 97 97 97 97 97 97 97 99 99 99.5 0 99 99 99.5 99.5 99 99 99.5 100 100 100 100 100 100 100 100 100 100 100 100.25 100.667 0 0 101 101 0 100 101.5 0 101 101 101.5 102 0 102 102 102 102 102 102 102 102 102 102 102.5 103 103 103 103 103 103 103 0 103 0 0 102.5 0 0 104 104 104 104 104 104 104 104 104 104 104 104 104 104 0 105 105 105 105 105 105 105 105 105 105 105 105 105 105 0 106 106 106 106 0 106 106 106 106 106 106 106 106 106 106 106 106.5 107 107 107 107 107 107 107 0 0 107 107 107 107 107 107 107 107 0 0 108 0 108 108 108 108 108 108 108 108 108 108 108 108 0 107 0 107.667 108 108 108.5 0 0 109 109 109 109 109 109 109 109 109 109 109 109 109 109 109 109 109 0 0 0 0 108.333 108.333 108.333 108.667 0 109 109 109 109 109 109 109 109 109 109 109 109 109 109 109 109 109 109 109 109 109 109 109 109 109 109 109 109 109 109 109.5 110 0 110 110 0 0 0 109 109 109 109 109 109 109 109 109 109 109 109 109 109 109 109 109 109 109 109 109 109 109 109 109 109 109 109 109 108.5 108.5 108 108 108 108 108 108 108 108 108 108 108 108 108 108 0 0 0 0 108 108 108 108 108.5 109 108.5 108.5 108 108 108 108 108 108 108 108 108 108 108 108 108 108 108 108 108 108 108 108 107.5 107.5 107 107 107 0 107 107 107 107 106 107 0 108 0 0 0 107 107 107 107 106.5 106.5 106 106 106 0 105 105 105 105 105 105 105 105 105 105 105 105 104.5 104.5 104 0 104 104 104 104 104 104 0 0 104 104 104 104 104 0 103.5 103.5 103 103 103 103 0 103 103 103 103 0 103 103 103 103 102.5 102.5 102 102 102 102 102 102 102 102 102 102 102 102 102 102 0 101.333 101 0 101 100.5 100 100 100 100 100 0 99 0 100 99.5 99.5 99 99 99 99 99 99 99 99 99 99 99 0 98.5 98.5 98 98 98 98 98 98 0 97 97 97 97 96.5 96.5 96 97 96 0 0 96 96 96 96 96 96 95.5 95.5 95 95 95 95 95 95 95 0 94 94 94 0 0 93 93 93 93 93 93 93 93 93 93 92.5 92.5 0 92 92 92 92 0 91 91 91 91 0 0 89.5 0 89 90 90 90 90 90 90 89.3333 89.3333 89 89 0 0 88 88 88 88 88 87.5 87.5 87.5 0 87 87 87 87 87 87 87 0 0 85 85 85 85 85 85 85 85 85 0 0 84 0 84 84 0 83 83 83 82.5 82.5 82 82 82 82 82 82 0 0 0 0 0 80 80 80 80 0 80 80 79.5 79.5 79 79 79 79 79 0 78 78 77.5 77.5 77 77 77 77 77 77 77 76.5 76.5 76 0 75 75 75 75 75 75 0 0 0 74 74 0 0 0 73 72.5 72.5 0 72 72 72 72 72 72 0 0 0 69 70 70 70 70 0 69.5 69.5 69 69 0 68 68 68 67.5 67.5 0 66.5 67 67 67 67 66 65.5 65.5 0 65 65 65 65 65 64.5 64.5 64 0 0 0 63 63 63 62.5 62.5 62 62 0 61 61 61 60.5 60.5 60 60 60 0 60 0 0 0 58 58 0 58 58 58 57.5 57.5 0 56 56 56 0 56 55.5 55.5 0 55 0 54 54 53.5 53.5 53 53 53 53 53 0 51.5 51.5 51 51 0 51 51 51 0 0 49 0 49 49 49 0 0 48 0 47 47 0 46.6667 46.3333 46.3333 46 46 46 0 0 0 0 44 44 44 44 44 0 0 0 42 42 42 42 41.5 41.5 0 0 40 40 40 39.5 39.5 39 39 0 38 0 0 0 37 37 0 0 36 35.5 35.5 35 35 35 35 0 33.3333 33.3333 33 0 33 33 33 0 0 31 31 31 31 31 30.5 30.5 0 29 0 0 0 0 28 28 0 27 27 26.5 26.5 26 26 0 25 24.5 24.5 0 24 24 0 0 22.5 22.5 22 22 22 22 0 0 20 20 20 20 19.5 19.5 0
69 69 69 69.3333 69.6667 70 0 0 71 71 71.3333 72 0 0 72 72 72 72.5 72.5 72.5 73 73 73 73 74.5 75 75 75 75 75 75 75 75 76 76 76 76 76 76 76.5 77 77 78 78 78 0 0 79 0 0 0 0 0 0 0 0 0 0 80 80.1667 0 80 82 82 82 82 82 82 82 82.5 83 83 83 0 83 83 83 83.5 84 84 84 84 84 84 84 85.5 86 86 86 0 85.5 86 86 86.5 87 87 87 87 87 87 0 0 0 87.5 0 88 88.3333 88.5 0 0 90 90 90 90 90 90 90 90 90 90.5 91 91 91 91 91.5 91.5 91 91 91 91.5 92 92 92 92 92 92 92 92 92 92.5 93 94 0 0 0 94 94 94.5 95 95 95 95 95 95 95 95 95 95.5 96 0 96 96 96 95.6667 95.6667 96 96 96.5 97 97 97 97 97 97 97 97 97 97 97 97.5 98 99 99 0 99 99 99.5 99.5 99 99 99.5 100 100 100 100 100 100 100 100 100 100 100.5 101 101 101 101 101 101 101 0 101.167 101.167 0 0 0 0 0 0 0 0 102 102 102 102 102 102 102.5 103 103 103 103 103 103 103 103 103 103 0 0 102.5 103.5 0 103.5 104 104 104 104 104 104 104 104 104 104 104 104 105 105 105 105 105 105 105 0 105 105 105 105 105 105 105 105.5 106 106 106 0 106 0 106 106 106 106 106 106 106 106 106 106 106.5 107 107 107 107 107 107 107 107 107 107 107 107 107 107 107 107 107 107 108 108 108 108 108 108 108 108 108 108 108 108 108 108 108 108 0 107 0 0 108.5 108.5 0 109 0 109 109 109 109 109 109 109 109 109 109 109 109 109 109 109 109 109 109 109 109 109 109 108.333 108.333 0 109 109 109 109 109 109 109 109 109 109 109 109 109 109 109 109 109 109 109 109 109 109 109 109 109 109 109 109 109 109.5 110 110 110 110 110 0 0 0 109 109 109 109 0 0 109 109 109 109 109 109 109 109 109 109 109 109 109 109 109 109 109 109 109 109 109 109 109 108.5 108.5 108 108 108 108 108 108 108 108 108 108 108 108 108 109 109 109 0 108.5 0 109 109 109 109 109 108.5 108.5 108 108 108 108 108 108 108 108 108 108 108 108 108 108 108 108 108 108 108 108 108 107.5 107.5 107 107 107 107 107 0 0 0 106 107 107 107 0 0 107 107 107 107 106.5 106.5 106 106 106 106 106 106 106 106 106 106 106 106 0 105 105 105 105 105.667 105.667 0 104 104 104 104 104 104 104 104 104 104 104 0 0 104 104 103.5 103.5 103 103 103 0 0 0 103 103 103 103 103 103 0 103 102.5 102.5 102 102 102 102 102 102 102 102 102 102 102 0 102 102 101.333 101.333 101 101 101 100.5 0 0 100 0 100 99.5 99.5 100 99.5 99.5 99 99 99 99 99 99 99 99 99 99 99 99 98.5 98.5 98 98 98 98 98 98 98 98 0 97 97 97 0 0 0 96 96 96 96 96 96 96 96 96 96 95.5 95.5 95 95 95 95 95 95 95 95 0 94 94 93.5 93.5 93 93 93 93 93 93 93 93 93 93 92.5 92.5 92 92 92 0 0 92 0 91 91 0 0 0 0 0 89.5 90 90 90 90 90 90 89.5 89.5 89 89 0 0 88 88 88 88 0 87.5 87.5 87.5 0 87 87 87 0 0 87 87 86.5 86.5 86 85 85 85 85 85 85 85 85 0 0 84 0 84 84 84 0 83 83 82.5 82.5 82 82 82 82 82 82 82 0 81.5 81.5 0 0 80 80 80 0 0 80 79.5 79.5 79 79 79 0 79 79 0 78 77.5 77.5 77 77 77 77 77 77 77 76.5 76.5 76 0 0 75 75 75 75 74.5 74.5 0 74 74 74 0 0 0 0 72.5 72.5 72 72 72 72 72 72 72 0 0 0 69 70 70 70 70 70 69.5 69.5 69 69 69 0 68 68 67.5 67.5 0 66.5 67 67 67 0 0 65.5 65.5 65 0 0 65 65 65 64.5 64.5 64 0 63.5 0 63 63 0 62.5 62.5 62 62 62 0 61 61 60.5 60.5 60 60 60 0 60 0 0 0 58 58 58 58 0 0 0 0 0 0 56 56 0 56 0 0 55 55 0 54 54 53.5 53.5 53 53 53 53 0 0 51.5 51.5 51 51 51 51 51 51 0 0 49 49 49 49 0 0 0 0 48 0 47 0 46.6667 46.6667 46.3333 46 46 46 0 0 0 0 44 44 44 44 44 0 0 42 42 42 42 42 0 0 0 40 40 40 0 0 0 39 39 0 38 38 37.5 37.5 37 37 0 0 36 35.5 35.5 35 35 35 35 0 33.5 33.5 0 0 33 33 33 0 0 31 31 31 31 30.6667 30.6667 30 0 29 0 0 0 0 0 0 0 27 27 26.5 26.5 26 26 26 0 24.5 24.5 24 24 0 24 0 22.5 22.5 22 22 22 22 0 0 20 20 20 20 19.5 19.5 19
69 69 69 0 0 70 70 0 71 0 72 72 72 0 72 72 72 72.5 73 0 72.5 73 73 73 75 75 75 75 75 75 75 75.5 0 76 76 76 76 76 76 76.5 77 77 77 78 78 0 79 79 79 79 0 0 79 79.5 80 80 80 80 80 80.1667 80.1667 80 0 82 82 0 0 0 82.5 83 83 83 83 83 82.5 82.5 83 83.5 84 84 84 84 84 84 84 86 86 86 86 85.5 85.5 85.5 86 86.5 87 87 87 87 87 87 87 87 87.5 88 88 88 88 88.5 0 88 88.5 90 90 90 90 0 90 90 90.5 91 91 91 0 91 91 91 91 91 91.5 92 92 92 92 92 92 92 92 92.5 92.5 93 93 93.5 93.5 0 0 93 94 94.5 95 95 95 95 95 95 95 95 95 95.5 96 96 96 96 96 95.6667 0 0 96 96.5 97 0 97 0 97 97 97 97 97 97 97.5 98 98 98 98 99 0 99 99.5 99.5 99.5 100 100 100 100 100 100 100 100 100 100 100 100.5 101 101 101 101 101 101 101 101 101 101 0 0 102 102 102 102 102 0 102 102 102 102 102 0 102.5 103 103 103 103 103 103 103 103 103 103 103 103 103.5 103.5 104 104 104 104 104 104 104 104 104 104 104 104 104 104 104.5 105 105 105 105 105 105 105 105 105 105 105 105 105 105.5 105.667 106 106 106 0 0 0 105 106 106 106 106 106 106 106 106 106 106 106.5 107 107 107 107 107 107 107 107 107 107 107 107 107 107 107 107 107 0 108 108 108 108 108 108 108 108 108 108 108 0 0 0 108 108 107.5 107.5 108 0 108.5 108.5 0 109 0 108.5 109 109 109 109 109 109 109 109 109 109 109 109 109 109 109 0 109 109.167 109.333 109.333 109 109 109 109 109 109 109 0 109 109 109 109 109 109 109 109 109 109 109 109 109 109 109 109 109 109 109 109 109 109 109 109.5 110 110 110 110 110 110 110 110 109.5 109.5 109 109 109 109 109 109 109 109 109 109 109 0 0 0 109 109 109 109 109 109 109 109 109 109 109 109 109 109 109 108.5 108.5 108 108 108 108 108 108 108 108 108 108.5 109 109 109 109 109 109 0 109 109 109 109 109 109 109 108.5 108.5 108 108 108 108 108 108 108 108 108 108 108 108 108 108 108 108 108 108 108 108 0 0 107 107 107 0 107 107 0 0 106.5 106.5 107 107 107 107 107 107 107 107 107 106.5 106.5 0 0 106 106 106 106 106 106 106 106 106 106 106 106 106 106 106 105.667 105 105 105 0 104 104 104 104 104 104 104 104 0 0 104 104 103.5 103.5 103 103 103 0 103 0 103 103 103 103 103 103 103 103 103 102.5 102.5 102 102 102 102 102 102 102 102 102 102 102 102 102 101.5 101.5 101 101 101 101 0 0 0 0 0 100 100 0 100 99.5 99.5 99 99 99 99 99 99 99 99 99 99 99 99 98.5 98.5 98 98 98 98 98 98 98 98 98 98 0 97 96.5 96.5 96 96 0 0 96 96 96 96 96 96 96 95.5 95.5 95 95 0 95 95 95 95 95 95 95 0 0 93 93 93 93 93 93 0 93 93 93 93 92.5 92.5 92 92 0 92 92 92 92 0 91 90.5 90.5 90 0 90 90 90 90 90 90 90 90 89.5 89.5 89 89 89 0 88 88 88 88 0 87 87 87.5 0 87 87 87 87 0 87 87 86.5 86.5 86 85 85 0 0 85 85 85 84.5 84.5 84 84 0 84 84 84 84 0 83 82.5 82.5 82 82 82 82 82 82 82 83 0 0 0 80 0 0 80 0 0 80 79.5 79.5 79 79 79 79 79 79 0 77.5 77.5 77 77 77 77 77 77 77 77 76.5 76.5 76 76 0 75 75 75 75 74.5 74.5 74 0 74 0 0 74 74 73 0 0 72 72 72 72 72 72 72 71.5 71.5 0 0 70 70 70 0 69.5 69.5 69 69 69 69 0 68 68 67.5 67.5 0 67 67 67 67 67 67 0 0 0 0 65 65 65 65 64.5 64.5 64 64 64 0 63 0 62.5 62.5 62 62 62 62 0 61 61 60.5 60.5 60 60 0 0 60 60 0 0 58 58 58 0 58 57.75 57.4 57.4 57 0 0 56 0 56 55.5 55.5 55 55 55 0 54 53.5 53.5 53 53 53 53 53 53 0 0 51 0 51 51 51 51 50.5 50.5 0 49 0 0 0 0 0 0 48 0 0 47 46.5 46.5 46 46 46 46 0 0 44.5 44.5 44 44 44 44 0 0 0 42 42 42 42 42 0 0 41 0 40 40 40 39.5 39.5 39 39 0 38 38 37.5 37.5 0 36.5 37 0 36 35.5 35.5 35 35 35 35 0 0 0 33 0 0 33 33 0 0 31 31 31 31 30.6667 30.3333 30 30 0 29 29 28.5 28.5 0 28 28 27 27 26.5 26.5 26 26 26 0 24.5 24.5 24 0 24 24 0 22.5 22.5 22 22 22 22 0 0 0 20 20 20 19.5 19.5 0
69 69 69 69.5 70 70 70 70 71 0 72 72 72 72 72 72 0 73 73 0 0 72.5 73 73 73.6667 75 75 75 75 75 75.5 76 76.5 76.5 76 76 76 76 76.5 77 77 77 77 78 78 0 0 78 79 79 79 79 79 79.5 80 80 80 80 80 80 0 80 81 81 0 0 82 82.5 83 83 83 83 83 83 83 0 83 84 84 84 84 84 84 84 84.5 85 86 86 86 0 85 0 86.5 87 87 87 87 87 87 87 87 87.5 88 88 88 88 88 88 0 88.5 89 89 90 90 90 90 90 90.3333 90.6667 0 0 0 91 91 91.1667 91.1667 91 91 91.5 92 92 92 92 92 92 92 92 92.5 93 93 93 93 93 0 0 93 94 95 95 95 95 95 95 95 95 95 95.5 96 96 96 96 96 96 96 0 96 96 96.5 0 0 0 0 97 97 97 97 97 97.5 97.5 98 98 98 98 98 99 99 99.5 99.5 99.5 100 100 100 100 100 100 100 100 100 100 100 100.5 101 101 101 101 101 101 101 101 101 101 101 0 100.5 102 102 102 102 102 0 0 102 102 102 0 0 103 103 103 103 103 103 103 103 103 103 103 103 103 103 104 103.5 103.5 104 104 104 104 104 104 104 104 104 104 104.5 105 105 105 105 105 105 105 105 105 105 105 105 105 105 0 106 106 106 106 0 106 106 0 106 106 0 0 106 106 106 106 106 106.5 107 107 107 107 107 107 107 107 107 107 107 107 107 107 107 107 107 107.5 108 108 108 0 0 0 0 0 0 0 0 0 108 108 108 108 108 107.5 107.5 109 0 108.5 108.5 0 109 109 0 109 109 109 109 0 109 109 109 109 109 109 109 109 109 109 109 109 109.167 109.167 109.333 109 109 109 109 109 109 109 109 109 0 109 109 109 109 109 109 109 109 109 109 109 109 109 109 109 109 109 109.5 110 110 110 110 110 110 110 110 110 110 110 109.5 109.5 109 109 109 109 0 0 109 109 109 109 0 0 0 109 109 109 109 109 109 109 109 109 109 109 109 109 109 109 109 108.5 108.5 108 108 108 108 108 108 108.5 109 109 109 109 109 109 109 109 109 109 109 109 109 109 109 109 0 0 0 0 108 108 108 108 108 108 108 108 108 108 108 108 108 108 108 108 108 108 108 108 107.5 107.5 107 107 107 0 107 107 0 0 107 0 107 0 107 107 107 107 107 107 107 106.5 106.5 106 106 106 106 106 106 106 106 106 106 106 106 106 106 106 106 105.5 105.5 105 105 105 105 105 105 105 105 105 0 104 104 104 104 104 104 103.5 103.5 0 0 0 102.833 102.833 0 103 103 103 103 103 103 103 103 102.5 102.5 102 102 102 102 102 102 102 102 102 102 102 102 102 102 101.5 101.5 101 101 101 101 0 101 101 101 0 0 101 100 100 99.5 99.5 99 99 99 99 99 99 99 99 99 99 99 99 98.5 98.5 98 98 98 98 98 98 98 98 98 98 0 97 97 0 96 96 96 0 0 96 96 96 96 96 96 95.5 95.5 95 95 0 95 95 95 95 95 95 95 0 0 93 93 93 93 93 93 93 93 93 93 92.5 92.5 92 92 92 92 92 92 0 0 92 0 90.5 90.5 0 0 90 90 90 90 90 90 90 90 89.5 89.5 89 0 89 89 0 88 88 88 0 0 0 87.5 0 87 87 87 87 87 87 87 0 0 86 0 0 85 85 85 85 85 84.5 84.5 84 84 84 84 84 84 84 84 0 82.5 82.5 82 82 82 82 82 82 0 82 0 0 0 0 0 80 80 80 80 80 79.5 79.5 79 79 0 79 79 79 79 0 0 0 0 77 77 77 77 77 77 76.5 76.5 0 76 0 75 75 75 75 74.5 74.5 74 74 74 74 74 74 74 0 0 72 72 72 72 72 72 72 71.5 71.5 71 71 0 70 70 70 0 69.5 69.5 69 69 69 69 69 0 68 67.5 67.5 67 0 67 67 0 67 67 0 0 0 65 65 65 65 65 64.5 64.5 0 63.5 64 0 63 63 62.5 62.5 62 62 62 62 62 0 60.5 60.5 60 60 60 0 0 0 0 0 0 58 58 58 0 58 57.75 57.4 57.4 0 0 0 56 56 0 0 55 55 55 55 55 0 53.5 53.5 53 53 53 53 53 53 0 0 0 51 51 51 51 50.5 50.5 50 0 49 0 48.5 0 0 0 0 0 0 47 47 46.5 46.5 46 46 46 46 46 0 44.5 44.5 44 44 44 0 44 0 0 42 42 42 42 42 41.5 41.5 41 0 40 40 40 39.5 39.5 0 39 0 0 38 37.5 37.5 0 37 37 37 0 35.5 35.5 35 35 35 0 35 0 0 33 0 33 33 33 32.5 32.5 0 31 31 31 30.3333 30.3333 30 30 0 29 0 28.5 28.5 28 0 0 0 26.5 26.5 26 26 26 0 0 24.5 24.5 0 24 24 24 23.5 23.5 0 22 22 22 0 0 0 0 20 20 20 0 0 19
69 69 69 69.5 70 70 70 70 71 72 72 72 72 72 72 72 72.5 73 0 72.6667 0 73 73 73.5 74 75 75 75 75 75 75.5 76 76.5 76.5 76 76 76 76 76.5 77 77 77 77 77 78.5 0 0 78 79 79 79 79 79.5 80 80 80 80 80 80 80 80.5 80.5 81 81 82 82 82 82.5 83 83 83 83 83 83 0 83.7143 0 83.5 84 84 84 84 84 84 84.5 85 85 86 86 86 86 0 86.5 87 87 87 87 87 87 87 87 87.5 88 88 88 88 88 88 0 88.5 89 89 90 90 90 90 90 90.3333 90.6667 91 91 0 0 0 91 91 91.4 0 92 92 92 92 92 92 92 92 92.5 93 93 93 93 0 93 0 0 0 94 95 95 95 95 95 95 95 95 95.5 96 96 96 96 96 96 96 96 96 96 0 97 97 97 97 97 97 97 97 0 0 98 98 98 98 98 98 98 98 99 100 100 100 100 100 100 100 100 100 100 100 100 100 100.5 101 101 101 101 101 101 101 101 101 101 101 101.5 102 0 0 102 102 102 102 102 102 102 0 102.5 103 103 103 103 103 103 103 103 103 103 103 103 103 103 103.5 0 0 103.5 103.5 104 104 104 104 104 104 104 104 104 104.5 105 105 105 105 105 105 105 105 105 105 105 105 105 105 105.5 106 106 106 106 0 0 106 0 0 106 106 106 0 0 106 106 106.5 106.5 107 107 107 107 107 107 107 107 107 107 107 107 107 107 107 107 107 107.5 108 108 108 108 108 108 108 108 108 108 108 108 108 0 0 108 108 0 108.5 109 109 0 109 0 110 0 109 109 0 108.5 109 0 0 109 109 109 109 109 109 109 109 109 109 109.5 109.5 109.5 109 109 109 0 0 109 109 109 109 109 109 109 109 109 0 0 0 109 109 109 109 109 109 109 109 109 109 109.5 110 110 110 110 110 110 110 110 110 110 110 110 109.5 109.5 109 109 109 109 109 109 109 109 109 109 0 109 109 109 0 109 109 109 109 109 109 109 109 109 109 109 109 109 109 109 109 109 109 0 108 108.5 109 109 109 109 109 109 109 109 109 109 109 109 109 109 109 109 109 0 0 108.667 108.333 108.333 108 108 108 108 108 108 108 108 108 108 108 108 108 108 108 108 0 108 108 108 0 107.5 107.5 107 107 0 0 107 0 0 0 107 107 0 107 107 107 107 107 0 0 0 0 0 0 0 106 106 106 106 106 106 106 106 106 106 106 106 106 106 105.5 105.5 105 105 105 105 105 105 105 105 105 105 105 105 105 105 105 0 103.8 103.8 0 0 0 0 0 103 103 103 103 103 103 103 103 103 102.5 102.5 102 102 102 102 102 102 102 102 102 102 102 102 102 102 101.5 101.5 101 101 101 101 101 101 101 0 101.167 101.167 0 0 100 99.5 99.5 99 99 99 99 99 99 99 99 99 99 99 0 98.5 98.5 98 98 98 98 98 98 98 98 98 98 97.5 97.5 97.5 0 0 96 96 96 96 96 0 0 0 96 95.5 95.5 95 95 95 95 95 95 95 95 95 95 95 94.5 94.5 94 0 93 93 93 93 93 93 93 93 92.5 92.5 92 92 92 92 92 92 92 0 92 0 0 0 90 90 90.5 0 90 90 90 90 90 89.5 89.5 89 89 89 89 89 89 0 88 88 88.5 0 0 87 0 87 87 87 0 87 87 86.5 86.5 86 86 0 0 0 85 85 85 85 84.5 84.5 0 0 84 84 84 84 84 84 0 0 82 82 82 82 82 82 82 82 82 0 0 81 81 81 0 80 0 0 0 0 0 79 79 0 79 79 79 79 78.5 78.5 0 0 77 77 77 77 77 77 76.5 76.5 76 76 76 0 75 75 75 74.5 74.5 74 74 74 74 74 74 0 0 0 72 72 72 72 72 72 72 0 0 71 71 0 70 70 70 70 69.5 69.5 69 69 69 69 69 69 0 67.5 67.5 67 67 67 67 67 67 0 0 66 0 65 0 0 65 65 64.5 64.5 0 63.5 64 0 0 63 62.5 62.5 62 62 62 62 62 62 0 0 60 60 60 60 0 60 59.5 59.5 59 0 58 58 58 58 57.75 57.75 57.4 0 0 0 0 0 55.5 55.5 55 55 55 55 55 0 53.5 53.5 53 53 53 53 53 0 0 0 51 51 51 51 51 50.5 50.5 50 50 0 0 0 49 0 0 0 0 48 0 47 46.5 46.5 46 46 46 46 0 0 0 44 44 44 44 0 44 43.5 43.5 0 42 42 42 42 41.5 41.5 41 41 0 40 40 0 0 39 39 39 0 38 0 0 0 37 37 37 0 35.5 35.5 35 35 35 35 35 0 0 33 33 33 33 32.5 32.5 32 0 31 31 31 30.5 30.5 30 0 0 29 0 28.5 28.5 28 28 28 0 26.6667 26.6667 26 26 26 26 0 0 0 24 24 24 24 23.5 23.5 0 22 22 22 0 21.5 21.5 21 0 20 0 19.5 19.5 19
69 69 69.5 70 70 70 70 70 71 0 72 72 72 72 72 72 72.5 73 73 72.6667 72.6667 73 73 0 0 74 75 75 75 75 75.5 76 76 76 76 76 76 76.6667 77 77 77 77 77 77 78.5 79 79 79 79 79 79 79 79.5 80 80 80 80 80 80 80.5 81 0 81 81 81 82 82 82.5 83 83 83 0 0 0 0 84 84.5 84.5 84 84 84 84 84 84.5 85 85 85 86 86 86 86 0 87 0 87 87 87 87 87 87 87.6667 88 88 88 88 88 88 88 0 0 89 89 89 90 90 90 90 90.5 91 91 91 91 91 91 91 0 0 92 92 92 92 92 92 92 92 0 92.5 93 93 93 93 0 93 93 93.5 0 0 95 95 95 95 95 95 95 95 95.5 96 96 96 96 96 96 96 96 96 96 96.5 96.5 97 97 97 97 97 97 0 0 0 0 0 0 0 98 98 98 98 98 98 99 100 100 100 100 100 100 100 100 100 100 100.5 101 101 101 101 101 101 101 101 101 101 101 0 102 101.5 101.5 0 101.5 102 102 102 102 102 102 102 102.5 103 103 103 103 103 0 103 103 103 103 103 103 103.333 103.5 104 104 104 103.667 103.667 104 0 0 104 104 104 104 104 104.5 105 105 105 105 105 105 105 105 105 105 105 105 105 105 105.5 106 106 106 106 106 0 0 0 0 106.167 106.167 0 106 0 0 105.5 106.5 107 107 107 107 107 107 107 107 107 107 107 107 107 107 107 107 107 107 107.5 108 108 108 108 108 108 108 108 108 108 108 108 108 108 108 0 0 108 108.667 109 109 109 109 109 109 109 109 109 0 109 109 109 109 109 109 0 109 109 109 109 109 109 109 109.5 109.5 109.5 109 109 109 109 109 109 109 109 109 109 109 109 109 109 109 109 109 0 109 109 109 0 109 109 109 109 109.5 110 110 110 110 110 110 110 110 110 110 110 110 110 109.5 109.5 109 109 109 109 109 109 109 109 109 109 109 109 109 109 109 0 0 109 109 109 0 109 0 0 109 109 109 109 109.5 110 109.5 109.5 109 109 109 109 109 109 109 109 109 109 109 109 109 109 109 109 109 109 109 109 109 109 109 109 108.667 108.667 108.333 108 108 108 108 0 108 108 108 108 108 108 108 108 108 108 108 0 108 108 108 0 0 0 0 107 0 0 107 107 0 0 107 107 0 107 107 107 107 107 107 107 106.5 106.5 106 0 106 106 106 106 106 106 106 106 106 106 106 106 106 106 106 105.5 105.5 105 105 105 105 105 105 105 105 105 105 105 105 105 105 105 103.8 103.8 103.8 0 0 0 0 0 0 0 0 103 103 103 103 103 103 102.5 102.5 102 102 102 102 102 102 102 102 102 102 102 102 102 101.5 101.5 101 101 101 101 101 101 101 0 0 101.167 0 0 0 0 0 99 99 99 99 99 99 99 99 99 99 99 99 98.5 98.5 98 98 98 98 98 98 98 98 98 98 98 98 0 0 97 0 96 96 96 96 96 0 0 96 96 95.5 95.5 95 95 95 95 95 95 95 95 95 95 95 94.5 94.5 94 94 94 0 93 0 93 93 93 93 92.5 92.5 92 92 92 92 92 92 92 92 92 0 0 0 0 0 0 0 90 90 90 90 90 89.5 89.5 89 89 89 89 89 89 89 0 88 87 87 87 87 0 87 87 87 87 87 0 86.5 86.5 86 86 86 86 0 86 0 85 85 84 84 84 84 84 84 84 84 84 84 83.5 83.5 0 81.5 81.5 82 82 82 0 82 81.5 81.5 0 81 81 81 81 0 80 80 0 0 79 79 79 79 79 79 79 79 78.5 78.5 78 0 77 77 77 77 77 77 0 0 76 76 76 76 0 75 75 74.5 74.5 74 74 74 74 74 74 74 0 0 72 72 0 72 72 72 72 0 0 71 71 71 0 70 0 70 69.5 69.5 69 69 69 69 69 69 0 67.5 67.5 67 67 67 0 67 67 66.5 66.5 66 0 65 65 0 65 65 64.5 64.5 0 63 0 0 63 63 62.5 62.5 62 62 62 62 62 62 0 0 60 60 60 60 60 60 59.5 59.5 59 0 58 58 0 58 57.5 57.5 0 0 0 0 0 0 55.5 55.5 55 55 55 55 55 55 0 0 53 53 53 53 53 53 52.5 52.5 0 51 51 51 51 50.5 50.5 50 50 0 49 49 49 0 0 48 0 48 0 47 46.5 46.5 46 46 46 46 0 0 0 44 44 44 0 44 44 43.5 43.5 0 42 42 42 42 41.6667 41.6667 41 41 0 40 40 39.5 39.5 39 39 39 39 38 0 0 0 37 37 37 37 0 0 35 35 0 35 35 34.5 34.5 0 33 33 33 32.5 32.5 32 32 0 31 31 30.5 30.5 0 30 0 0 0 0 0 0 28 28 0 26.6667 0 26 26 26 0 0 0 0 24 24 24 24 23.5 23.5 0 22 22 22 0 21.5 21.5 21 0 0 20 19.5 19.5 19
69 69.5 69.5 70 70 70 70 70 71.5 0 71.5 72 72 72 72 72.5 73 73 73 73 0 73 73.5 74 0 74 75 75 75 75.5 0 0 76 76 0 76 76 76.5 77 77 77 77 77 77 77 79 79 79 79 79 79 79.6667 80 80 80 80 80 80 80 80.5 81 81 81 0 81 82 82.5 83 83 83 83 83 83 83 83.5 84 84.5 84.5 84 84 0 0 0 84.5 85 85 85 85 86 86 86 0 87 0 87 87 87 87 87 87.5 88 88 88 88 88 88 88 88 0 89.5 89.5 89 89 89 90 90 90.5 91 91 91 91 91 91 91 91 0 92 92 92 92 92 0 0 92 92 0 93 93 93 93 93 93 93 0 94 0 94.5 95 95 95 95 95 95 95 95.5 96 96 96 96 96 96 96 96 96 96.5 97 97 97 97 97 97 97 97 97 97 97.5 98 98 98 98 98 98 98 98 98 0 98.3333 99 0 100 100 100 100 100 100 100 100 100 100.5 101 101 101 101 101 101 101 101 101 101 101 0 102 101.5 101.5 0 101.5 102 102 102 102 102 102 102 102.5 103 103 103 103 103 103 103 103 103 103 103 103 0 103.5 0 104 0 103.667 0 103.5 0 0 104 104 104 104 104 104.5 105 105 105 105 105 105 105 105 105 105 105 105 105 105.5 106 106 106 106 106 106 106 106 106 106 106.167 106.167 0 106 106 0 106 107 107 107 107 107 107 107 107 107 107 107 107 107 107 107 107 107 107 107.5 108 108 108 108 108 108 108 108 108 108 108 108 108 108 108 108 108 0 108 108.667 109 109 109 0 0 0 109 109 109 109 109 0 109 109 109 109 0 109 109 109 109 109 109.5 109.5 109.5 109 109 109 109 109 109 109 109 109 109 109 109 109 109 109 109 109 109 0 109 109 0 109 109 109 109 109.5 110 110 110 110 110 110 110 110 110 110 110 110 110 110 110 109.5 109.5 109 109 109 109 109 109 109 109 109 109 109 109 109 109 109 109 109 109 109 0 109 0 109.5 110 109 109.5 110 0 110 109.5 109.5 109 109 109 109 109 109 109 109 109 109 109 109 109 109 109 109 109 109 109 109 109 109 109 109 109 108.5 108.5 0 0 108 108 108 108 108 108 108 108 108 108 108 108 108 108 108 108 108 108 108 0 0 107 0 107 0 0 107 107 107 107 107 107 107 107 107 107 107 107 107 106.5 106.5 106 106 106 106 0 106 106 106 106 106 106 106 106 106 106 106 106 105.5 105.5 105 105 105 105 105 105 105 105 105 105 105 105 105 105 105 0 0 0 0 104.333 0 104 103.5 103.5 103 103 103 103 103 103 103 103 103 102.5 102.5 102 102 102 102 102 102 102 102 102 102 102 0 102 101.5 101.5 101 101 101 101 101 0 101 0 0 101 0 101 0 100.4 100.4 100 100 99.5 99 99 99 99 99 99 99 99 99 98.5 98.5 98 98 98 98 98 98 98 98 98 98 0 98 0 0 97 97 97 0 96 96 96 96 96 96 96 0 0 95 95 0 95 95 95 95 95 95 95 94.8 94.8 94 94 94 94 94 0 93 93 93 93 93 92.5 92.5 92 92 92 92 92 92 92 92 92 92 0 0 91 91 90 90 90 90 90 90 90 89.5 89.5 89 0 89 89 89 89 89 89 0 87 87 87 87 87 87 87 87 87 87 87 86.5 86.5 86 86 86 0 0 86 0 0 0 0 0 0 0 84 84 84 84 84 84 83.5 83.5 83 0 82 82 82 82 82 82 81.5 81.5 81 81 81 81 81 81 0 80 79.5 79.5 79 0 0 79 79 79 79 79 78.5 78.5 78 78 0 77 77 77 77 0 0 76 76 76 76 76 76 0 0 74.5 74.5 74 74 74 74 74 0 0 0 0 73 72 72 72 72 72 72 0 0 0 71 71 0 0 70 70 69.5 69.5 69 69 69 69 69 69 0 67.5 67.5 67 67 0 67 67 67 66.5 66.5 66 66 0 65 0 0 0 64.5 64.5 0 64 64 64 0 63 62.5 62.5 62 62 62 62 62 62 61.5 61.5 0 0 60 0 60 60 59.5 59.5 59 59 0 58 58 58 57.5 57.5 0 0 0 0 0 56 55.5 55.5 55 55 55 55 55 55 0 0 53 53 53 53 0 53 52.5 52.5 0 51 51 51 51 50.5 50.5 50 50 50 0 0 49 0 0 48 0 48 48 0 46.5 46.5 46 46 46 0 46 45.5 45.5 0 44 0 44 44 44 43.5 43.5 0 42 42 42 42 41.6667 41.3333 41 41 41 0 0 39.5 39.5 39 39 39 39 38 37.5 37.5 0 0 37 37 37 0 0 35 0 35 35 35 34.5 34.5 0 33 33 33 32.5 32.5 32 32 0 31 31 0 0 30 30 0 0 29 28.5 28.5 28 0 0 0 0 0 26 26 26 0 26 0 0 24 24 24 24 23.5 23.5 23 0 22 22 22 21.5 21.5 0 0 20 20 19.5 19.5 19
69 69.5 70 70 70 70 70 70 70.5 70.5 71.5 72 72 72 72.5 72.5 73 73 73 73 73 0 73 74 74 74 74 75 75 75.5 0 76 75.5 75.5 0 76.5 76.5 77 77 77 77 77 77 77 77.5 78 0 78.5 79 79 79.5 80 80 80 80 80 80 80 80.5 81 81 81 0 0 81 81 82.5 83 83 83 83 83 83 83 83.5 84.5 84.5 84.5 84 84 84 84 84.5 85 85 85 85 85 85 86 0 0 86.5 87 87 87 87 87 87 87.5 88 88 88 88 88 88 88 88.5 89 89 89 89 89 89 89 90 90.5 91 91 91 91 91 91 91 91 93 0 0 92 92 92 92 92 92 0 0 0 0 0 93 93 93 93 93 93 0 94.5 95 95 95 95 95 95 95 95.5 96 96 96 96 96 96 96 96 96 96.5 97 96.8333 96.8333 97 97 97 97 97 97 97 97.5 98 98 98 98 98 98 0 0 98 98 98.3333 99 0 99.1667 100 100 100 100 100 100 100 100.5 101 101 101 101 101 101 101 101 101 101 101 101.5 102 102 102 102 102 102 102 102 102 102 102 102 102.5 103 103 103 103 103 103 103 103 103 103 103 103 103.5 104 0 104 104 0 103 104 0 103.5 103.5 103.333 104 0 104 104.5 105 105 105 105 105 105 105 105 105 105 105 105 105 105.5 106 106 106 106 106 106 106 106 106 106 106 106 0 0 0 0 0 107 107 107 107 107 107 107 107 107 107 107 107 107 107 107 107 107 107 107.5 108 108 108 108 108 108 108 108 108 108 108 108 108 108 108 108 108 108 108.5 109 109 109 109 0 109 109 0 109 109 108.5 108.5 0 109 109 109 109 109 0 0 108.667 109 109 109.5 109.5 109.5 109 109 109 109 109 109 109 109 109 109 109 109 109 109 109 0 0 109 109 109 0 109 109 0 109.5 110 110 110 110 110 110 110 110 110 110 110 110 110 110 110 110 110 109.5 109.5 109 109 109 109 109 109 109 109 109 109 109 109 109 109 109 109 109 109 109 109 109 109 0 110 110 110 110 110 110 0 0 0 0 109 109 109 109 109 109 109 109 109 109 109 109 109 109 109 109 109 109 109 109 109 109 109 108.5 108.5 108 108 108 108 108 108 108 108 108 108 0 0 108 108 108 108 108 108 0 108 108 0 0 0 107 0 106 0 107 107 107 107 107 107 107 107 107 107 107 107 107 107 106.5 106.5 106 106 106 106 106 0 106 106 106 106 106 106 106 106 106 106 106 105.5 105.5 105 105 105 105 105 105 105 105 105 105 105 105 105 105 105 0 104.5 104.5 104.333 104.333 0 104 103.5 103.5 103 103 103 103 103 0 0 0 102.5 102.5 102 102 102 102 102 102 102 102 102 102 102 102 102 102 101.5 101.5 101 101 101 101 101 0 0 0 101 101 101 101 0 100.4 100.4 100 100 99.5 99 0 99 99 99 99 99 99 99 98.5 98.5 98 98 98 98 98 98 98 98 98 0 0 98 0 0 97 97 97 97 97 0 96 96 96 96 0 0 0 95 95 95 95 95 95 95 95 95 94.8 94.8 94.8 94 94 94 94 94 0 93 93 93 93 92.5 92.5 92 92 92 92 92 92 92 92 0 92 91.5 91.5 0 91 91 91 0 0 90 90 90 90 89.5 89.5 89 89 89 89 89 89 89 89 0 88.5 88.5 0 87 87 87 87 87 87 87 87 86.5 86.5 86 86 0 0 0 86 0 85 85 0 0 84 84 84 84 84 84 84 84 83.5 83.5 83 83 0 82 82 0 82 82 81.5 81.5 81 81 81 81 81 81 81 0 79.5 79.5 79 79 0 0 0 79 79 79 78.5 78.5 78 78 0 77 77 77 77 76.5 76.5 76 76 76 76 76 76 0 75 74.5 74.5 74 74 74 74 0 74 74 73.5 73.5 73 72 72 72 0 72 72 0 0 0 71 71 71 0 70 70 69.5 69.5 69 69 69 69 69 69 68.5 68.5 0 67 67 0 67 67 67 66.5 66.5 66 66 0 0 65 0 64.5 64.5 64 64 0 64 64 0 63 62.5 62.5 62 62 62 62 62 62 61.5 61.5 0 0 0 60 60 60 59.5 59.5 59 59 0 58 58 58 57.5 57.5 57 57 57 0 57 56 55.5 55.5 55 55 55 55 55 55 54.5 54.5 0 0 0 0 53 52.5 52.5 52 52 0 51 51 51 50.5 50.5 50 50 0 0 49 0 0 48 48 0 0 0 0 46.5 46.5 46 46 0 46 0 45.5 45.5 0 44 44 44 44 43.5 43.5 43 43 0 42 42 42 41.3333 41.3333 41 41 41 0 40 0 0 0 0 0 39 39 0 0 37 37 37 37 37 0 0 0 35 35 35 34.5 34.5 34 0 33 33 33 32.5 32.5 32 32 32 0 0 30.5 30.5 30 30 30 0 29 28.5 28.5 28 0 0 28 0 0 26 26 0 26 26 0 0 24 24 24 24 23.5 23.5 23 0 22 0 22 0 0 21 0 20 20 19.5 19.5 19
69.5 70 70 70 70 70 70 70 70.5 70.5 71.5 72 72 72 72.5 73 73 73 73 73 73 73.5 73.5 74 74 74 74 75 75.5 76 76 76 0 0 76.5 0 77 77 77 77 77 77 77 77 77.5 78 0 80 79 79 79.5 80 80 80 80 80 80 80 80.5 81 81 81 81.5 0 81 81 81.3333 83 83 83 83 83 83 83.5 84 84.5 0 84 84 84 84 84 84.5 85 85 0 85 85 85 0 86.5 0 86 87 87 87 87 87 87.5 88 88 88 88 88 88 88 88 88.5 89 0 88.5 89 89 89 89 90.5 91 91 91 91 91 91 91 91 91.5 92 0 0 92 92 92 92 92 92 92.5 93 93 93 0 0 0 0 93 93 93.5 94 0 95 95 95 95 95 95 95.6667 96 96 96 96 96 96 96 96 96 0 97 97 97 0 0 97 97 97 97 97 97.5 98 98 98 98 98 98 98 98 98 98 98 98.5 99 98.5 98.5 99.1667 100 0 100 100 100 100.5 101 101 101 101 101 101 101 101 101 101 101 101.5 102 102 102 101.5 101.5 102 102 0 102 102 102 102 102.5 103 103 103 103 103 103 103 103 103 103 103 103 103 103.5 104 104 104 0 104 0 103.667 0 104 0 104 104 0 104.5 105 105 105 105 105 105 105 105 105 105 105 105 105 105.5 106 106 106 106 106 106 106 106 106 106 106 106 106 106 106 106 0 107 0 107 0 107 107 107 107 107 0 107 107 107 107 107 107 107 107.5 108 108 108 108 108 108 108 108 108 108 108 108 108 108 108 108 108 108 108 108.5 109 0 0 0 109 109 109 109 109 109 109 108.5 108.5 0 0 0 0 0 108.5 0 0 108.5 109 109.5 109.5 109.5 109 109 109 109 109 109 109 109 109 109 109 109 109 109 109 109 109 109 109 109 109 109 109 109 109 109.5 110 110 110 0 0 110 110 110 110 110 110 110 110 110 110 110 109.5 109.5 109 109 109 109 109 109 109 109 109 109 109 109 109 109 109 109 109 109 109 109 109 109 0 0 110 110 110 110 110 0 0 0 109 109 109 109 109 109 109 109 109 109 109 109 109 109 109 109 109 109 109 109 109 109 109 109 109 108.5 108.5 108 108 108 108 108 108 0 0 108 108 108 108 108 108 0 108 0 108 0 0 108 0 0 0 0 0 0 107 0 107 107 107 107 107 107 107 107 107 107 107 107 107 106.5 106.5 106 106 106 106 106 0 0 106 106 106 106 106 106 106 106 106 106 105.5 105.5 105 105 105 105 105 105 105 105 105 105 105 105 105 105 105 0 0 104 104 104 104 104 104 104 104 104 0 104 0 103 0 0 102.5 102.5 102 102 102 102 102 102 102 102 102 102 102 102 102 102 101.5 101.5 101 101 101 101 101 101 101 0 101 101 0 101 100.5 100.5 100.4 100 100 100 0 100 100 0 99 99 99 99 0 98.5 98.5 98 98 98 98 98 98 98 0 0 98 98 97.5 97.5 97 97 97 97 97 97 97 0 96 96 96 0 0 0 95 95 0 95 95 95 95 95 95 95 95 95 94 94 94 94 0 94 0 93 93 93 92.5 92.5 92 92 92 92 92 92 92 92 0 91.5 91.5 91.5 0 91 0 0 0 0 90 90 90 90 89.5 89.5 89 89 89 89 89 89 89 89 0 88.5 88.5 0 0 87 87 87 0 87 87 87 86.5 86.5 86 86 86 86 86 86 0 85 0 0 83 84 84 84 84 84 84 84 84 83.5 83.5 83 83 83 0 82 82 0 81.5 81.5 81.5 81 81 81 81 81 81 81 81 0 0 79 0 0 0 0 79 79 0 0 0 78 78 0 77 77 77 0 76.5 76.5 76 76 76 76 76 76 76 0 0 74 74 74 74 74 74 74 0 0 0 73 73 0 72 72 72 72 71.5 71.5 0 71 0 71 71 0 70 69.5 69.5 69 69 69 69 69 69 0 0 68 0 67 67 67 67 67 66.5 66.5 66 66 66 0 65 65 0 0 63.5 0 64 64 64 64 0 62.5 62.5 62 62 62 62 62 62 0 0 61 0 60 60 60 60 59.5 59.5 59 59 59 0 58 58 57.5 57.5 57 57 0 0 57 0 0 0 55 55 55 55 55 55 54.5 54.5 0 0 0 53 53 52.5 52.5 52 52 0 51 51 51 50.5 50.5 50 50 0 49.5 49.5 48.5 48.5 48 48 0 48 48 48 0 0 46 46 46 46 46 45.5 45.5 0 0 44 44 44 43.5 43.5 43 43 0 42 42 41.5 41.5 41 41 41 0 0 40 0 0 0 39 39 39 39 0 0 37 37 0 37 0 0 36 0 35 35 35 34.5 34.5 0 34 0 33 33 32.5 32.5 32 32 0 0 31 30.5 30.5 30 30 30 0 28.5 28.5 28 28 0 0 0 0 0 0 0 26 26 26 25.5 25.5 0 24 24 24 23.5 23.5 23 23 0 0 21 21.5 21.5 21 21 0 20 19.5 19.5 19
69.5 70 70 70 70 70 70 70.5 70.5 70.5 71.5 72 72 72 72.5 73 73 73 73 73 73 73.5 73.5 74 74 74 74 74 75.5 76 76 76 76 76 76.5 76.5 77 77 77 77 0 77 77 77.5 78 78 78 79 79 79.5 80 80 80 80 80 80 80 80 80.5 81 81 81 81.5 0 81 81.5 82 83 83 83 83 83 83 83.5 84 84 84 84 84 84 84 84 84.5 85 85 85 85 0 0 85.5 87 0 86.5 0 86.8333 87 87 87 88 88 88 88 88 88 88 88 88.5 89 89 89 89 89 89 89 89 89.5 91 91 91 91 91 91 91 91 91.5 92 91.5 91.5 92 92 92 92 92 92 92.5 93 93 93 93 93 93 93 93 0 0 0 94 94 95 95 95 95 95.5 96 96 96 96 96 96 96 96 96 96 96.5 97 97 97 97.3333 0 97 97 97 97 97 97.5 98 98 98 98 98 98 98 98 98 98 98.5 99 99 99 0 98.5 0 100 0 0 100.5 100.667 101 101 101 101 101 101 101 101 101 101 101.5 102 102 102 102 102 102 102.5 0 0 102 102 102 102.5 103 103 103 103 103 103 103 103 103 103 103 103 103 103.5 104 104 104 104 104 104 0 103.667 103.667 0 104.167 104.167 104 0 105 105 105 105 105 105 105 105 105 105 105 105 105 105 105.5 106 106 106 106 106 106 106 106 106 106 106 106 106 106 106.5 106.5 0 107 107 0 107.5 107.5 107 0 0 107 107 107 107 107 107 107 107 107.5 108 108 108 108 108 108 108 108 108 108 108 108 108 108 108 108 108 108 108.5 109 109 109 109 109 109 109 109 109 109 109 0 0 0 108.833 109 109 109.5 0 109 0 0 0 109 109.5 109.5 109 109 0 109 109 109 0 109 109 109 109 109 109 109 109 109 109 109 0 109 109 109 109 109 0 0 0 110 110 0 110 110 110 0 0 0 0 110 110 110 110 110 110 109.5 109.5 109 109 109 109 109 109 109 109 109 109 109 109 109 109 109 109 109 109 109 109 109.5 110 0 109.5 110 110 110 110 110 110 110 0 0 109 109 109 109 109 109 109 109 109 109 109 109 109 109 109 109 109 109 109 109 109 109 109 109 108.5 108.5 108 108 108 108 108 108 108 108 108 108 108 108 108 108 0 0 0 0 0 0 0 107.667 107.667 107 0 0 107 107 107 107 107 107 107 107 107 107 107 107 107 107 107 107 106.5 106.5 106 106 106 106 106 106 106 106 106 106 0 106 106 106 106 106 106 105.5 105.5 105 105 105 105 105 105 105 105 105 105 105 105 105 105 0 105 0 0 104 104 104 0 104 104 104 104 104 104 0 0 0 0 0 0 0 0 102 102 102 102 102 102 102 102 102 102 102 102 101.5 101.5 101 101 101 101 0 101 0 0 101 101 101 101 101 100.5 100.5 100 100 100 0 0 0 0 0 0 0 99 99 98.5 98.5 98 98 98 98 98 98 98 98 0 0 98 98 97.5 97.5 97 97 97 97 97 97 97 97 97 0 96 95.5 95.5 95 0 0 95 95 95 95 95 95 0 95.5 0 0 94 94 94 94 0 94 94 94 0 93 92.5 92.5 92 92 92 92 92 92 92 92 0 91.5 91.5 91.5 91 91 91 0 0 0 0 90 90 89.5 89.5 89 0 89 89 89 89 89 89 89 0 88.5 88.5 88 88 0 87 87 87 87 87 87 86.5 86.5 86 86 86 86 86 0 0 85.5 85.5 85.5 0 84 84 84 84 84 84 84 84 83.5 83.5 83 83 83 0 0 82 0 81.5 81.5 81.5 81 81 81 81 81 81 81 81 0 0 79 79 79 0 0 79 79 0 0 78 78 78 78 0 77 77 0 76.5 76.5 76 76 76 76 76 0 76 75.5 75.5 0 74 74 74 0 74 74 74 73.5 73.5 73 73 0 0 0 0 72 71.5 71.5 0 71 71 71 71 0 69.5 69.5 69 69 69 69 69 69 69 0 0 68 0 0 67 67 67 67 66.5 66.5 66 66 66 0 0 65 0 0 63 64 64 64 64 64 64 0 0 62 62 62 62 62 62 0 0 60 0 60 60 60 60 59.5 59.5 59 59 59 0 58 58 57.5 57.5 0 0 57 57 57 57 55.5 55.5 55 55 55 55 55 55 54.5 54.5 0 0 0 53 53 52.5 52.5 52 52 52 0 51 51 50.5 50.5 50 50 0 0 0 48.5 48.5 48 48 48 48 0 0 0 0 46 0 0 0 46 0 0 45 0 44 44 44 43.5 43.5 43 43 43 0 0 41 41 41 41 0 41 0 39.5 39.5 39 39 39 39 39 39 0 38 0 37 37 0 36.5 36.5 36 0 35 35 35 34.5 34.5 34.5 34.5 0 33 33 32.5 32.5 32 0 32 0 31 30.5 30.5 30 30 30 30 0 0 28 28 0 0 0 0 0 0 26 26 26 0 25.5 25.5 0 24 24 24 23.5 23.5 23 23 0 0 21 0 21 21 21 0 20 19.5 19.5 19
69.5 70 70 70 70 70 70 70.5 71 0 71.5 72 72 72.5 73 73 73 73 73 73 73 74 0 74 74 74 74 74 74.5 76 76 76 76 76 77 77 77 77 77 77 0 77 77.4 78 0 78 0 79 0 79.2 80 80 80 80 80 80 80 80.5 81 81 81 81 0 81.5 81.5 81.5 82 82 83 83 83 83 83.5 84 84 84 84 0 0 84 84 84.5 85 85 85 85 85 85 85 85.5 86 0 0 86.8333 86.8333 87 87 88 88 88 88 88 88 88 88 88 88.5 89 89 89 89 89 89 89 89 89.5 90 91 91 91 91 91 91 91.5 92 92 91.5 91.5 92 92 92 92 92 92.5 93 93 93 93 93 93 93 93 93 93.5 94 0 94 94 94 95 0 0 0 0 96 96 96 96 96 96 96 96 96.5 97 97 97 97 97 0 97 97 97 97 0 98 98 98 98 98 98 98 98 98 98 98.5 99 99 99 99 99.5 0 99 99 99 100 100.5 100.667 101 101 0 0 101 101 101 101 101 101.5 101.5 102 102 102 102 0 102 102 102 102 0 102 102.5 102.5 103 103 103 103 103 103 103 103 103 103 103 103.5 104 104 104 104 104 104 104 104 104 104 104 104 0 0 104.5 105 105 105 105 105 105 105 105 105 105 105 105 105 105 105.5 106 106 106 106 106 106 106 106 106 106 106 106 106 106 106 106.5 0 0 107 107 107 107.5 107.5 107 0 107 0 107 107 107 107 107 107 107.5 108 108 108 108 108 108 108 108 108 108 108 108 108 108 108 108 108 108 108.5 109 109 109 109 109 109 109 109 109 109 109 109 109 109 108.833 109 0 109 109.5 0 109 0 109 109 109.5 109.5 109 109 109 0 108.5 109 109 0 109 109 109 109 109 109 109 109 109 109 109 109 109 109 109 109.5 110 110 110 110 110 110 110 110 110 110 110 110 110 0 110 110 110 110 110 110 109.5 109.5 109 109 109 109 109 109 109 109 109 109 109 109 109 109 109 109 109 109 109.5 110 110 110 110 110 110 110 110 0 110 110 109.5 109.5 109 109 0 109 0 0 109 109 109 109 109 109 109 109 109 109 109 109 109 109 109 109 109 109 109 108.5 108.5 108 108 108 108 108 108 108 108 108 0 108 108 0 108 108 108 108 0 0 0 107.5 107.667 0 107 107 107 107 107 107 107 107 107 107 107 107 107 107 107 107 107 107 107 106.5 106.5 106 106 106 106 106 106 106 106 106 0 0 0 106 106 0 0 106 105.5 105.5 105 105 105 105 105 105 105 105 105 105 105 105 0 105 0 104.5 0 0 104 104 104 0 104 104 104 104 0 104 104 104 104 104 103.5 103.5 0 102 102 102 102 102 102 102 102 102 102 102 102 102 101.5 101.5 101 101 101 101 0 101 101 0 101 101 101 0 101 100.5 100.5 100 100 100 0 0 100 100 100 0 100 100 0 98.5 98.5 98 98 98 98 98 98 98 98 0 0 98 98 97.5 97.5 0 97 97 97 97 97 97 97 97 97 97 0 0 95 95 0 0 0 0 95 95 0 0 95 94.5 94.5 94 94 94 94 94 94 94 94 94 0 92.5 92.5 92 92 92 92 92 92 0 0 0 92 91.5 91.5 91 91 91 91 91 0 0 0 0 89.5 89.5 89 89 89 89 89 89 89 89 0 0 0 88 88 88 88 0 0 87 87 87 86.5 86.5 86 86 86 86 86 86 0 0 85.5 85.5 85.5 0 84 84 84 84 84 84 84 83.5 83.5 83 83 83 83 83 0 82 82 82 81.5 81.5 81 81 81 81 81 81 81 81 0 0 0 79 79 79 79 0 0 0 0 78 78 78 78 78 0 77 77 76.5 76.5 76 76 76 76 76 0 76 75.5 75.5 75 0 74 74 74 74 74 73.5 73.5 73 73 73 73 0 72 0 71.1667 71.1667 71 0 0 71 71 71 71 0 0 69 69 69 69 69 69 69 68.5 68.5 0 0 67 67 67 67 67 66.5 66.5 66 66 66 66 0 65 0 0 0 0 0 64 64 64 63.5 63.5 0 62 62 62 62 62 62 0 0 0 0 60 60 60 60 59.5 59.5 59 59 59 59 0 58 57.5 57.5 0 56.5 57 57 57 57 55.5 55.5 0 55 55 55 55 54.5 54.5 54 54 0 53 53 53 52.5 52.5 52 52 52 0 51 51 50.5 50.5 50 0 0 50 0 48.5 48.5 48 48 48 0 48 48 47.5 47.5 0 46 46 0 0 45.5 45.5 45 0 44 44 44 43.5 43.5 43 43 43 0 0 0 0 41 0 41 41 41 0 0 39 39 39 39 39 0 0 38 0 37 0 37 36.5 36.5 36 0 35 35 35 34.5 34.5 0 33.5 34 0 33 32.5 32.5 0 32 32 0 31 30.5 30.5 30 30 30 30 0 0 28 28 28 28 0 0 0 0 0 0 26 0 0 25 0 24 24 24 23.5 23.5 23 23 0 0 0 0 21 21 21 0 0 19.5 19.5 19
0 0 70 70 70 0 0 70.5 70.5 70.5 0 71 72 72.5 73 73 73 73 73 73 73.5 74 74 74 74 74 74 74 74.5 76 76 76 76 76 76.5 76.5 77 77 77 77 77 77 77.4 78 78 78 78 78 0 79.2 80 0 80 80 80 80 80.25 80.5 81 81 81 81 0 81 81 81.5 82 82 83 83 83 83 83.5 84 84 84 83.5 83.5 84 84 84 84.5 85 85 85 85 85 85 85 85.5 86 0 0 0 0 87 87.5 88 88 88 88 88 88 0 0 0 0 89 89 89.5 0 0 89 89 89.5 90 90 90 91 91 91 91 91 91.5 92 92 91.5 91.5 0 92 92 92 92 92.5 93 93 93 93 93 93 93 93 93.5 93.5 94 0 93.5 93.5 0 0 95 0 0 0 96 0 96 96 96 96 96 96.5 97 97 97 97 97 96.5 96.5 97 97 97 97.5 98 98 98 98 98 98 98 98 98 98 98 98.5 99 99 99 99 99 0 99 99 99 99 100.5 101 101 101 0 101 0 101 101 101 101.5 102 0 0 102 102 102 102 102 102 101.5 101.5 0 102.5 103 103 103 103 103 103 103 103 103 103 103 103 103 103.5 104 104 104 104 104 104 104 104 104 104 0 104 0 0 104.333 0 105 105 105 105 105 105 0 105 105 105 105 105 105.5 106 106 106 106 106 106 106 106 106 106 106 106 106 106 106 106.5 107 107 107 107 107 107 107 107 107 107 107 107 0 0 0 107 107 107.5 108 108 108 108 108 108 108 108 108 108 108 108 108 108 108 108 108 108.5 108.5 109 109 109 109 109 109 109 109 109 109 109 109 109 109 109 0 0 109 109 109 0 0 0 0 0 0 0 0 0 0 0 109 109 109 109 109 109 109 0 109 109 109 109 109 109 109 109 109 109.5 110 110.5 110.5 110 110 110 110 110 110 110 110 110 110 110 110 110 110 110 110 110 110 109.5 109.5 109 109 109 109 109 109 109 109 109 109 109 109 109 109 109 109 109.5 110 110 110 110 110 110 110 110 110 110 0 110 110 109.5 109.5 109 109 109 109 0 0 0 0 0 109 109 109 109 109 109 109 109 109 109 109 109 109 109 109 109 108.5 108.5 108 108 108 108 108 108 108 108 108 108 108 108 0 0 108 0 108 0 108 0 0 0 0 0 107 107 107 107 107 107 107 107 107 107 107 107 107 107 107 107 107 107 106.5 106.5 106 106 106 106 106 106 106 106 106 106 106 106 106 106 106 0 106 106 105.5 105.5 105 105 0 105 105 105 105 105 105 105 105 105 0 105 0 104.5 104.25 0 104 104 104 0 104 104 104 104 104 104 104 104 104 104 0 0 0 103 103 0 102 102 102 102 102 102 102 102 102 102 101.5 101.5 101 101 101 101 101 0 101 101 101 101 101 101 101 100.5 100.5 100 100 100 100 100 100 100 0 100 0 100 100 98.5 98.5 98 98 98 98 98 98 0 98 98 98 98 98 0 0 0 97 97 97 97 97 97 97 97 97 97 96.5 96.5 0 95 95 0 95 95 0 95 0 0 94.5 94.5 94 94 94 94 94 94 94 94 94 94 93.6667 0 0 92 92 92 92 92 92 0 92 0 0 91.5 91.5 91 91 91 91 91 91 0 91 0 89.5 89.5 0 89 89 89 89 89 89 89 89 88.5 88.5 88 88 88 88 0 87 87 87 87 86.5 86.5 86 86 86 86 86 86 86 0 85.5 0 0 0 84 84 84 84 84 84 84 83.5 83.5 83 83 83 0 83 83 0 82 0 0 81 81 81 81 81 81 81 81 80.5 80.5 80 0 79 79 0 79 0 0 78.5 78.5 78 78 78 78 78 0 0 77 76.5 76.5 76 76 76 76 76 0 76 75.5 75.5 75 0 74 0 74 74 74 73.5 73.5 73 73 73 73 73 0 0 70.5 70.5 0 71 71 71 71 71 71 70.5 70.5 0 69 69 69 69 69 69 68.5 68.5 68 68 0 67 67 67 67 66.5 66.5 66 66 66 66 66 0 0 0 0 0 64 64 64 64 63.5 63.5 63 0 62 62 62 62 62 0 0 0 61 0 60 60 60 59.5 59.5 59 59 59 59 59 0 57.5 57.5 0 57 57 57 0 56.6667 56.3333 56.3333 55 55 55 55 55 54.5 54.5 54 0 0 53 53 53 52.5 52.5 52 52 52 0 51 51 50.3333 50.3333 50 0 0 50 50 0 0 48 48 48 48 0 0 0 0 0 46 0 0 46 45.5 45.5 45 45 0 44 44 43.5 43.5 43 43 43 43 0 0 0 0 41 41 41 41 0 0 39 39 39 39 39 0 0 38 0 37 0 37 36.5 36.5 36 36 0 35 35 34.5 34.5 0 33.5 34 0 33 0 0 32 32 32 32 0 30.5 30.5 0 30 30 30 29.5 29.5 0 28 0 28 28 27.5 27.5 0 0 0 26 25.5 25.5 25 25 0 24 24 23.5 23.5 23 0 0 0 0 0 21 21 21 21 0 19.5 19.5 19
70 70 70 0 0 70.5 71 71 71 0 71.5 71.5 72.5 73 73 73 73 73 73 73 73.5 74 74 74 74 74 74 74.5 75 75 76 76 76 76 0 76 77 77 77 77 77 77 78 78 78 78 78 78 79.5 79.5 80 80 80 80 80 80 80.25 80.5 81 81 81 81 81 81.6667 81.6667 82 82 82 82 83 83 83 83.5 84 84 84 83.5 83.5 84 84 84.6667 85 85 85 85 85 85 85 85.5 86 86 86 0 87.5 86.3333 0 87.5 88 88 88 88 0 88 88 88.3333 89 89 89 89 89 0 0 0 0 89.5 90 90 90 91 91 91 91 91.5 92 92 92 92 0 92.5 92.5 92 92 92.5 93 93 93 93 93 93 93 93 93 93.5 94 94 0 94 93.5 0 93 94 96 96 96 96 96 96 96 96 96 96 97 97 97 97 97 97 97 97 0 97 97 97.5 98 98 98 98 98 98 98 98 98 98 98.5 99 99 99 99 99 99 0 99 99 99 99.5 100 100 101 101 101 101 101 101 101 0 101.5 102 0 0 102 102 102 102 102 102 102 0 101.5 101.5 103 103 103 103 103 103 103 103 103 103 103 103 103.5 104 104 104 104 104 104 104 104 104 104 104.5 0 104 104.333 0 0 0 105 0 105 0 105 0 0 105 105 105.333 105.5 106 106 106 106 106 106 106 106 106 106 106 106 106 106 106 106 106.5 107 107 107 107 107 0 107 107 107 107 107 107 107 107 107 107 107 107 107.5 108 0 108 108 108 108 108 108 108 108 108 108 108 108 108 108 108.5 109 109 109 109 109 109 109 109 109 109 109 109 109 109 109 109 109 109.5 109 109 109 109 0 0 0 0 0 0 0 0 0 109 0 109 109 109 109 109 109 109 0 109 109 109 109 109 109 109 109 109.5 110 110 0 110 110 110 110 110 110 110 110 110 110 110 110 110 110 110 110 110 110 109.5 109.5 109 0 109 109 109 109 109 109 109 109 109 109 109 109 109 109.5 110 110 110 110 110 110 110 110 110 110 110 110 110 110 110 109.5 109.5 109 109 109 109 109 0 0 0 0 0 109 109 0 0 0 109 109 109 109 109 109 109 109 109 109 108.5 108.5 108 108 108 108 108 108 108 108 0 108 108 108 0 0 108 0 108 108 0 107.667 107.667 107.2 107.2 107.2 107 107 107 107 107 107 107 107 107 107 107 107 107 107 107 107 107 107 106.5 106.5 106 106 106 106 106 106 106 106 106 106 106 106 106 0 0 106 106 105.5 105.5 0 105 105 0 105 105 105 105 105 105 105 105 0 0 104.5 104.25 104.25 104.25 104 104 104 104 104 104 104 104 104 104 104 104 104 104 104 103.5 103.5 0 103 103 103 103 103 0 102 102 102 102 102 0 101.5 101.5 101 101 101 101.5 101.5 101 0 101 101 101 101 101 101 100.5 100.5 100 100 100 100 100 100 100 100 0 100 100 0 0 99.5 99.5 0 98 98 98 98 98 0 0 98 98 98 97.5 97.5 97 97 97 97 97 97 97 97 97 97 97 96.5 96.5 96 96 0 95 95 95 95 0 0 95 0 0 0 0 94 94 94 0 94 94 94 94 94 93.6667 93.6667 0 93 0 92 92 92 92 0 92 92 91.5 91.5 91 91 91 91 91 91 91 91 0 91 0 0 89 89 89 89 89 89 89 89 89 88.5 88.5 88 88 88 88 88 0 87 87 87 86.5 86.5 86 86 86 86 86 86 86 86 86 0 0 0 84 84 0 84 84 84 84 83.5 83.5 83 83 83 83 83 83 83 0 0 0 81 81 81 81 81 81 81 81 0 0 80 80 0 79 79 79 0 0 0 0 0 0 0 78 78 78 0 77 76.5 76.5 76 76 76 0 76 0 76 75.5 75.5 75 75 0 74 74 74 74 73.5 73.5 73 73 73 73 0 0 0 0 0 71 0 71 71 71 71 71 70.5 70.5 0 69 69 69 69 69 69 0 0 68 68 68 0 67 67 66.5 66.5 66 66 66 66 66 66 0 0 0 0 64 64 64 64 64 63.5 63.5 63 0 62 62 62 62 0 0 61 61 61 61 0 60 60 59.5 59.5 59 59 59 59 59 0 0 0 56.5 56.5 57 57 57 56.6667 56.6667 56.3333 55 0 55 55 55 54.5 54.5 0 0 0 53 53 53 52.5 52.5 52 52 52 52 0 50.5 50.5 50.3333 50 0 0 50 50 0 0 48 48 48 48 48 47.5 47.5 0 47 0 0 46 46 45.5 45.5 45 45 0 44 44 43.5 43.5 43 43 43 43 0 0 0 41 41 41 41 41 0 0 39 39 39 39 39 0 0 0 0 0 37 37 36.5 36.5 36 36 0 35 35 34.5 34.5 0 0 34 34 0 32.5 32.5 32 32 32 32 0 0 30 0 30 30 30 29.5 29.5 0 28 0 0 0 0 0 0 0 0 26 25.5 25.5 25 25 0 24 24 23.5 23.5 0 23 0 0 21.5 21.5 21 21 21 21 0 19.5 19.5 19
70 70 70 70 70 70.5 71 71 71 71 71.5 71.5 71 0 73 73 73 73 73 73.5 73.5 74 0 0 74 74 74 74.5 75 75 76 76 76 76 76.5 76.5 0 77 77 77 77 77.5 78 78 78 78 78 78 78 79 80 80 80 80 80 80.5 81 81 81 81 81 81 81 81.6667 0 0 82 0 0 82 83 83.5 84 84 84 84 84 84 0 84.5 85 85 85 85 85 85 85 85 85.5 86 86 86 86 87.6667 0 0 88 88 88 88 88 88 88 88 88.3333 89 89 89 89 0 0 0 0 89.5 90 90 90 90 90 91 91 91 91.5 92 92 92 92 92 92 92 92 92 92.5 93 93 93 93 93 93 93 93 93.5 94 94 94 94 94 94 93.5 93.5 94 94.5 96 96 96 96 96 96 96 96 96.5 97 97 97 97 0 97 96.5 96.5 0 97 97.5 98 98 98 98 98 98 98 98 98 98 98.5 98.5 99 99 99 99 99 99 0 99 99 99 99.5 100 100 100 101 101 101 101 101 101 101.5 102 102 102 102 102 0 102 102 0 0 0 102 102 102 103 103 103 103 103 103 103 103 103 103 103 103.5 104 104 104 104 104 104 104 104 104 104 104 104 0 104.5 105 104.5 104.5 105 0 0 0 105 105 0 105 0 105 105.333 0 106 106 106 106 106 106 106 106 106 106 106 106 106 106 106 106.5 107 107 107 107 107 107 107 107 107 107 107 107 0 107 107 107 107 107.5 108 108 108 108 0 108 108 108 108 108 108 108 108 108 108 108 108 108.5 109 109 109 109 109 109 109 109 109 109 109 109 109 109 109 109 109 109 109 109 109 109 109.5 110 109.5 109.5 0 109 109 109 0 0 0 0 0 109 0 108.5 109 109 109 0 109.5 109.5 109 109 109 109 109 109 110 110 110 110 110 110 110 110 110 110 110 110 110 110 110 110 0 110 110 110 109.667 109.333 109.333 109 109 109 109 109 0 109 109 109 109 109 109.5 0 109 109.5 110 110 110 110 110 110 110 110 110 110 110 110 110 110 110 110 110 109 109 109 109 109 109 109 109 109 109 0 0 0 0 109 109 109 109 0 0 109 109 109 109 109 109 108.5 108.5 108 108 108 108 108 108 108 108 108 0 107.5 108 108 108 0 107.5 0 108 108 0 107.667 0 107.2 107.2 0 0 0 107 107 107 107 107 107 107 107 107 107 107 107 107 107 107 107 106.5 106.5 106 106 106 106 106 106 106 106 106 106 106 106 106 106 106 106 106 0 0 105 105 105 105 105 105 105 105 105 105 105 105 0 0 104.5 105.5 0 0 104 104 104 104 104 104 104 104 104 104 104 104 104 104 103.5 103.5 103 103 103 103 103 103 103 103 103 103 0 102 102 102 101.5 101.5 101 101 101 101 101 0 0 101 101 101 101 101 101 100.5 100.5 100 100 100 100 100 100 0 100 100 100 100 0 0 0 99 99 0 0 98 0 98 0 0 98 98 98 97.5 97.5 97 97 97 97 97 97 97 97 97 97 97 96.5 96.5 96 0 96 0 95 95 95 0 0 95 0 94.5 94.5 94 94 94 94 94 94 94 94 94 94 93.5 93.5 93 93 0 0 92 92 92 0 0 92 91.5 91.5 91 91 91 91 91 91 91 91 0 0 90.3333 90.3333 0 89 89 89 89 89 89 0 89 88.5 88.5 88 88 88 0 88 88 0 87 87 86.5 86.5 86 86 86 86 86 86 86 86 86 85.5 85.5 85 84 84 0 84 84 84 84 83.5 83.5 83 83 83 83 83 0 83 83 0 0 81 81 81 81 81 81 81 81 80.5 80.5 80 80 80 0 79 79 0 0 0 0 0 0 78 78 0 78 0 76.5 76.5 76 76 76 76 76 76 0 0 75.5 75.5 75 75 0 74 74 74 74 73.5 73.5 73 73 73 73 73 73 0 0 0 0 0 71 71 71 71 71 70.5 70.5 70 0 69 69 69 69 0 68.5 68.5 68 68 68 0 67 67 66.5 66.5 66 66 66 66 66 66 0 65 65 0 64 0 64 64 64 63.5 63.5 63 0 0 62 62 0 61.5 61.5 61 61 61 61 0 60 59.5 59.5 59 59 59 59 59 0 0 0 57 57 57 57 57 0 56.5 56.5 56 0 55 55 55 55 54.5 54.5 54 0 0 0 53 53 52.5 52.5 52 52 52 52 0 50.5 50.5 50 50 50 0 50 50 0 49.3333 0 48 48 48 48 47.5 47.5 47 0 0 0 0 46 45.5 45.5 45 45 45 0 44 43.5 43.5 43 43 43 43 0 0 0 41 41 41 41 41 40.5 40.5 0 39 39 39 39 0 0 38 0 0 0 0 36.5 36.5 36 36 0 35 35 34.5 34.5 0 0 34 0 0 32.5 32.5 32 32 32 32 31.5 31.5 0 30 30 30 30 29.5 29.5 29 0 28 28 0 0 0 27 0 0 26 25.5 25.5 25 25 25 0 24 0 0 23 23 23 0 21.5 21.5 21 21 21 21 0 0 19 19
70 70 70 70 70 70.5 71 71 71 71 71 71 71.5 0 0 73 73 73 73.3333 73.6667 74 74 74 0 74 74 74.5 75 75 75 75 76 76 76.5 77 77 0 77 77 77 77.5 78 78 78 78 78 78 78 78.5 79.5 80 80 80 80 80 80.5 81 81 81 81 81 81 81 81.5 81.5 0 82 82 0 0 83 83.5 84 84 84 84 84 83.5 83.5 84 85 85 85 85 85 85 85 85 85.5 86 86 86 86 87 0 0 88 88 88 88 88 88 88 88 88.5 89 89 89 89 89 0 0 89 89.5 0 90 90 90 90 90 91 91.5 92 92 92 92 92 92 92 92 92.5 93 93 93 93 93 93 93 93 93 93.5 94 94 94 94 94 94 0 94 0 93 95 95 96 96 96 96 0 95.3333 96 96.5 97 97 97 97 97 0 0 96.3333 0 0 0 0 0 98 98 98 98 98 98 98 98.5 99 99 99 99 99 99 99 99 99 99 100 0 100 100 100 100 100 100 101 101 101 101.5 102 102 102 102 102 102 102 102 102 102 102 102.333 102 0 0 103.5 103 103 103 103 103 103 103 103 103 103.5 104 104 104 104 104 104 104 104 104 104 104 104 104 0 105 105 104.5 104.5 0 106 0 105 105 105 0 0 105 105.333 105.667 0 106 106 106 0 0 106 106 106 106 106 106 106 106 106.5 107 107 107 107 107 107 107 107 107 0 107 107 0 107 0 107 0 107 107.5 108 108 108 108 108 108 108 108 108 108 108 108 108 108 108 108 108 108.5 109 109 109 109 109 109 109 109 109 109 109 109 109 109 109 109 109 109 109 109 109 109.5 110 110 109.5 109.5 109 0 109 109 109 0 108.5 108.5 0 0 0 108.5 108.5 109 109 109 0 109 109 109 109 109 109 109.5 110 110 110 110 0 110 110 110 110 110 110 110 110 110 110 110 110 110 110 110 110 109.667 109.667 109.333 109 109 109 109 109 0 0 0 0 0 110 110 110 110 110 110 110 110 110 110 110 110 110 110 110 110 110 110 110 110 109.5 109.5 109 109 109 109 109 109 109 109 109 109 109 109 109 109 109 109 109 0 109 109 109 109 109 109 109 109 108.5 108.5 108 0 108 108 108 108 108 108 108 0 107.5 108 108 108 108 108 0 108 108 0 108 107.5 107.5 107 0 107 107 107 107 107 107 0 0 107 107 107 107 107 107 107 107 107 106.5 106.5 106 106 106 106 106 106 106 106 106 106 106 106 106 106 106 106 106 105.5 105.5 105 105 0 105 105 105 105 105 105 105 105 105 105 105 105 0 104.5 104.5 0 104 104 104 104 104 104 104 104 104 104 104 104 104 0 103.5 103.5 103 103 0 103 103 103 103 0 103 103 103 103 0 102 101.5 101.5 101 101 0 101 0 0 0 101 101 101 101 101 101 100.5 100.5 100 100 100 100 100 100 100 100 100 100 100 0 0 0 0 99 0 0 0 0 97.5 0 0 98 98 98 97.5 97.5 97 97 97 97 97 97 97 97 97 97 97 96.5 96.5 96 96 96 96 0 95 95 0 0 95 95 0 0 94 94 94 94 94 94 94 94 94 94 93.5 93.5 93 93 93 0 92 92 92 92 92 92 91.5 91.5 91 91 91 91 91 91 91 91 91 0 0 90.3333 90 89 89 89 0 89 0 0 89 88.5 88.5 88 88 88 88 88 88 88 0 87 86.5 86.5 86 86 86 86 86 86 86 86 86 86 85 0 85 85 0 84 84 84 84 83.6667 83.6667 83 83 0 83 83 0 0 83 0 0 81 81 81 81 81 81 81 0 80.5 80.5 80 80 80 80 0 79 79 79 78.5 78.5 0 78 78 78 78 78 78 0 0 76 76 76 76 76 76 76 0 75.5 75.5 75 0 0 74 74 74 74 73.5 73.5 73 73 73 73 73 73 73 0 0 71 71 71 71 71 71 71 70.5 70.5 70 70 0 69 69 0 0 68.5 68.5 68 68 68 68 0 67 66.5 66.5 66 66 66 66 66 0 66 0 0 0 64 0 0 64 64 63.5 63.5 63 63 0 62 62 0 61.5 61.5 61 61 61 61 61 0 59.5 59.5 59 59 59 59 59 59 58.5 58.5 0 57 57 57 57 57 56.5 56.5 56 0 0 0 55 55 0 0 54 0 54 0 53 53 52.5 52.5 52 52 52 52 52 0 0 50 0 50 0 50 50 49.3333 49.3333 0 48 48 48 0 47.5 47.5 0 47 0 0 46 45.5 45.5 45 45 45 45 0 44 43.5 43.5 43 43 43 0 42 42 42 41 41 41 41 41 40.5 40.5 0 39 39 39 39 0 0 0 0 0 37 37 36.5 36.5 36 36 36 0 35 34.5 34.5 34 34 34 0 0 32.5 32.5 32 32 32 32 0 0 0 30 30 30 30 29.5 29.5 0 0 28 28 28 27.5 27.5 0 0 0 26 25.5 25.5 25 25 25 0 0 23.5 23.5 23 23 23 0 21.5 21.5 21 21 21 21 20.5 20.5 0 19
