0 0 0 0 51.5 0 51 51 51 51 51 51.6667 0 0 0 0 52.5 0 0 51 51 51.5 52 52.6667 53 53 0 0 0 0 0 52.5 53 53.5 54 0 53 53 53 53 0 0 0 0 0 55 54.5 0 0 0 0 0 0 0 0 0 0 0 0 0 0 0 0 0 0 0 0 0 0 40.7713 0 0 0 0 0 0 0 0 0 0 76.6 0 0 0 81.1905 0 0 0 0 0 0 0 0 0 0 0 0 0 0 0 0 0 0 0 0 0 0 0 0 0 0 0 0 0 0 0 0 0 84.6598 0 0 0 0 0 0 0 0 0 0 0 0 0 0 0 0 0 0 0 0 0 0 0 0 0 0 0 0 69 17 0 0 0 0 0 0 0 0 8 9.5 0 0 0 0 0 7.33333 7.33333 7.33333 7.33333 7.33333 0 0 0 0 0 9 9 9 9 9 9.825 0 0 9.825 0 0 0 0 0 0 0 6.66667 7.5 8.16667 8.16667 10 9.16667 0 12.3333 12.3333 8.375 8.375 8.375 9.75 13.5 8 8.5 8.5 8.5 0 0 7.83333 7.83333 0 0 12.5 12.5 0 10.5833 0 10.1667 9.5 9.5 10 0 13.8333 13.8333 13.6667 13.6667 0 0 0 0 0 0 0 15.5 15.5 0 0 0 0 15.1667 0 0 18 16.6667 16.6667 18 19 19 0 22.3333 0 25 23.3333 0 0 23 23.3333 0 0 0 0 27.5 0 0 0 34 33 0 0 0 0 36.9 36.9 0 36.5 0 0 0 39 38 0 37.5 35.1667 35.1667 27.5 0 0 46.1818 36 34.6667 39.3 39.3 35.1667 0 0 0 33.6667 33.6667 32 33 32 0 0 33.6667 33.6667 31.5 0 32.5 32 0 0 29.25 29.5 0 0 29.5 29.25 29.25 0 0 0 0 29.5 29.6667 32 0 32.5 31.5 32 32 32 32 0 32 32 32 32.5 32.5 32 32 32.5 32.5 32 32 32.5 0 33 33 0 0 0 32 0 0 34 0 34.5 35.5 35.5 36 0 0 0 0 0 0 40 40 40 35.3333 0 77 0 59 60 59.6667 59.6667 0 61.5 0 61.6667 0 0 62 0 0 0 62 62 61.3333 0 61.3333 60.5 60.5 0 70 60 0 0 0 0 70.5 70.5 0 58 77 58 70.6667 63.2143 60 63.2143 63.2143 56.4762 56.4762 56.4762 56.4762 59.9187 58.625 64.9138 47.2857 47.2857 59.9187 50 0 53.25 47.6 61.0794 0 46.5 0 0 72.1667 0 0 45.375 57.5 0 49.5 55.5714 62.8 45 0 70.1667 0 67.4 0 49.5 55.5714 43 44 43.6667 43.6667 43.5 43.5 44 0 0 42.6667 42.6667 56.5 42.5 42.5 0 42 43.3333 0 43.5 43.5 43 0 0 0 0 0 0 0 43 45 0 46 46 45.5 45 46 46.5 0 47 0 0 0 0 0 0 61 64 0 0 0 62 0 0 61 0 0 0 0 59.5 59.5 60 60 57.3333 60.25 57.3333 57.3333 57.6667 57.6667 59 60 60 58 0 0 0 0 0 57 0 57 57 0 58.3333 0 56.6667 58 58 0 59 59 59 59.5 0 58.5 58.5 57.5 57.5 58.1667 56.5 57.5 0 0 0 0 57.5 0 58.6667 0 0 0 0 58.5 58.5 55 55 55 0 61.3333 0 0 0 0 41 0 59 57.5 57.5 54.5 0 46.3 0 0 0 0 0 0 0 0 0 0 0 0 0 0 0 0 0 0 0 0 0 0 0 0 0 0 0 0 0 0 0 0 0 0 0 0 0 0 0 0 0 0 0 0 0 0 0 0 0 0 0 0 0 0 0 0 0 0 0 0
0 0 0 0 50 52 0 51 51 51 0 0 52 0 51.3333 52 52.5 52.5 52.5 0 51 51.5 52 52.5 0 0 0 0 53 0 52 52.5 53 53.5 54 0 0 0 0 0 53.5 53.5 53.5 0 55 78.3333 52 0 0 0 0 0 0 0 0 0 0 0 0 0 0 0 0 0 0 0 0 0 0 0 0 0 0 0 0 0 0 0 0 0 0 0 0 0 0 0 0 14.2255 36.1333 0 0 0 7.6027 0 0 0 0 0 0 0 0 0 0 0 0 0 0 0 0 0 0 0 0 0 0 0 0 0 0 0 0 0 81.1905 0 0 0 0 0 0 0 0 0 0 0 0 0 0 0 0 0 0 0 0 0 0 0 0 0 0 0 0 0 15.8333 0 0 0 0 0 0 0 0 0 0 0 0 0 0 0 0 8.5 7 7 6.83333 6.83333 7.5 0 0 9.5 0 0 0 0 9.825 0 8 0 0 0 0 7 7 0 8 8 8 0 8 9 6.42857 6.42857 6.42857 9.16667 9.16667 8.375 7.5 0 7.5 11 8 8 8.16667 8.16667 9 9 9 0 10.1667 10.1667 0 0 0 27.3333 0 0 10.5 10.5 0 0 13.1667 13.1667 10.5 10.5 0 0 17 0 0 16 0 15.5 14.8 14.8 14.8 16 16 16.6667 0 0 0 20 0 0 23 23.5 22.3333 0 0 26.6667 23.3333 29 29 0 0 0 30 34 0 35 35 36.5 36.5 36 36 36 37 0 0 38.5 39 38 0 0 0 39.4 39.4 39.4 23.5 0 46.1818 46.1818 35.1667 35.1667 46.1818 35.1667 35.1667 35.1667 20.5 0 0 0 33.3333 0 0 32.5 32 0 0 0 33.6667 0 0 0 31.5 31.5 29.4286 29.4286 32 29.25 29.4286 29.4286 29.4286 30.3333 30 0 0 31.8 32 0 32 32 31.5 31.5 31 0 31 0 31.5 32 32.5 32.5 31.5 31.5 32.3333 0 0 0 0 33 33 0 33 0 34 33 33.5 33.5 33.5 34 0 35.5 35 0 36 36 36 0 36 40.3333 34.25 0 0 0 34.25 0 68.25 0 0 0 61.6667 0 0 0 63 61.6667 59.3333 59 0 0 62 0 61 61.3333 61.3333 61.3333 0 60 0 60 0 0 59.5 59.5 59 70.5 56.5 44.5 56.5 0 58 58 63.2143 63.2143 56.4762 56.4762 56.4762 56.4762 56.4762 56.4762 59.9187 60 60 60 60 60 47.2857 66.2 61.0794 56 59.9 0 72.6842 72.6842 0 0 54 0 44 43.5 43.5 41 43.5 0 46.5 69.8333 69.8333 28 0 0 49.5 43.5 85 0 44 44 0 43.6667 43 43 43 42 42.5 42.5 43 43 42.5 43.3333 42.8333 42.8333 43.6667 0 0 0 0 41 0 0 0 42 94 44 45 0 45.5 0 0 46 47 0 48 47.5 47.5 0 49.5 0 63 0 0 0 63.5 63.5 0 0 0 0 0 0 60 60 60 60 0 0 60.5 0 0 0 58 58 0 0 62.1 60 60 0 0 61.3333 61.3333 59 60.3333 0 0 0 0 0 58.3333 58.3333 59.5 59.5 59 0 0 0 0 59 58.1667 58.1667 59 0 0 59.5 0 0 59.5 58.1667 0 0 0 0 63.5 55 0 58.5 58.5 55 54 60.5 61.3333 61.3333 0 0 61 0 61 0 0 46 0 56 53.3333 0 58 55.5 0 0 0 0 0 0 0 0 0 0 0 0 0 0 0 0 0 0 0 0 0 0 0 0 0 0 0 0 0 0 0 0 0 0 0 0 0 0 0 0 0 0 0 0 0 0 0 0 0 0 0 0 0 0 0 0 0 0
0 0 0 0 50 50.3333 51 50.5 50.5 50.5 51.5 52 52 0 51.6667 52 52.5 51.8333 52 0 51 0 0 0 53 0 51.5 51.5 51.6667 52 51.5 51.5 53 53.5 54 0 53 53 53 53 53.5 0 0 54.2 53.5 54.5 54 54.2286 54.2286 0 0 0 0 0 0 0 0 0 0 0 0 0 0 0 0 0 0 0 0 0 0 0 0 0 0 0 0 0 0 0 0 0 0 0 0 0 0 14.2255 0 0 0 0 7.6027 7.6027 0 0 0 0 0 0 0 0 0 0 0 0 0 0 0 0 0 0 0 0 0 0 0 0 0 0 0 81.1905 0 0 0 0 0 0 0 0 0 0 0 0 0 0 0 0 0 0 0 0 0 0 0 33.25 0 0 0 0 0 0 68.5 0 0 0 0 0 0 0 9.25 0 0 0 0 0 0 0 7 7.5 7.5 7.5 7.7 7.7 0 0 0 0 0 0 0 9.8 7 0 0 10.5 10.5 9 8 0 0 8.33333 8.5 8.5 8 8 0 9 9 9 9 0 6.33333 8 7.5 7 0 8 8 7.83333 0 9.25 9.25 0 9.33333 0 10 10.3333 0 0 27.3333 27.3333 18.5556 10.5 10.5 13.1667 0 14.2 14.2 14.2 13.5 0 0 15 0 0 0 16 0 16 0 14.8 14.8 16 0 0 19 0 0 19 0 0 23 23.5 22.3333 24.5 0 0 0 0 29 28.6667 30 30.3333 0 34 33 35 0 0 35.5 35.5 0 0 0 0 0 0 0 0 0 0 0 37.5 38 33 30 0 29.1111 0 29.1111 29.1111 46.1818 46.1818 46.1818 47.6 35.5 0 0 0 0 0 32 32 32.5 0 0 31.5714 0 31.5 31.5 32 31.5 31.5 29.4286 29.5 31.5 31.5 32 29.5 30.3333 30.3333 30 32 32.5 0 0 0 32.5 32.5 32 32 32 0 31 0 0 32.5 32.5 0 0 31.5 0 0 32 32 0 33 33 33 34 34 34 34 33.5 0 0 0 35 0 0 36 36.5 36.5 36 0 36 36.5 34.75 0 0 0 34.25 0 68.25 69 0 0 0 0 60.5 61 0 0 0 61.6667 61 62 60.5 61 61 62 61 61 78 0 59.5 59.5 0 59.5 60 60 59 58.5 62 60.5 56.5 56.5 56.5 56.5 60 0 56.4762 56.4762 56.4762 56.4762 56.4762 56.4762 68 60 60 0 58.625 60 66.2 60 0 75.75 0 55.3333 52.6 63.1852 63.1852 63.1852 60.8571 0 45 72.8571 72.6842 72.6842 0 45 78 45.5 45.5 94 92.6667 23.4 27.6429 27.6429 24 0 23 31.75 0 0 0 0 0 41.5 42 0 0 0 0 42.8333 42.8333 42.8333 42.5 0 0 0 45 0 0 0 0 41 0 0 0 46.5 46.5 46.3333 46.3333 0 47 50 48.5 0 0 49.5 0 0 47.5 63 63 63 0 62 63.5 0 64 61 0 0 0 0 0 0 0 0 0 59.5 0 0 0 59.5 59.5 62.1 62.1 62.1 62.1 60.3333 60 60 61.3333 60.3333 60.3333 60 58.5 59 59 60 0 59 59 59 59 58 0 0 58 0 0 0 58.5 59.5 59.5 61 59.5 0 0 58.1667 58.1667 59 0 0 63.5 55 68 55 55 57.1667 0 58.5 58.5 53.75 53.75 61 0 0 0 56 0 57.5 57.5 53.3333 53.3333 0 58 55.5 55.5 0 0 0 0 0 0 0 0 0 0 0 0 0 0 0 0 0 0 0 0 0 0 0 0 0 0 0 0 0 0 0 0 0 0 0 0 0 0 0 0 0 0 0 0 0 0 0 0 0 0 0 0 0 0 0 0 0
0 0 0 0 0 0 0 51 51 0 50 50.5 51 51 0 52 51.8333 51.8333 0 0 0 0 52 52.5 53 53 0 0 51.5 52 52.5 53 53 53.5 54 54 0 0 52.5 53 53.5 54 54 54.5 0 0 0 0 0 0 0 0 0 0 0 0 0 0 0 0 0 0 0 0 0 0 0 0 0 0 0 0 0 0 0 0 0 0 0 0 0 0 0 0 0 0 0 0 0 0 0 0 0 37.0238 84.6598 37.0238 0 0 0 0 0 0 0 0 0 0 0 0 0 0 0 0 0 0 0 0 0 0 0 0 71.375 81.1905 0 0 0 0 0 0 0 0 37.0238 84.6598 84.6598 84.6598 0 0 0 0 0 0 0 0 0 0 0 20.1667 0 0 0 0 0 0 10.3333 10.3333 0 0 11.2 11.2 0 0 9.25 9.25 9.25 0 9.25 9.25 8 8 8.5 8.5 0 0 0 0 8 11 8.5 0 0 0 0 7.5 7.5 10 0 0 10.0833 10.0833 6.75 8 0 8.33333 8 8.33333 8.5 9 0 9 6 6 7.75 7.75 0 0 0 0 7.83333 9.5 7.83333 0 8 8 9.25 0 0 11.5 10.3333 10.3333 9.5 9.5 9.8 13 0 0 16.5 0 14.2 12.5 0 14.2 11 21.75 13.5 15.75 15.5 15.5 0 0 15.5 16 0 0 17.5 0 17.3333 19 0 21 0 19 22.3333 23 0 0 24.5 24.5 26 28 21.5 22.3333 26 0 30 0 31 34 33.6667 33.6667 38.5 38.5 33 33.5 34.25 35 0 36.5 41 41 0 0 0 0 0 0 0 39.2222 43.75 32 79.5 46.1818 29.1111 33 29.1111 29.1111 33 39.5833 0 0 0 0 32 33 0 32.5 33 0 0 32 0 0 0 0 32 0 0 0 29.4286 0 30.8333 30.8333 30.5 30.5 0 0 0 33 33 0 31.5 31.5 0 0 0 0 0 0 0 32.5 0 32.5 31.5 32 32 32 32 32.5 32.5 33 0 33 0 0 34 0 0 0 34 34.5 0 35 35 36 0 0 0 0 0 36 38 40.6667 41 37 34.75 0 67.5 61.5 60 0 0 60.5 60.25 61 58.3333 61 59 59 59 0 61 61.3333 62 0 0 62 75 60 60 60 59.5 59.5 60.5 0 0 61 0 62 0 58 56.5 59 59 0 60 56.4762 68 68 68 68 68 0 0 60 60 59.1667 60 73.75 66.2 59.9 47 47 63.1852 63.1852 63.1852 63.1852 44.5238 51.6667 56.4762 0 51.2 0 0 0 41.25 46 0 31.8333 84 26.3 33 33 27.6429 84 31.75 0 0 0 44 0 0 0 0 44 44 44 44 0 0 0 41.5 42.8333 45 43 0 0 45 0 44 0 0 0 44 47 0 0 47 0 0 0 0 0 0 0 0 0 0 52 0 0 0 0 60.5 0 62 60.5 0 61.5 61.5 61.5 61.5 60.5 0 0 0 0 60.5 60.5 0 0 0 59.5 65.1667 62.3333 62.3333 60 60 60.3333 60.3333 0 0 0 58 58.5 58 58 59 58.5 59.6667 59 0 59.6667 59.6667 57 58 58 59.5 59.5 60 60 0 0 0 60.5 60.5 60 60 0 61.4667 69.7083 69.7083 58.5 0 0 57.1667 0 0 57 54.5 57 57.1667 0 63.6111 60.7619 0 60.7619 0 0 60.5 60.25 0 0 0 0 0 0 0 0 0 0 0 0 0 0 0 0 0 0 0 0 0 0 0 0 0 0 0 0 0 0 0 0 0 0 0 0 0 0 0 0 0 0 0 0 0 0 0 0 0 0 0 0 0 0 0 0 0 0 0 0 0 0
0 0 0 0 50 50.6667 51 51 51 0 50 50.5 51 51 51.5 52 52 52 0 51 51 51.5 52 52.5 53 53 53 53 0 52 52.5 53 0 53.5 52.5 53 52.5 52.5 52.5 0 53.5 54 54 53.8333 53.8333 54 54.2286 54.2286 54.2286 0 0 0 0 0 0 0 0 0 0 0 0 0 0 0 0 0 0 0 0 0 0 0 0 0 0 0 0 0 40.7713 7.6027 14.2255 0 0 0 0 0 0 0 0 0 0 0 37.0238 37.0238 84.6598 48.0725 76.5794 0 0 0 0 0 0 0 0 0 0 0 0 0 0 0 0 0 0 0 0 0 0 0 71.375 0 0 0 0 0 0 0 0 0 37.0238 0 0 0 0 0 0 0 0 0 0 0 0 0 0 0 0 0 32.5 0 0 0 0 10.3333 8 10.5 11.2 11.2 11.2 0 0 8.39286 0 9.25 8.39286 8.39286 8 8 6.5 8.5 8.5 0 0 9 8 8.5 7.5 7.5 0 8 0 0 0 0 0 10 10 10 6.75 6.75 10.0833 8 8 8 7.33333 0 0 9 0 0 0 0 0 7.5 8 7.13333 9.9 7.13333 9.5 0 0 7.5 9.25 9 11 10.2 10.2 11.3333 11.5 11.3333 11.3333 0 10 10 0 13 14 14 12.5 0 11.25 11.25 0 0 0 13.75 13.75 13.75 0 15.5 0 17 0 17.5 17.5 0 0 20 22.6667 22.6667 22.3333 23 23.5 23.5 24.5 24.5 29 29 21.5 0 0 0 0 31 0 0 33.6667 0 34.3333 0 0 34.25 34.25 35 36 39 41 39 0 37 0 38.5 39 39 0 39.2222 0 33.5 47.6 0 29.1111 34.3333 0 35.5 22 27.5 0 0 0 0 32 33 0 33 0 34 34 0 32 32 32 32 32 30.1667 30.1667 32.1667 0 33.5 0 0 0 27 31 31 31.5 32 0 0 32 32 32 0 32 32 31 32.5 32.5 32 32 32 32 32 32 0 0 0 0 0 0 0 0 0 34 0 0 0 0 35 35 35 0 35 0 36 36 36 36.3333 36 0 0 41 0 0 0 80.5 61 61 0 0 0 0 58.3333 0 58.5 58.5 0 0 0 53.6667 58.3333 58.3333 61 61 61 0 0 60 0 59.5 59.5 59 0 59.5 59 59 0 0 0 70.6667 0 60.6667 0 60 56.4762 86 68 68 0 0 0 0 60 60 78.0227 73.75 75.1667 75.1667 0 0 69.5385 69.5385 52.9 53.125 63.1852 60.8571 47.2857 37 0 0 46 0 0 49 45 34.625 31.8333 0 0 45.5 45.5 45.5 45.6667 71.1667 45.6667 0 44 44 44 44 0 42.6667 0 0 0 0 0 0 0 0 41.5 42.5 45 0 43.5 43.5 44 0 44 0 44.5 44.5 46.3333 0 0 46.5 0 0 48.5 0 52 0 0 0 0 62 62 62 75 63 63 63 0 0 0 70.6667 70.6667 70.6667 61.7 60.5 60 60 60.5 0 63.7 0 0 61.6667 0 0 59.5 0 0 58.5 60 61.5 61.5 58.5 0 66 76.5 57.5 57.5 0 0 0 59.5 60 0 60 0 0 0 0 0 56.5 59.5 59.5 59 59 0 0 60.5 60.5 0 0 59.8333 0 0 59.8333 0 0 0 0 59.8333 59.8333 0 54.5 55.6667 59 64.65 64.65 63.6111 60.7619 0 65.1667 60.9167 0 0 60.25 0 0 0 0 0 0 0 0 0 0 0 0 0 0 0 0 0 0 0 0 0 0 0 0 0 0 0 0 0 0 0 0 0 0 0 0 0 0 0 0 0 0 0 0 0 0 0 0 0 0 0 0 0 0 0 0 0 0 0 0 0
0 0 0 0 50 50.5 50.5 50.5 50.5 51 51.3333 0 51 51 51.5 0 0 0 0 51 51 51.5 52 0 51.3333 53 53 53 0 52 52.5 53 53 0 0 53 52.5 52.5 52.5 53 53.5 0 53 53 53.8333 54 0 54 54 91.4286 53 0 0 0 0 0 0 0 0 0 0 0 0 0 0 0 0 0 0 0 0 0 0 0 0 0 0 0 0 37.0238 37.0238 0 0 0 0 0 0 0 0 0 0 0 0 0 37.0238 34.9447 48.0725 84.6598 0 0 0 0 0 0 0 0 0 0 0 0 0 0 0 0 0 0 0 0 0 84.6598 37.0238 37.0238 0 0 0 0 0 0 0 0 0 0 0 0 0 0 0 0 0 0 0 0 0 0 0 0 0 0 95.75 67.5 0 0 0 8 8.33333 0 10.5 10.5 10.5 0 0 8.39286 8.05556 9.25 0 8 8 8 8 6.5 6.5 6.5 0 6.5 7 8 8 7.5 0 0 0 7.5 7.5 9.66667 8 0 0 10 6.75 0 6.25 6.25 6.25 7.33333 7.33333 0 8.33333 0 0 7.25 10.5 10.5 9 0 8 7.13333 9 9.9 9.9 7.13333 7.13333 9.9 8 0 11 10.2 10.2 10.2 10.5 11.5 11.5 0 19 21.75 21.75 13 12.6 13 13 12.6 10 14.5 0 14.6667 14.6667 0 16.8333 13.75 14.5 14.5 0 16.5 0 18.5 18.5 0 19 0 22.6667 22.3333 22.5 0 22 23.25 0 0 0 29 21.5 0 24.5 0 0 30 0 30 34.6667 35 35 35 0 0 34.25 34 35.6667 39 0 0 0 0 0 38.5 39 0 0 0 0 0 32 0 0 0 62.7143 24.5 23.5 23.5 0 0 0 0 0 33 33 33.5 0 0 33 34 32.5 32.5 32 32.6667 32.6667 32.5 32.5 32.5 32 32 32.1667 32.1667 0 0 31 31 31.5 32 0 31 32 32 32 0 32 32.5 33 0 0 32 32 32 32 0 0 0 32 32.5 0 0 33 33 0 33.5 34 0 33.5 0 34.5 35 0 35 35 35 0 0 36 36 0 0 0 0 41 0 0 0 0 77.875 0 0 61 61 61 61.5 59 59 60.5 61 0 0 61 61.5 0 61 60.5 60.5 61 0 60 60 59.5 60 58.5 58.5 58.5 59.5 59 0 59 59 70.6667 60.6667 60.6667 60 63.2143 56.4762 0 47 47 0 0 0 0 0 78.0227 75.1667 75.1667 78.0227 0 65.6667 0 55.5 0 58.75 48.5 60.8571 0 47.2857 52.0119 40.5 0 84 85.5 73 45 73 73 46 45 31.4 45.5 45.5 45.5 0 0 45.6667 0 0 44.5 45.3333 45.3333 0 43.5 45.3333 0 43.5 44 44.5 0 44.3333 43.3333 44 44 0 0 45 0 0 0 44 0 45 0 46.6667 0 46.5 46.5 0 47 49 0 50 48 0 0 0 62.5 0 0 0 67.25 67.25 67.25 0 66 63 62.1667 70.6667 66.8333 0 0 66.8333 0 62 60.5 63.9 63.7 63.9 63.9 60.5 0 62.8571 60.1429 60.1429 59.5 59.5 58.5 0 0 66.5 66.5 60 58 61 60 64 64 58 57.5 0 0 0 58.5 61.3333 56.5 58 0 61 64 0 56.5 56.5 0 60.5 60 61 0 61.5333 0 56.75 0 0 0 0 0 56.75 61.5333 57 0 0 58.5 0 0 63.6111 63.6111 65.1667 65.1667 60.9167 65.1667 60.5 0 60.25 0 60.25 0 0 0 0 0 46.5 0 0 55.5 0 0 0 0 0 0 0 0 0 0 0 0 0 0 0 0 0 0 0 0 0 0 0 0 0 0 0 0 0 0 0 0 0 0 0 0 0 0 0 0 0 0 0 0 0 0 0 0 0
0 0 0 0 0 49.5 49.5 49.5 50.5 51 51.6667 0 0 0 0 52 0 0 50.5 51 51 51.5 52 0 0 0 0 0 0 52 52.5 53 53 53.5 0 53.3333 52.5 52.5 52.5 53 53.5 54 0 0 0 0 53.5 53.5 54 52.6667 53 0 0 0 0 0 0 0 0 0 0 0 0 0 0 0 0 0 0 0 0 0 0 0 0 0 0 0 0 0 0 0 0 0 0 0 0 0 0 0 0 0 0 0 0 34.9447 34.9447 37.0238 37.0238 0 0 0 0 0 0 0 0 84.6598 37.0238 0 0 0 0 0 0 0 0 0 0 0 42.9667 37.0238 37.0238 37.0238 37.0238 0 0 0 0 0 0 0 73.1818 0 0 0 0 0 0 0 0 0 0 0 0 0 0 0 0 11 0 0 0 8.33333 8.33333 0 10.2857 10.5 10.5 10.5 10.5 8.05556 8.05556 0 8.05556 7.83333 8 8 8 8 6.5 6.5 6.5 6.5 8 8 0 0 0 8 0 7.5 7.5 8 8 8.5 0 0 0 0 6.25 0 0 8 8 8.33333 8.33333 8.16667 8.16667 7.25 7.25 7.25 8.66667 8.66667 9 8.66667 7.58333 7.58333 8.5 8.5 7.58333 9.9 8.5 9 11 0 9.66667 10 0 9.5 0 19 11 21.75 13 0 10 12.6 12.6 12.6 0 0 0 14.6667 15 0 16.8333 16.8333 0 0 0 0 0 17.5 17.5 17.5 0 18.8 20 0 22.5 22 23.5 24 23.3333 0 0 22.5 25 25 25 0 0 0 0 0 34.6667 0 0 35 0 37 34.3333 34 35.6667 35.6667 0 0 0 0 0 0 0 0 40.1 0 0 0 0 0 0 54.6875 0 48 22 23.5 37.25 33.5 0 0 32 33 33 0 0 0 33 33 32 32 32 32.6667 31.5 30.5 32.5 32.5 32 0 0 30.1667 27 0 31 31 31.5 32 0 32 0 0 0 32 0 0 0 0 0 0 0 0 0 32 32 32 0 32.5 33 33 0 32.5 32.5 34 33.5 33.5 0 0 35 35 35 35 36.5 0 0 0 0 0 0 37.5 0 36.5 41 0 0 63.75 0 0 65 70 61 61 0 61.5 60 61.5 0 0 0 0 61 61.5 61.5 0 61 61 61 0 61 61 59 59 0 0 59.5 59.5 0 0 59 59 59 60 0 59 59 59 59 61 73.5 83 0 83 0 0 78.0227 75.1667 78.0227 79.8571 79.8571 77.3333 60.5 0 0 69.5385 53.125 0 60.8571 0 0 45 84 47.6667 55.3333 55.4167 0 55.3333 55.3333 26 45 24 34 34 45 0 0 0 44 44 44 0 43.5 43.5 44 45 0 0 0 0 0 44.3333 0 44 0 0 0 43 0 47 47 43 0 47 44 0 47 0 46 0 0 0 0 0 0 0 0 56 69 69 69 62.5 62.5 0 0 0 0 0 62.5 62.1667 63 64.5 64.5 61.2143 61.2143 61.2143 57.6667 0 0 60.5 57.6667 64.7857 64.7857 54 60.1429 60.1429 64 0 59.5 61 65 0 60.5 0 60.5 65.25 57.5 64 0 60.2 0 62 0 0 57.5 58.5 64 0 57.6667 0 64.6 59.4 0 0 60.5 60.5 61.5 0 61 0 0 0 56.75 75.5 75.5 0 53 62 54.75 58.2857 56.75 56 53.5 0 0 60.7619 65.1667 0 65.1667 0 0 60.25 0 0 0 0 0 53.5 0 0 0 0 49.5 0 0 0 0 0 0 0 0 0 0 0 0 0 0 0 0 0 0 0 0 0 0 0 0 0 0 0 0 0 0 0 0 0 0 0 0 0 0 0 0 0 0 0 0 0 0 0 0 0 0 0
0 0 0 0 0 50.5 50.5 50.5 0 51 0 0 51 51 51.5 51.5 51.5 0 50.5 51 51 0 0 52.6667 0 51.5 51.5 51 51.5 0 52.5 53 53 52 53.3333 53.3333 52.5 52.5 0 52 0 0 0 53 53.5 54 53.5 53.5 54.5 0 54.2 0 0 0 0 0 0 0 0 0 0 0 0 0 0 0 0 0 0 0 0 0 0 0 0 0 0 0 0 0 0 0 0 0 0 0 0 0 0 0 0 0 0 0 0 0 0 0 0 0 0 0 0 0 59.8717 84.6598 0 84.6598 48.0725 0 0 0 0 0 0 0 0 0 0 0 0 37.0238 0 0 0 0 0 0 0 0 0 0 11.5 37 37 0 37 0 0 0 0 0 0 0 0 0 0 0 21 11 0 0 0 9 0 0 0 0 0 8.5 8.05556 7 8.05556 0 8.05556 7 7 6 7.83333 7.66667 0 0 0 0 0 0 0 0 8 8 0 8.75 8 8 8 8.5 8.5 8.5 0 0 0 0 8 8 8 8 0 0 7.5 0 7.5 7.5 8 7.83333 6.66667 7.83333 7.83333 0 8.5 8.5 0 0 0 0 0 8.5 0 0 0 0 0 0 24 12.8333 12.8333 14.5 12.3 13.5 13.5 13.5 13.5 14 0 0 0 0 16 16.8333 17 17 0 0 0 17.5 17.5 17.5 19.5 19.5 19.5 19.5 0 0 23.5 23.3333 23.3333 24 24.5 0 0 0 25 0 0 28.6 0 0 0 0 0 33.5 0 36 33 33 33 34.7 34.7 36 35.5 35.5 0 0 0 0 40.6667 0 39.2222 43.75 33.5 34.6667 43.75 54.6875 0 0 0 0 33.5 33.5 0 35 0 0 31 0 0 0 32 33 33 33 0 0 0 35.5 35.5 0 32 30.5 31.6667 31.6667 0 31 31.3333 0 0 32 32 0 32 32 32 32 31.6667 32.1667 0 33 0 32 32 0 32 32 31 0 32.5 0 0 0 0 0 0 0 0 33 33 34.5 0 34 35 0 35 0 0 36 36 36 36 0 37 0 36.5 0 37.5 0 59.5 59.5 60 59.6667 0 0 61.5 61.3 61.3 61.3 0 0 61.5 61.5 61 0 0 61 61 61 61 0 60 0 61 0 61 59.5 59.5 60.5 60.5 0 0 0 0 59 60 60 0 0 0 0 62.5 0 60 70.5 0 0 80.5 78.0227 0 79.8571 79.8571 0 79.8571 0 63.6667 79 23.5 52.9 0 69.5385 0 0 0 0 0 0 50.1667 69.5385 69.5385 63.1852 43.5 46 72.1667 72.1667 60.8571 60.8571 54 0 0 0 0 44 0 44.5 44.5 44 44 0 45 43.8333 44.6667 44.6667 43 0 43.3333 43.3333 0 0 0 0 45.5 0 0 45.5 0 47 47 48 48 0 0 0 0 49 0 0 0 0 61.5 0 0 0 0 0 63 63 63 63.5 0 60.7 62.1667 62.1667 63 61.2143 61.2143 61.2143 61.2143 0 63.6667 60.5 60.5 61.3333 60.4167 0 0 61.7143 64 0 0 60 0 0 61 0 0 63.6 63.6 62 62 61.3333 61.3333 60.5 60.5 62 62 0 58.5 57.6667 0 0 60 0 59 59 60 61.5 61.5 61.5 66.3333 54.75 0 0 63.3333 59.3333 0 0 0 56.3778 56.3778 63.75 63.6111 63.6111 0 63.6111 62 62.75 60.7619 60.7619 62.5 0 0 0 0 0 0 0 0 0 53.5 53.5 0 0 0 0 0 49.5 0 0 0 0 0 0 0 0 0 0 0 0 0 0 0 0 0 0 0 0 0 0 0 0 0 0 0 0 0 0 0 0 0 0 0 0 0 0 0 0 0 0 0 0 0 0 0 0
0 0 0 0 51.5 0 0 0 0 0 0 50.5 0 50.5 50.5 51.5 51.5 51 52 0 51 51.5 52 52.5 0 51.5 51.5 51 51.5 52 0 51.5 52 52 52.5 52.5 52.3333 52.5 0 0 0 52.3333 53 54 0 0 53.5 53.5 53 53 0 0 0 0 0 0 0 0 0 0 0 0 0 0 0 0 0 0 0 0 0 0 0 0 0 36.1386 0 0 0 0 0 0 0 0 0 0 0 0 0 0 0 0 0 0 0 0 0 0 0 0 0 0 0 0 0 0 0 0 0 0 0 0 0 0 0 0 0 0 0 0 0 0 46.5 46.5 0 0 0 0 0 6 6 6 0 0 0 0 0 0 0 0 0 0 0 0 0 0 0 21 0 0 0 0 0 9 0 0 0 9.75 0 8.5 8.5 8.55 7 8.05556 8.05556 7 7 6.53333 7.66667 6.53333 6.53333 0 0 0 0 7.5 0 7.5 7 8 8.66667 8.75 8.75 8 8 8.5 8.5 8.5 8 8.5 9 0 0 8.25 8.25 8.25 8.25 7.5 7.33333 9.5 7 7 9.5 6.66667 0 0 6.66667 0 7.5 7.5 7.5 8 10 8.5 0 0 0 0 0 8.5 8.5 8 9 14.5 13 18 13.5 12.3 12.3 12.6667 12.6667 16.3333 0 0 16 16 0 15 16 17 0 18 17 17 17.5 19 19.5 19.5 19.5 20.5 19.5 0 22.75 22.75 0 24.5 24.3333 24 28 0 22.5 24 30 0 0 31.5 32.5 32.5 33 33 34.25 35.5 35.5 33.5 34 35 0 35 0 35.5 35.5 37 0 39 40.6667 0 37.25 0 39.2222 54.6875 0 33.5 0 34.6667 0 34.6667 0 0 0 0 31.5 31.5 32 0 32.7333 32.7333 0 0 0 0 0 32 32 30.8333 30.8333 32 32 30.8333 31.6667 32 0 31.3333 31.3333 31.6667 31.25 32 32 33 33 32.5 32.5 0 31.6667 32.1667 32.1667 0 32 32 32 33 0 0 0 0 34 35 0 0 33 0 33 33 33 33 0 33 0 0 35 0 35 0 35 0 35 36 36 0 37.5 37.5 0 0 0 0 0 0 0 0 60 61 0 62.5 61.3 61.3 61 61 61 0 0 62 61 61 0 0 0 61 61.5 0 62 0 0 0 0 60 61 0 74 0 60.8 60.8 60.8 61.5 0 0 0 0 60 62.5 55.6333 65.8 0 78 78.0227 78.0227 78.0227 73 84.875 73 64.5143 72 72 0 77.3333 77.3333 0 54 0 0 0 0 53 47 46.5 46.5 44.5238 63.1852 0 0 46 0 0 0 0 0 0 46 0 0 44.5 0 0 43 44 43 0 43.8333 44.6667 43.8333 0 0 43.5 0 46.5 0 44.5 44.5 0 46.5 0 0 46.5 45.5 47.5 47 47 46 50 49 49 0 0 51.6667 0 60.5 62.5 61.5 62 62 62 62.5 63.5 63.5 63.5 67.5 63.5 63.5 0 62 60.7 63.5 62 0 0 61 0 60 60 61.3333 60.4167 60.4167 60 58 62.5 0 64.5 62.5 0 62 0 0 0 61.4667 63.6 63.6 0 61.6667 61.3333 0 60.5 62.6667 62.6667 62.6667 57.7619 59.4286 0 60 59 59 59 58.5 60.5 60.5 0 62.4286 0 56.6667 0 59.5 59.5 62.1667 62.1667 59.1667 60 0 0 63.75 63.5 63.6111 0 0 63.6111 0 0 0 0 62.75 0 0 0 0 0 0 0 0 0 0 0 0 0 0 0 0 0 0 0 0 0 0 0 0 0 0 0 0 0 0 0 0 0 0 0 0 0 0 0 0 0 0 0 0 0 0 0 0 0 0 0 0 0 0 0 0 0 0 0 0 0 0 0 0
0 0 0 0 50 0 50.6667 50.6667 50.5 0 50 50.5 51 0 50 50 50 51 51 0 0 0 52 52.5 53 0 0 51 51.5 52 52.3333 53 53 0 52.5 52.3333 52.3333 0 0 52 52 52.6667 53 0 54 54 54 54 53.5 53.5 53 73.6667 52.8333 0 0 0 0 0 0 0 0 0 0 0 0 0 0 0 0 0 0 0 0 0 0 0 0 0 0 0 0 0 0 0 0 49 0 0 0 0 0 20.0417 0 0 0 0 0 0 0 0 0 0 0 0 0 84.6598 0 0 0 0 0 0 0 0 0 0 0 0 0 0 0 0 0 0 0 0 0 36.75 0 0 0 0 0 0 0 0 0 0 0 0 0 0 0 0 0 0 0 0 0 0 0 9.4 9.4 9.4 9 9 9.75 8.33333 9.75 8.33333 8.33333 8.55 9 9.16667 8.5 8.5 9.16667 9.16667 7.66667 0 6.75 6.75 6.75 6.75 6.75 6.5 6.5 6.5 6.5 8 8.66667 8.75 0 8 8 8.5 8.5 8.5 8 8.5 9 8.5 8.5 8.58333 8 8 8 7.33333 7.33333 0 9.5 0 7.7 7.7 7.7 8 8 8 7.25 7.25 7.5 8.5 10 9 11 0 10.3333 0 9 8.66667 9.33333 19 17.1429 13 13 13 0 12.3 12.3 12.6667 16.3333 16.3333 0 12.5 16 0 16 16 0 0 16 18 0 18 0 0 0 19.5 18 0 0 20.5 0 22.75 23 0 0 24 0 0 0 24.5 0 0 0 30 30.5 0 32 32.5 0 0 0 0 34 34.3333 35 36 35.6667 0 35.5 0 33 33 30.25 39 0 0 54.6875 0 0 46.8571 39.2222 39.2222 31 34.2857 33.5 0 0 0 30.6346 0 31 0 34.5 32.7333 0 32.7333 0 0 0 31.5 31.5 32.5 32.5 33 32.25 32 32 32 0 32 0 31.5 31.5 32 0 0 0 0 0 31 0 0 0 0 0 0 32 0 31.5 33 0 0 34 34 34 0 33 33.5 33.5 0 32.5 34 0 34.5 35 34.5 34.5 35 0 36 35 36 0 0 36.5 0 0 0 0 73 0 0 59.6667 60 0 59 60 62.5 60 61.5 0 40.5 61 0 0 0 0 61 61 62 0 0 0 61 61 61 0 0 0 60 60 60 61 61 61 60.8 61.5 0 0 59 0 61 60 60 60 0 55.6333 0 78 0 84.875 84.875 84.875 0 0 0 0 0 0 0 60.825 0 70.5 0 0 0 0 0 0 63.6667 47.6667 47.6667 46.5 45 0 46 46 0 0 48.5 48.5 46.5 46.5 47 0 46 46.5 47 45.5 0 0 45.5 0 47 42.5 42.5 43.5 0 0 46 43.5 0 0 43.5 0 43.5 0 48 0 46.5 0 46 0 50 0 0 49 0 0 0 62.5 0 0 0 0 0 0 61 62.5 0 63 63 0 0 61.8667 61.8667 62 62 62 62 0 0 0 0 69 59.5 59.5 0 0 57.25 0 0 0 0 0 0 0 0 61.4667 0 61.8333 0 0 0 0 0 0 60.5 0 0 60.6667 59.4286 59.0476 59 0 58.5 0 59.5 59.5 56.3778 62.4286 0 0 0 0 61.4286 0 0 59.3333 0 0 0 0 61 64.65 64.65 63.5 0 64.65 56.3778 0 63.75 0 0 60.7619 0 62.75 62.75 0 0 0 0 0 0 0 0 0 0 0 0 0 0 0 0 0 0 0 0 0 0 0 0 0 0 0 0 0 0 0 0 0 0 0 0 0 0 0 0 0 0 0 0 0 0 0 0 0 0 0 0 0 0 0 0 0 0 0 0
0 0 0 0 50.6667 51 50.6667 50 50.3333 0 50 50.5 51 51 0 50 50 50 0 51 51 0 0 51 51 51 51 0 50 50.5 51 51.6667 0 0 0 0 0 52.5 53 0 52 52.5 53 53 53.6667 53.5 53.5 0 52.5 0 0 52.8333 52.8333 0 0 0 0 0 0 0 0 0 0 0 0 0 0 0 0 0 0 0 0 0 0 0 0 0 0 0 0 0 0 0 0 0 0 0 37.0238 0 0 0 0 0 0 0 0 0 0 36.75 23.1915 0 0 0 84.6598 84.6598 84.6598 0 0 0 0 0 0 0 0 0 0 0 0 0 0 0 0 38.8406 0 59.8717 0 0 0 0 0 0 0 0 0 0 0 0 0 0 0 0 0 0 0 0 0 0 0 0 0 9 9 9 9 9.4 9.4 10.3333 9.75 8.16667 9 9 8.16667 8.33333 8.5 9.33333 8.83333 8.83333 8.83333 0 8.25 0 0 0 0 6.5 6.5 6 6 0 0 0 8.5 0 7 9 9 8.5 8.5 8 8 8 8 6.33333 8.7 8.58333 8.58333 8 0 8.33333 8.33333 0 7.7 7.7 0 0 7.5 7.5 6.5 6.5 9 9 10 10.3333 11 10.3333 9 9 10.25 10.25 10.25 0 0 14 13 0 16 13 13 0 0 12.75 12.75 12.5 0 0 15.5 15.5 14.5 14.5 0 16.5 0 0 15 17.5 0 0 18 0 20.5 22.75 0 22 22 0 25 24 0 0 0 0 24.5 0 0 0 32 0 32.5 32.5 32.3333 35 0 0 34.3333 34.3333 0 0 0 34.5 38 0 38.5 38.5 39 40.5 0 54.6875 33.5 0 54.6875 50.25 39.2222 39.2222 39.2222 33.5 37.25 0 0 31.2 30.6346 30.6346 30.6346 27.6111 33.6667 33.75 0 32.7333 0 0 0 0 0 31.5 0 31.5 32.25 31.5 0 30.5 31.5 0 31.3333 31.5 31.5 32 31.5 31.5 32.5 32.5 31.5 31.5 32.5 0 32.5 33 0 32.3333 0 33 32 32.3333 0 32.5 31.5 0 33.5 0 33 33 0 0 0 0 0 0 0 0 34 35 35 0 34.5 35.5 0 0 36.5 49.5 49.5 0 0 66 58.5 62 0 60 61 0 0 0 0 0 0 0 0 0 0 0 61 61 0 61.5 0 0 0 0 0 60 0 61 0 61 79 79 60 59.5 59.5 60.8 59.3333 59 59 58 58 0 87 60.5 0 59.1667 0 0 48 0 84.875 84.875 73 0 79.8571 79.8571 0 0 63 0 0 0 70.5 49.5 49.5 0 0 0 0 58 0 0 0 0 0 47 0 0 0 0 0 0 0 0 0 44.8333 0 0 0 0 44 44 0 0 0 0 0 0 43.5 44 43.5 43.5 0 0 48 0 47.5 0 0 0 0 0 0 0 49 56 0 0 56 61 0 61 61 61 60.5 62.5 61 62 63 0 0 0 62 62 62 62 62 61.8667 0 0 0 0 0 0 63 0 0 59.75 0 59.25 60.2667 60.2667 60.2667 60.15 0 0 61.6667 0 61.4667 61.8333 61.8333 0 58 61.8333 60 0 0 59.5 59.5 0 60.0833 0 0 0 59.0476 59.0476 59 59 63.75 56.3778 62.4286 62.1667 0 61 61 61 61.4286 61.4286 59.3333 0 0 0 61 61 61.4286 62.4286 56 56.3778 62.4286 56.3778 61.8333 56.3778 0 58.5 0 58 52 54.1667 54.1667 54.1667 0 0 0 0 0 0 0 0 0 0 0 0 0 0 0 0 0 0 0 0 0 0 0 0 0 0 0 0 0 0 0 0 0 0 0 0 0 0 0 0 0 0 0 0 0 0 0 0 0 0 0 0 0 0 0 0 0 0
0 0 0 0 50.5 50.5 50.5 49.6667 49.6667 0 50 50.5 51 51 51.5 51.5 51.5 0 50.5 51 51 51.3333 0 52.5 52 52 52 51 51.5 52 0 51.5 52 52 51.8333 51.8333 52 52.5 51.5 52 0 0 52 0 53.5 53.5 53.5 53.5 0 53 53 0 0 0 0 0 0 0 0 0 0 0 0 0 0 0 0 0 0 0 0 0 0 28.3333 0 0 0 0 0 0 0 0 0 0 0 0 0 0 0 0 0 0 0 0 0 0 0 0 0 0 23.1915 0 0 0 0 0 84.6598 84.6598 0 0 0 0 0 0 0 0 0 0 0 0 0 0 38.8406 38.8406 38.8406 0 0 38.8406 38.8406 38.8406 38.8406 0 0 0 0 0 0 0 0 0 0 0 0 0 0 0 0 0 0 0 0 0 0 0 0 0 9 9 9 9 9 9 9 8.16667 9.33333 9.33333 8.83333 8.83333 8.5 0 0 0 0 0 0 8.33333 0 8.33333 8.33333 7 7 8.5 8.5 7.5 7.5 9 0 0 0 8 0 8.5 8.5 8.7 0 6.33333 6.33333 8.5 8.5 8.33333 9 0 0 11 6.5 6.5 9.5 7.5 7.5 7.5 0 0 10.3333 10.75 0 10 9 0 10.25 9.33333 9.33333 10 10 9.5 0 0 0 12.75 13 0 0 12 0 12.4667 9 0 0 16 0 15 16.6667 0 18 0 16.5 19 18 0 0 0 21.3333 0 0 0 25.5 0 0 0 24 23.4667 24 23 23.5 0 28.5 30.75 0 0 32.6667 32.6667 32.3333 20.5 33 34 34.5 0 0 0 29.1111 29.1111 37.5 37.5 0 37.25 40.5 44 79.5 38.95 62.7143 0 32 54.6875 30.25 0 37.25 0 0 37.25 33.5 34 34.2 34.2 27.6111 0 35.25 33.6667 35.5 35.5 33 33 0 31 32 31.5 31.5 31.5 31.5 31.5 32.25 32.25 0 30 31 32 32 0 31.8333 31.8333 32 31.5 31.5 31 0 0 0 32 0 31.3333 31.3333 32 32.3333 32.3333 0 0 0 0 0 0 0 34 35 33 35 34.5 0 34.5 35 35.5 35.5 0 34.5 36.3333 0 0 34.8333 36.3333 54.3333 37.5 37.5 0 0 0 70.1667 0 0 0 0 0 61.5 61.5 61.5 0 60 0 61.5 60.5 43 0 100 62 0 61.5 0 62.5 62.5 0 0 61.5 0 61.5 0 61 78 61.5 0 0 60.3333 0 60 59 59 59 58.5 58.5 58 60.5 80.5 0 0 81.5 81.5 78.0227 84.875 84.875 0 0 0 0 0 0 60.825 0 31 0 0 56.5 44.5 0 0 0 51 0 20 27 46 45 49 49 0 48 0 0 46 46 46 0 44.8333 44.8333 52 0 0 49 46.5 44 44 0 44 44 44.3333 44.5 0 0 0 0 46 44 0 0 0 0 0 50 52.5 0 0 49 49 49.5 0 0 0 0 61 61 61 59.25 59.5 61.3333 61.3333 62.5 60.5 0 0 0 60.5 59.1 0 61.5 61.5 62 0 0 61 61 0 0 60.5 60.5 0 0 60.15 60.15 60.15 60.15 61 0 60.2667 60.75 0 0 0 61.4667 60.75 60.75 61.8333 61.8333 61.8333 60 0 0 59.6667 59.6667 60.6667 60.0833 60.0833 60 61.5 61.5 59.0476 59.0476 59 59 63.5 56 60.6667 61.5333 63.5 60.6667 62.4286 61.4286 61.4286 63.5 61.5333 61.5333 60.6667 60.6667 61 0 61 62.4286 61.0833 61.0833 0 54.5 0 61.8333 67 57 58 58 52 54.1667 54.1667 54.1667 0 0 0 0 0 0 0 0 0 0 0 0 0 0 0 0 0 0 0 0 0 0 0 0 0 0 0 0 0 0 0 0 0 0 0 0 0 0 0 0 0 0 0 0 0 0 0 0 0 0 0 0 0 0 0 0
0 0 0 0 0 50.5 50.5 49.6667 49 49.5 51 51 51 0 0 0 0 0 0 50.5 50.5 50.5 52 51.75 51.75 51.75 51 51 51.5 0 0 51.5 52 52 52.1667 52.1667 0 51 51.5 0 52 52.5 53 53 0 0 0 0 0 53 52.5 52.5 52.5 0 0 0 0 0 0 0 0 0 0 0 0 0 0 0 0 0 0 0 0 40.7713 74 55 0 0 0 36.1333 36.1333 36.1333 36.1333 0 0 0 0 0 37.0238 0 0 0 0 0 0 0 0 0 0 0 0 0 0 84.6598 0 0 0 0 0 84.6598 0 0 0 0 0 0 0 0 0 0 0 38.8406 0 0 0 38.8406 0 38.8406 38.8406 38.8406 38.8406 0 0 0 0 0 0 0 0 0 0 0 0 0 0 0 0 0 0 0 0 10.9643 10.9643 10.9643 0 0 0 0 7.5 9 0 8.55 8.55 0 9.5 9.5 8.5 8.5 8.5 8.83333 0 0 7.5 7.5 7.5 7.16667 0 0 0 0 0 8.5 9 0 0 0 0 0 6.2 0 0 6.5 0 0 0 6 8.4 8.4 8.4 8.34286 8.34286 8.34286 8.34286 0 6 6 0 0 7.5 7.5 9 11.4667 8.66667 10.75 10.3333 10.3333 9 10 10 10 10 9.5 24.5 24.5 15 14.5 14.5 14.5 12.5 12 12 12.5 12.4667 12.4667 12.4667 18 0 16 0 15 16.6667 0 18 0 0 17.5 19 19 20.5 21 0 23.25 18.5 18.5 24 25.5 0 24.3333 23.5 23.4667 23.4667 26 0 0 28.5 28.5 0 0 32.6667 32 33 33 34 34 34 0 0 35.3333 35.3333 0 0 46.1818 46.1818 40.5 0 39.5833 0 41.5 33.5 62.7143 61.5 39 39 0 37.25 30.25 30.25 37.25 37.25 0 0 0 34.2 0 35.25 35.25 35.25 33.6667 0 0 33.75 33 33.75 32 32 32 31.5 31.5 31.5 31.5 0 31.5 31.5 31.5 31.5 31 0 31 31.5 31.5 31 31 0 31 32.5 0 31.5 31.5 31.3333 32 32.5 32 0 0 34 0 33 33 0 33.5 34 34 35.5 0 36 34 35 35 0 0 0 0 34.5 34.8333 34.8333 36.3333 37.5 37.5 37.5 0 38 0 85 61.5 61.5 0 0 61.2778 61.2778 0 0 0 0 60 60 60.5 0 62 0 61.5 61.5 61 61 61 0 61 0 59.75 59.75 59.8333 47 0 60.5 53.125 53.125 53.125 53.125 0 0 60 60 59 0 42 57.5 57.5 59.6667 47.5 64 69.1 69.1 78.0227 59.7273 63 62.5 77 62.6 63.3333 63.3333 65.6667 60.825 60.825 0 39 0 0 60.6667 0 0 0 60.825 60.825 0 0 0 0 0 0 53 50 0 50.6667 50.6667 0 0 0 0 0 0 48 0 0 0 51 41 44 44 44 44.3333 46.5 45 45 0 0 45 44 0 49 47 47.5 0 0 50.5 50.5 51 0 49.5 0 0 0 0 0 57 61 0 57.5 0 0 61.3333 61.3333 59.6667 59.5 60 0 60 61.6667 61.6667 59.1 63 0 61.5 61.5 60 60.5 61 61 59.5 59.5 57.0667 0 63 59.75 59.75 59.75 60.15 60.15 60.15 60.2667 60.75 59.5 62 0 61.4667 60.75 61.4667 61.8333 61.8333 61.8333 59.6667 59.6667 59.6667 59.6667 0 60.6667 60.0833 58 0 0 59.0476 59.0476 58 58 67 64.65 64.65 69 56.3778 64.65 61.4286 61.0833 0 61.0833 55.6667 59.8333 59.8333 0 59.5 58 58 58 0 0 61.0833 61.0833 0 61.8333 61.8333 67 57 57 58 52 0 54.1667 54.1667 54.1667 54.1667 0 0 0 0 0 0 0 0 0 0 0 0 0 0 0 0 0 0 0 0 0 0 0 0 0 0 0 0 0 0 0 0 0 0 0 0 0 0 0 0 0 0 0 0 0 0 0 0 0 0 0 0 0
0 0 0 0 50.5 0 0 49 49 0 50 0 0 0 49.5 49.5 49.5 50 50.5 0 50.5 50.5 51 51.75 51 51 0 0 0 52 0 51.5 52 52 52 52 52 52.5 0 52 0 52.5 0 53 0 52 52 52 52.5 53 0 74 0 0 0 0 0 0 0 0 0 0 0 0 0 0 0 0 0 0 0 0 0 0 0 0 0 0 0 0 0 0 0 0 0 0 0 0 0 84.6598 84.6598 84.6598 0 0 0 0 0 0 0 0 0 0 0 0 0 0 0 84.6598 0 0 0 0 0 0 0 0 0 0 0 0 0 0 0 0 0 0 0 0 0 0 38.8406 38.8406 0 0 0 0 0 0 0 0 0 0 0 0 0 0 0 0 0 0 77.25 12.8333 12.8333 10.9643 0 9 10.6 0 0 0 0 9 9 9 0 0 8.5 8.5 8.5 0 0 0 0 0 0 0 0 0 7.16667 0 7 9 9 0 0 9 8.5 0 6.2 0 6.2 6.2 0 0 0 0 0 10 8.34286 8.34286 8.34286 0 8.33333 0 9 9 9 0 0 0 0 11.4667 11.4667 8.66667 0 8.66667 10.75 12.5 9.5 0 9.5 10 17.3333 17.5 15 15 12 12.5 12.5 11.3333 10.619 10.619 10.619 6 6 0 14.5 14 0 16 0 0 0 0 20 19 20 19 20.5 21 0 22 23.25 0 0 0 0 0 0 24.3333 24.3333 0 0 0 28.5 28 0 32 0 0 32.5 34.1667 34 34 34 34.3333 0 33.3333 35.3333 34.3333 42.8 0 0 34.3333 50.5 0 0 43.75 38.95 79.5 50.25 43.75 37 0 39.5833 39.5833 35 34.5 34.5 34 34 33.25 0 0 33.5 33.5 33.5 33.5 33 0 32.5 32.5 33.75 33.6667 31.8333 31.8333 0 31.5 31.5 0 0 82 32 32 0 0 0 31 31 0 31 31 0 55 0 33.5 33.5 33.5 33.5 32.5 0 0 32.5 33.5 34 34 34 33.5 33.5 0 0 0 34 43.3333 43.3333 43.3333 0 60 35 0 0 33.6667 0 0 0 0 37.5 37.5 0 41.5 41.5 38 38 94 60 61 0 0 61.2778 61.2778 60.6667 60.6667 59.8333 59.8333 60.5 60.5 60.5 61 0 0 60 60 60 61 61 60.5 0 60.5 59.75 59.8333 60 60.5 60 60.5 60.5 53.125 59.5 59.5 60.3333 60.3333 0 60 0 60 61.5 59.6667 68.5 61 68.1333 68.1333 66 61.6026 59.7273 59.7273 61.5 60.5 64.5143 62.6 62.6 63.3333 65.6667 60.825 63 60.6667 60.6667 0 0 0 0 0 0 0 60 0 0 0 31 48 0 0 0 0 0 0 50.6667 0 0 0 0 48 50.5 50.5 50.5 48 54 0 0 44 0 46.5 46.5 45 0 0 0 0 0 47 46.5 0 0 48.5 50 0 0 51.8333 50.1667 57 0 0 60 61 61 0 0 61 0 58.5 58.5 57.7333 59.6667 59.6667 59.5 59.5 60 58.5 0 60 61.6667 57 59.1 59.1 61.5 61.5 60 60.5 61 57.0667 57.0667 0 59.5 59.5 57.0667 57.0667 56 60.1429 62.3333 62.3333 60 59.8571 59.8571 59.8571 59.8571 0 57.7619 60.75 61.8333 61.8333 60.2 60.2 60.5 60.5 59.4286 0 59.4286 0 57.6667 60.75 60.75 60 58 0 59 0 60 61.5 57 67 57 0 61.8333 55.6667 0 61.0833 0 61.0833 61.0833 59.5 48.7273 51.4 51.4 51.4 48.7273 48.7273 48.7273 47.0909 48.8333 0 0 45.8333 45.8333 57 36.25 36.25 52 54.1667 0 54.1667 54.1667 0 0 0 0 50 0 0 0 0 0 0 50 0 0 0 0 0 0 0 0 0 0 0 0 0 0 0 0 0 0 0 0 0 0 0 0 0 0 0 0 0 0 0 0 0 0 0 0 0 0 0
0 0 0 0 49.5 50 50 50 50.5 49.5 50 50 50 0 49.5 49.5 49.5 50 50.5 51 0 51 0 51 51 51 51 0 50 51.5 51.5 0 52 51 51 51 50.5 52 52 52 0 0 0 52 51.5 51.5 52 0 52.5 53 53 53.5 0 0 0 75.6667 0 0 0 0 0 0 0 0 0 0 0 0 0 0 0 0 0 0 0 0 0 0 0 0 36.1333 36.1333 0 0 0 0 0 0 0 0 84.6598 84.6598 0 40.7713 0 0 0 0 0 84.6598 84.6598 0 81.1905 0 0 0 0 0 0 0 0 0 38.8406 38.8406 0 0 0 0 0 0 0 0 0 0 0 0 0 0 0 0 0 0 0 0 0 0 0 0 0 0 0 0 0 0 0 0 0 0 0 0 0 9.33333 9.33333 9.33333 10.9643 10.9643 10.6 11 11 11 11 10.1667 9 0 0 0 8.3 8.3 8.3 8.3 0 0 7.5 7.5 7.5 0 0 0 0 0 0 9 8 9 0 8.5 8.5 8.5 8 0 8 10.6667 6.2 10 0 10 7.66667 7.66667 0 0 0 8 8 0 0 6.25 6.25 0 7 0 9 12.5 12.5 0 0 10.75 0 0 12.5 9.5 10.3333 10 0 12 12.4667 11.3333 11.3333 13.25 13.25 13.25 6 10.619 10.619 0 6 0 0 15.5 15.5 0 0 0 0 0 0 0 0 0 0 0 20 0 0 19 24 0 0 23 0 0 0 0 0 28 28 0 0 0 0 32 32.5 34.1667 34.1667 33.5 34.3333 34.3333 0 34 0 34.3333 0 0 32 54.6875 54.6875 54.6875 0 0 54.6875 0 39.0833 36.6667 0 0 41.5 0 37 0 0 0 39.5833 0 33.25 0 29.875 33 33 33 33 0 33.5 32.5 32.5 0 0 0 86 0 0 0 32 82 32 32 32 0 31 0 32 32 32 31 31 32 32 33 31.5 31.5 31.5 32.5 32.3333 32.3333 0 33 33 33 0 0 55 34 0 34 36 0 43.3333 54 35 35 34.5 0 35 0 0 43.5 33 0 0 0 0 0 0 0 92.6667 38 59.5 61 61.2778 0 61 61.2778 60.6667 0 61.3333 57.8333 61 0 0 0 60 58.3333 48.5 0 0 0 0 0 60.5 60.5 60.5 60.5 59.75 59.8333 60.5 58 68.5 68.5 58.5 66.5 59 60 61.1667 60 59.5 59.5 60 68.5 60.5 59.5 59.5 68.1333 66 66 61.6026 61.6026 59.7273 61.5 63 58.5714 58.5714 58.4 58.4 0 59.9 63 0 0 59.9 0 0 0 0 0 0 0 0 0 0 0 58.5 0 47 47 27.1429 45 46 45 0 0 48 48 49 0 0 0 47.6667 0 40.3333 50 0 44 48 45 45 45 0 46 51.5 0 0 0 47.5 47.5 0 0 59.5 59.5 52.5 0 0 0 0 0 0 58.9714 58.9714 59.75 59.75 56 55.6667 56 55.6667 57.7333 57.7333 58.75 0 58.8 58.5 62 58.5 59.25 59.25 58.4 58.4 60.75 59.1 57.4 57.4 58.8333 61 61 61 0 0 55.6667 61 0 60.1429 60.1429 0 0 58 59.8571 59.8571 59.8571 63.6667 0 0 63.6667 60.2 60.2 57.7619 59.4286 59.4286 59.4286 55.7333 0 56.3333 0 0 54 54 54 59 0 0 0 61.5 52 57 57 37.6667 0 67 61.8333 45.8333 48.8333 47.0909 47.0909 48.8333 47.0909 61.4667 58 48.7273 48.7273 48.7273 51.4 0 48.8333 34 32.9 54.5 0 37.5294 36.6667 48.3333 36.6667 0 0 45 0 0 54.1667 0 0 0 0 0 0 0 0 0 0 0 0 0 0 0 0 0 0 0 0 0 0 0 0 0 0 0 0 0 0 0 0 0 0 0 0 0 0 0 0 0 0 0 0 0 0 0 0
0 0 0 0 49 49.5 49.5 50 49 49.5 0 0 0 50 49.5 49.5 0 0 0 51 0 51 0 50.5 50.5 0 51 0 0 51 51 51.3333 52 52 52 52 0 51 51.5 52 52 0 51.3333 52 51.5 51.5 0 52 0 53 0 53 53 0 0 75.6667 0 0 0 0 0 0 0 0 0 0 0 0 0 0 0 0 0 0 40.7713 33.0774 36.75 0 0 0 33.0774 33.0774 0 59.75 0 0 0 0 0 0 84.6598 84.6598 36.1333 40.7713 37.0238 37.0238 0 0 0 0 0 81.1905 0 0 86.775 0 0 0 0 0 0 0 0 0 0 0 0 0 0 0 0 0 0 0 0 0 0 0 0 0 0 0 0 0 0 0 0 0 0 0 0 0 0 0 0 0 0 0 0 0 21.75 12.5 0 9.33333 9.33333 10.9643 9.33333 10.1667 9 9 9.5 10.5 10.1667 0 0 8.6 8.3 8.5 8.5 8.5 7.33333 0 0 0 0 10 6.5 6.5 0 0 7.5 9 9 8 0 0 0 0 8.5 8.5 0 8.5 8.5 7 8.66667 10 7.66667 0 0 0 0 0 0 9.5 0 0 0 0 6.5 9 0 0 7.83333 7.83333 8.5 0 9 8 0 10.3333 10.3333 17.6667 0 12 6 13.6667 13.6667 13.25 11 17 0 0 7.33333 0 0 0 0 16.5 0 0 16.5 17.1667 17.1667 19.5 0 0 0 0 19 0 21.3333 21.25 22.1667 21.25 22.2 24 0 29 26.5 0 0 0 28.3333 28.3333 28.1667 0 29 0 32.5 32 0 33.5 33.5 34.5 34 34.5 35 36 37 34.3333 0 0 54.6875 54.6875 54.6875 61.5 20.5 20 46.7333 41.3333 40.75 0 0 0 38 0 62.7143 79.5 62.7143 62.7143 46.8571 0 0 0 46.8571 46.8571 46.8571 79 0 34 34 17.6667 0 33 0 0 32 31.5 31.5 31.5 30.6667 0 30 30.5 30.5 31.5 31.5 32 32 32 32 0 32 32.5 32.5 32.5 32 32 32 32 33 32.3333 0 33 33 35 0 0 44 42 34.5 34.5 0 44 0 0 34.5 34.5 34.5 32 35 0 0 35.6 35 0 36 40.5 41 0 93.5 60.5 60.5 0 0 0 0 59.25 61.2778 61.2778 61.2778 0 61.3333 61.3333 61.1429 60.5 60.5 0 60 0 0 0 0 0 48.5 61 48.5 59.5 58.75 59.5 59 58.5 58.5 58 58.5 58.5 68.5 58.5 58.5 66.5 61.1667 61.1667 67 61 0 60.5 54.875 51.6667 58 59.3333 61 61 61 58.625 61.6026 59.7273 61.5 63 63 58.5714 0 0 0 0 59.9 59.9 59.9 59.9 0 0 0 0 0 0 0 0 0 0 0 53 53 45 34.5 30.6667 0 0 50.5 50.5 50.5 48 0 0 0 49 0 0 0 0 0 0 44 45 0 0 0 0 0 0 0 44.5 44.5 0 47.5 49 0 60 60 58.4 58.4 57.6 58.9167 58.9167 58.9167 59 58.9714 59.75 58.9714 58.9714 58.9714 59.75 56.1429 56.1429 56.1429 55.6667 61 58.75 58.75 58.8 59 59 59 58.5 59.25 0 58.4 58.4 58.4 0 57.4 0 0 57.4 58.8333 58.8333 55.6667 61 61 57.6667 0 0 56.5 58 60 60 0 59.5238 56 56 63.6667 55.7333 55.7333 57.5 64 55.7333 58 0 54.5 56 56.3333 56.3333 0 0 53.5 0 0 55.5 55.6667 56.5 56.5 0 0 37.6667 37.6667 36.25 36.25 45.8333 45.8333 45.8333 45.8333 66.5 61.4667 61.4667 47.0909 47.0909 52.2 0 52.75 49 61.8889 36.2 36.2 36.2 37.5294 37.5294 37.5294 37.5294 37.5294 36.6667 45 0 54.1667 0 37.5294 0 0 0 0 0 0 0 0 0 0 0 0 0 0 0 0 0 0 0 0 0 0 0 0 0 0 0 0 0 0 0 0 0 0 0 0 0 0 0 0 0 0 0 0 0 0 0
0 0 0 0 48.5 48.5 48.5 49 49 49.5 0 0 49.5 50 50 50 50 50 0 0 0 0 0 0 0 0 50 50 0 52 0 51.6667 52 51.5 51.5 51.5 52 0 0 0 52 0 0 52 52 52 52 52 52.5 0 0 52 0 0 90 0 0 92.6 0 0 0 0 0 0 0 0 0 0 0 0 0 0 0 0 0 0 0 0 0 7.6027 40.7713 40.7713 40.7713 66.5 40.7713 23.1915 0 0 0 0 38.8406 0 91.2857 0 0 0 0 0 0 0 0 71.375 0 0 10 0 0 0 0 0 0 0 0 0 0 0 34.9447 0 0 0 0 84.6598 84.6598 84.6598 84.6598 0 0 83.1111 0 0 66.5 0 0 0 0 0 0 0 0 0 0 0 0 0 0 0 0 0 0 0 21.75 0 11.25 11.25 11.25 0 0 10.5 9 9 10.1667 10.1667 10 0 0 0 8.5 8.14286 8.14286 7.33333 7.33333 0 8 8 8 0 0 0 0 8.66667 0 8 8 0 0 7.5 8 0 7.33333 7.33333 0 0 0 0 7 7 8.66667 8.66667 7 6 6 0 0 8 0 9 8 9 0 0 0 6.5 0 7.83333 0 9 9 0 9.33333 0 10 12.5 10.619 10.619 21 17 13.5 13.5 13.6667 0 16.75 9.66667 0 0 16.75 0 16 15 0 18.5 0 17.5 15.5 15.5 0 19 16.75 0 0 21.3333 21.3333 21.25 21.25 22.1667 24 0 0 0 26 0 0 28.5 28.5 28.3333 28.1667 28.1667 29.5 0 0 32.5 32.5 34 0 0 0 33.6667 0 0 0 49.75 0 8.26667 43.75 43.75 38.95 40.75 0 0 40.75 40.75 0 36.5 36.5 53 47 0 63 50.5 62.7143 40.125 39 0 36.6667 36.6667 46.8571 46.8571 36.6667 36.6667 36.6667 36.6667 36.6667 44 36.6667 0 0 0 0 0 29 0 0 36.25 36.25 46.5 30.5 0 31 62 45.5 61 0 0 0 58.5 58.5 58.5 57.3333 46.25 31.5 32 32.8333 32.8333 55 43.4 34 44 44 0 46.5 0 0 0 0 48 44 41 36.5 36.5 36 34.5 0 36 38 57 38 0 36 35.5 35.5 0 33 51.5 0 38 0 59.25 60 59.25 60 0 59.25 61.1429 61.1429 61.1429 61.1429 0 59.8333 60.5 62 0 0 60 58.3333 58.3333 0 58 58 58 59.5 57.6667 57.5 0 56.5 71.6 58 0 58.5 68.5 0 58.5 59 57.7917 60.5833 60.5833 54.875 60.5833 67 54.875 51.6667 59.4456 55.4048 55.4048 55.8052 58.625 58.625 61.6026 59.7273 61.5 64.5143 64.5143 58.5714 64.5143 62.6 58.4 58.4 58.4 58.4 58.4 60.3333 0 0 0 0 66.5 0 0 0 56 50.5 50.5 0 29.5 52.5 47 0 0 48 53 0 0 0 0 0 0 0 0 44 0 0 0 0 45 0 45 45 47 0 0 0 0 0 0 46.5 0 0 58.5 58.5 60 58.4 58.4 56 57.6 57.6 0 58.9167 57.1364 58.9714 58.25 57.1364 58.25 57.1364 57.1364 57.1364 0 56.1429 0 61 61 58.75 58.8 58.8 58.5 0 58.5 59.25 0 0 56.5 48 0 55.3182 55.3182 55.3182 57.4 55.5 55.25 55.25 55.25 55.25 55.6667 0 54 56 55.4667 55.4667 59.5238 59.5238 57 57 57 56.8889 57.5 55.7333 56.8889 53.3333 54.6667 54.6667 54 54 54.5 56 56 0 54.5 54.5 54.5 55.5 55.6667 55.6667 0 0 25 25 36.25 36.25 36.25 36.25 36.25 30.2308 28.5273 66.5 61.4667 61.4667 48.8333 48.8333 46.3333 47.0909 47.0909 61.8889 0 36.2 36.2 0 36.2 36.2 36.2 37.5294 36.2 36.2 37.5294 36.6667 37.5294 37.5294 48.3333 48.3333 37.6667 0 0 25 0 0 0 0 0 0 0 0 0 0 0 0 0 0 0 0 0 0 0 0 0 0 0 0 0 0 0 0 0 0 0 0 0 0 0 0 0 0 0 0 0
0 0 0 0 0 0 0 0 0 0 50 0 49.5 49.5 49.5 49.5 0 0 0 0 0 50.75 0 50.5 50.5 50 0 50 50.5 51 51 51.5 0 0 0 0 0 0 51.5 0 52 0 0 52 0 0 52 52 0 0 52 0 25.5 0 0 0 0 51.5 52 0 0 0 0 0 0 0 0 0 0 0 0 0 0 0 0 0 0 0 0 0 0 0 7.6027 0 0 0 36.1386 0 44.5 0 0 0 0 0 0 0 0 0 0 0 0 0 84.6598 0 0 0 0 0 0 0 0 0 0 0 0 0 0 0 0 0 0 0 0 0 84.6598 0 0 48.0725 84.6598 0 0 0 0 0 0 0 0 0 0 0 0 0 0 0 0 0 0 0 0 21.75 10.5833 0 10.5833 10.5833 10.5833 0 0 0 0 0 10.5 10.5 8.75 8.75 0 9 8.14286 9 8.14286 0 0 8.14286 8 8 9 9.5 9.5 9.5 0 8.66667 8.5 8.5 8.5 0 9 0 8 8 0 7.33333 0 8 8 8.8 8.8 0 0 0 0 6 6 6.5 0 0 7.5 7.5 7.5 0 0 0 7.5 9 7.5 0 0 9 0 9 11 0 0 10.5 19 21.25 17 0 0 0 0 16 15 16.75 16.75 0 0 0 0 18.5 17.25 0 0 0 0 0 0 15 0 0 20.5 21 21 21 21 21.5 22 22 0 0 26 25 25 27.8 28 27.5 27.5 29 30 29 0 0 0 0 33.5 33.5 0 33.6667 39 37 37 41.3333 0 0 30.3333 0 0 39.0833 0 0 0 41 41 47.6 47.6 0 33.5 33.5 0 34 33.5 39.5833 39 0 0 50.25 32.1667 32.1667 43.75 45.3 37.875 37.875 37.875 44 44 44 62 31.9167 31.9167 31.9167 29 31.9167 44 21.3333 22.3 22.3 46.5 31 0 57.5 57.5 11.6 0 0 18.75 0 0 23.3333 19.3333 57 32 10.75 31 32.6667 33.5 32.5 34 34 0 30 0 31.5 33.5 35.5 37 33.5 0 41 0 36 36 0 0 36 37.1667 43.5 43 36 0 41.5 0 0 0 57.5 60 0 0 0 54.6667 59.5 62.25 60.25 0 57 62.25 62.25 61.1429 55.8333 55.8333 55.8333 55.8333 0 60.6667 57.8333 57.8333 56.3333 56.3333 57.4167 0 56.3333 57.2 57.2 57.6667 57.5 57.5 0 0 56.5 71.6 57.3333 57.3333 0 58.8333 58.8333 59 57.7917 60.5833 56.5524 57.7917 0 59.9187 59.9187 59.4456 0 0 55.4048 59.3333 59.3333 55.8052 0 55.8052 64.5143 59.7273 59.7273 59.7273 58.5714 64.5143 58.5714 58.4 58.4 60.3333 0 0 60.3333 59.9 0 59.9 55.6333 0 0 41 50 50 28 78 56.5 0 50.5 50.5 50.5 0 52.5 0 0 0 0 48 0 51.5 51.9167 0 0 0 0 45 47.6667 47.6667 0 46 0 0 49.75 0 56 0 0 0 0 0 58 0 0 0 54.6905 56 57.6 57.6 56.1429 56.1429 0 53.5 0 0 57.1364 57.1364 57.1364 57.1364 55.3182 53 56.5 0 0 58.8 0 0 60.6667 55.2 56.1111 56.1111 53.6667 61.7 54.2857 0 55.3182 54.2857 54.2857 54.2857 55.3182 50.2 55.5 55.25 55.25 63.9 56 55.2 56 56 55.4667 55.4667 55.4667 56.8889 54.1 56.8889 0 54.1 56.8889 56.8889 56.8889 53.3333 53.3333 54.6667 54 54.5 54.5 56 55 54.5 54.5 54.5 60.8182 0 0 0 0 0 0 25 25 19.4762 25 30.2308 30.2308 57.3333 59 51.8333 61.8889 47 0 47 61.8889 61.8889 61.8889 36.2 0 0 0 36.2 32.9 36.2 36.2 32.9 32.9 34 32.9 37.5294 37.5294 37.5294 45.8333 37.6667 0 0 0 0 0 0 0 0 0 0 0 0 0 0 0 0 0 0 0 0 0 0 0 0 0 0 0 0 0 0 0 0 0 0 0 0 0 0 0 0 0 0 0
0 0 0 0 50 50 0 49 49 49.5 50 0 49.75 0 0 49.5 0 50 50.5 0 51.1667 51.1667 51 50.5 50.5 50.5 0 50.3333 50.5 51 51 51.5 52 0 0 50.3333 50.5 51 51.5 0 51 51 51.5 51.5 51.5 51.5 0 51.5 51.5 51.5 52 52 52.5 53 53 0 0 83 45.6667 45.6667 11.75 0 0 0 0 0 0 0 0 0 0 0 0 0 0 0 0 0 0 0 0 0 0 0 0 0 0 0 0 0 0 0 0 0 0 0 0 0 0 0 0 0 84.6598 0 0 0 0 0 0 0 0 0 0 0 0 0 0 0 0 37.0238 0 0 38.8406 0 0 0 0 37.0238 0 0 0 23.1915 0 0 0 0 0 0 0 0 0 0 0 0 0 0 0 0 0 0 0 0 0 0 0 0 0 0 10.5 9 8.25 7.15 0 8.75 12 8.66667 9 8.66667 7.15 8.75 8.14286 7.28571 8.14286 0 8 9 9 9 0 8.5 8.5 8.5 9 9 9 0 8.33333 8 8.66667 8 9 0 8 9.5 8.8 8.8 9.5 0 9.66667 0 6.5 7 7 0 9 9 8.5 8.5 0 8.5 0 10 9 9.5 11 9 0 7 11 0 19.5 19.5 0 9.66667 16.75 16 0 0 12.5 12.4 9 0 0 16.75 0 18 0 17 17.25 17.25 17.25 16 0 0 0 0 16.75 0 0 20.8333 20.8333 21 21 21 22 22 22 0 27 0 24.5 27.8 28 28 0 0 0 0 0 32.6667 33 32.5 32.5 33.6667 0 46 0 27.5 27.6667 38.5 58 41.3333 0 0 0 40.6 41.5 41.5 0 50.5 48.6667 47.6 32 40 39 43.75 0 0 33.5 34.75 28.1111 14.3 25.1667 38.375 14.3 11.75 30.3333 45.3 45.3 45.3 45.3 44 0 17.6667 0 0 15.3 15.3 15.3 21.3333 21.3333 32.5 24 24 22.3 24 31 0 17.5 30 32.3333 32.5 32.5 31.5 31.5 33 32 23.3333 32 0 22.5 32.6667 0 0 0 0 33.5 0 37 0 35 0 35.8 0 0 0 0 37.5 36.5 36.5 43.5 37.1667 0 0 37.1667 0 0 35.3333 36 0 72.1667 0 51 0 48 61 60.8333 54.3714 54.3714 55.5778 55.5778 60.25 57 57 53.9167 53.9167 0 0 0 0 0 60.6667 0 71.25 57.5 57.4167 57.4167 57.4167 56.3333 56.3333 57.2 0 57.6667 57.5 67.0591 56.5 56.5 58.5 56 0 56 57.3333 75.3 75.3 56.5524 56.5524 0 56.5524 56.5524 54.7917 54.7917 59.9187 59.4456 59.4456 0 55.4048 59.4456 55.8052 55.8052 55.8052 55.8052 55.8052 59.7273 59.7273 62.6 58.625 61.6026 59 58.5714 56.6667 0 58.4 0 0 0 59.6667 47.5 41 39.5 0 0 0 72 52 56.5 0 60.825 0 0 0 0 0 0 52.2747 52.2747 53 51 0 55.3333 55 55.8333 0 0 0 45 0 46 0 0 0 52 59 60 53.7143 54.1 54.1 54.1 53.5 58.3333 58.3333 54.5 58.3333 55.8 55.8 54.6905 61 0 54.6905 54.6905 0 55 0 0 57.1364 58.25 58.25 57.1364 53.0404 56.1429 0 56.5 52.5 52.5 54.4 54.4 55.2 56.1111 56.1111 56.1111 55.2 56.1111 56.1111 53.6667 53.6667 0 55.3182 54.2857 55.5 55.5 55.25 55.25 62.8571 65.25 0 76 54 55.2 55.4667 60 56.8889 50.5 54.1 54.25 0 54.1 53.2 54.1 56.8889 51.1667 51.3 52.9333 52.9333 53.5 52.5667 0 56.5 46.3 0 0 56.6667 0 0 0 0 28.0357 28.0357 28.0357 28.0357 0 59 59 0 59 59 46.5 0 46.5 0 61.8889 48 36.2 32.9 32.9 45.8 0 0 45.8 36.2 0 32.9 32.9 0 36.2 47.0909 0 45.8333 48.3333 45.8333 36.25 36.25 36.25 0 0 0 25 0 0 0 0 0 0 0 0 0 0 0 0 0 0 0 0 0 0 0 0 0 0 0 0 0 0 0 0 0 0 0 0 0 0 0
0 0 0 0 49.5 49.5 49.5 49 49 49 49 0 49.75 50 50 0 0 49.5 49.5 49.5 0 50.5 51 50.5 50.5 50.3333 50.3333 50.3333 50.5 51 50.5 50.5 0 52 52 0 50.5 50.5 51.5 0 51 51 51.5 51 51 51.5 0 0 0 51.5 52 0 51 51.5 0 0 53.0833 83 80 52.5 0 0 0 0 0 0 0 0 0 0 0 0 0 0 0 0 0 0 0 0 0 0 0 0 0 0 0 0 0 0 0 0 0 0 0 0 0 0 0 0 0 0 0 0 0 0 0 0 0 0 0 0 0 0 0 0 0 0 0 37.0238 0 0 0 0 0 0 0 95 0 0 0 84.6598 84.6598 84.6598 0 0 0 0 0 0 0 0 0 0 0 0 0 0 0 0 0 0 0 0 0 0 0 0 0 8.5 8.5 6.5 7.75 0 7.15 8.5 8.5 8.66667 7.15 7.75 6.23214 6.23214 6.23214 6.23214 6.23214 8 8 8.5 0 8.5 0 0 8 9 9 8.33333 8.33333 8 8.66667 8.66667 9 0 8 7.5 7.5 7.5 7.5 0 9.66667 0 0 7 9.66667 9 9.5 9.5 9 9.86667 9.86667 10.5 0 10 10.5 0 13 13 0 9 8 0 11 0 9.66667 18 15 12.4 0 13.1 13.1 0 14.5 0 0 0 0 0 0 0 0 0 15.3333 0 0 16 19 18.5 0 0 0 0 21 20.5 0 21.5 23 23 0 0 27 25 26 24.5 27 28 0 28.5 0 0 0 31 33 32.5 32.5 0 50.5 50.5 35 19.3333 27.6667 38.5 38.5 25 25 39 0 42 0 42 0 0 0 0 48.6667 41 38.3333 34 30.75 54.6875 20.5 20.5 46.7333 13 0 0 39 30.3333 28.1111 28.1111 29 50.25 50.25 30.0667 32.625 44 33 32 30.5 22.6667 22.6667 10 32.5 39 30.5 30.5 30.5 30.5 0 0 31.5 31.5 0 0 32.4 32.4 32.4 32.4 0 0 30.5 32 0 0 0 0 0 0 33 34 35 0 0 36 36 0 0 0 35.8 0 0 35 34.25 0 34.5 34.5 34.6 32 0 0 32 0 0 0 0 53 53.7222 53.7222 52.6515 52.6515 60.8333 54.3714 54.3714 0 55.5778 53.9167 57 57 53.9167 56.1778 56.1778 0 0 66.5 0 60.6667 0 59.5621 70.6667 0 53.2231 53.2231 58.7222 58.7222 52.0119 60.7 56.8 56.8 56.8 67.0591 67.0591 54.8 79.25 0 56.119 56.119 56.119 56.119 56.119 0 56.5524 56.5524 56.5524 54.7917 54.7917 54.7917 59.4456 0 59.4456 59.4456 59.4456 55.8052 55.8052 55.8052 55.8052 58.625 58.625 55.25 55.25 0 54.9167 54.9167 56.5 55.5 56.6667 0 56.5 60.3333 60.3333 55.6333 55.6333 0 0 42 0 51 0 0 0 0 55.3333 55.3333 0 49.3333 0 0 0 0 55.3333 55.3333 55.3333 0 55.5 55.8333 0 0 0 44.5 0 52.5 0 51.3333 61 0 52.5 53 53 53.7143 0 54.1 57.9429 57.9429 58.3333 59.25 58.3333 58.3333 55.8 55.8 68.5 55.8 54.6905 54.6905 55.5 54.5 0 51.0833 0 0 52.7143 52.7143 53.0404 53.0404 53 53 0 52.5 52.5 0 54.4 0 56.1111 60.6667 55.2 55.2 0 53.6667 53.6667 53.6667 0 55.3182 55.3182 0 55.3182 50.2 0 50.2 55.5 55.5 55.2 55.2 55.2 0 0 0 0 52.5 54.25 0 53.2 53.2 53.2 51.1667 51.3 52.9333 52.9333 52.9333 52.5667 52.5667 52.5667 56 0 55.3889 55.3889 55.3889 56.6667 56.6667 56.6667 56.6667 0 0 51.5 62.5 0 60.3704 48.3333 0 52.75 47.1667 47.1667 59 48.3333 48.3333 37.5294 37.5294 36.2 0 0 0 0 32.9 45.8 0 48.7273 48.7273 48.7273 48.7273 47.0909 47.0909 28.5273 28.5273 45.8333 0 45.8333 36.25 36.25 36.25 0 25 25 0 0 0 0 0 0 0 0 0 0 0 0 0 0 0 0 0 0 0 0 0 0 0 0 0 0 0 0 0 0 0 0 0
0 0 0 0 49.5 49.5 49.5 49 49 49 49 49 50 0 0 49.5 0 49 49 49.5 50 50.5 0 0 49 49 49.6667 50 50.5 51 51 51.5 0 0 50 50.5 0 50.5 0 51.5 51.5 51 0 0 0 51 50.5 51 52 52 0 52 52.5 56.25 20.25 20.25 0 53.0833 51.6667 51.6667 0 0 0 0 0 0 0 0 0 0 0 0 0 0 0 0 0 0 0 0 0 0 0 0 0 0 0 0 0 0 0 49.4167 0 0 0 0 0 0 0 0 0 0 0 0 0 0 0 0 0 0 0 0 0 0 0 0 0 0 84.6598 0 84.6598 0 84.6598 0 0 0 0 0 0 0 23.1915 0 0 0 0 0 0 0 0 0 0 0 0 0 0 0 0 0 0 0 0 0 0 0 12.6667 0 0 0 0 8.5 8.5 0 7.75 0 0 0 8.33333 0 7.75 8.33333 6 8.33333 6.23214 6.23214 6.75 8 6 8.5 0 0 0 0 8 9 9 0 0 0 9.16667 0 0 8 7.5 7.5 7 7 9.5 8.33333 9.66667 0 0 9.5 8.33333 8.33333 9 9 9 9.86667 8.5 11 0 10 10.6 0 10.8333 12 0 0 10.8333 12 0 0 0 0 0 9 0 0 0 17 18.5 0 0 18 0 0 17.5 17.5 0 0 0 0 0 20 20 20 19 19 18.5 18.5 16 18 24 0 22.5 0 23 0 26 25 26 25 25.5 0 0 29.5 32 0 31 0 0 0 32 13 35 35 19.3333 55 55 0 39 38.6667 0 39 41.5 41.5 41 41 35.75 0 41.6667 41.6667 38 39.5 38.3333 34 30.3333 43.75 38.95 0 39 36 0 29 0 50.25 28.1111 28.1111 29 29 43 50.25 43 30.0667 32.625 10.4444 31.75 31.75 31.75 30.5 0 39 39.1667 39.1667 30.3333 39.1667 31.5 30.8333 30.8333 0 0 33 29.25 29.25 32.4 0 33.5 31 25.8 32 34.5 0 0 0 0 33 40 0 33 0 35.5 35.5 0 0 36.5 36.5 0 0 0 41 0 38.3333 34.25 34.25 35 0 38.5 36 34.5 0 0 0 0 0 50.5 53.6349 55.2857 53.6349 53.6349 52.6515 60.8333 0 0 53.4333 53.9167 53.9167 53.9167 53.9167 0 0 56.1778 56.1778 33.4 59.95 66.75 0 59.95 66.5 53.2231 53.2231 53.2231 0 58.7222 58.7222 58.7222 52.0119 60.7 56.8 0 67.0591 0 79.25 56 56.119 54.8 56 59.4456 0 75.3 0 56.3333 56.5524 49 54.7917 54.7917 59.9187 59.9187 59.4456 59.4456 59.4456 59.4456 55.4048 55.4048 55.8052 55.8052 54.5 56 0 55 55.25 54 54.9167 56.5 0 56.6667 56.6667 56.5 0 60.3333 0 55 54.25 0 58.5 58.5 0 54 54 54 55.3333 0 0 63 63 0 0 54.5 0 55.3333 55.3333 0 55.5 55.5 49 0 0 54 56 56 0 0 51 51 55.1667 55.1667 50.9841 51 55.2 55.2 54 57.9429 57.9429 58.3333 59.25 58.3333 58.3333 53.8333 63.1429 63.1429 62.2 54.7 55.5 54.5 0 53 53 53.0404 0 52.7143 52.7143 0 53.0404 53 0 51.5 52.5 0 0 46.3333 52.5 56.1111 54.4 0 39.5 55.7 41 0 0 41 54.2857 54.2857 55.3182 52 0 0 0 51.5 0 53.2667 53.2667 53.3333 53.2667 53.3333 52 52 52.5 0 53.2 56 0 0 50.5 0 51.3 51.3 52.5667 60 56.6667 0 55.3889 0 49.5 49.5 55.3889 0 52.3636 63.25 52.3636 52.5 60.3704 0 0 0 61 0 47.1667 39 48.3333 50.5 48.3333 48.3333 48.3333 0 0 36.2 0 36.2 0 0 44.75 44.75 0 0 51.4 0 42.8 42.8 46.3333 0 34 28.5273 28.5273 0 30.2308 36.25 37.6667 0 25 25 0 0 25 0 0 0 0 0 0 0 0 0 0 0 0 0 0 0 0 0 0 0 0 0 0 0 0 0 0 0 0
0 0 0 0 48.5 48.5 48.3333 49 49 49.5 50 0 49.5 0 0 49.5 0 0 49 49.5 50 50.5 50.5 50.5 50 0 49.5 50 50.5 49.5 0 51.5 0 0 50 50.5 51 51 0 50.5 51 51 51.5 0 51.5 0 50.5 51 51 51.5 52 0 51 51.5 51.5 51.5 0 51.5 51.6667 0 69.6667 35 0 0 0 0 0 0 0 0 0 0 0 0 0 0 0 0 0 0 0 0 0 0 0 0 0 0 0 0 0 0 0 0 0 0 0 0 0 0 66.7143 84.6598 84.6598 84.6598 0 0 0 0 0 0 0 0 0 0 0 0 0 0 0 84.6598 84.6598 0 0 0 0 0 0 0 0 0 0 0 0 0 0 0 0 0 0 0 0 0 0 0 0 0 0 0 0 0 0 0 11.6429 11.6429 11.6429 11.6429 11.6429 11.6429 0 9.91667 8 0 0 0 0 0 0 0 0 0 0 9 6.75 6.75 6.75 6 0 8 7.16667 7.83333 7.83333 8.2 8.2 0 9 9 0 8.5 9.16667 9.16667 0 0 0 0 7.1 10 7.1 9 9.66667 0 6.5 9 9.66667 0 0 8.5 0 9.5 9.5 9 0 10.6 11.6667 12.5 12.5 11.6667 10.6 10.6 10.8333 8.5 10 0 18.5 18.5 17 17 0 14 12.5 16 0 17 0 0 0 0 17.5 0 0 0 17.25 17.25 0 0 20 0 0 0 18 0 18 0 23 24 0 25.3333 26 0 0 0 0 0 0 28.5 0 32 0 0 43 0 0 32.3333 57 50.8182 22.2222 16.3333 0 36.8333 36.8333 37.3333 38.5 0 0 0 41.5 41.5 41 0 41.3333 41.3333 41.6667 0 0 0 0 34.6 0 30.3333 0 0 35.6667 0 35.5 46.5 31.5 50.25 0 39.0833 40.75 39 35 35.75 43 18.4828 18.4828 0 22.6667 31.5 32.3333 0 25.3333 32.3333 31.5 31.5 31.5 0 31 31 31.5 0 0 0 33 0 0 0 32 32 32 0 32.5 34 36.3333 32 32 36.3333 0 33 33 33 0 0 36 36 36 36 0 0 41 0 0 0 34.25 0 0 0 67 38.5 34.5 0 56.25 55.5 55.5 0 55.2857 55.2857 53.6349 0 0 53.6349 52.6515 52.6515 0 51.9167 53.4333 53.4333 55.6 50.9429 56.7857 56.7857 53 50.9429 55.1538 55.1538 59.95 55.1538 33.4 59.95 53.6667 0 53.6667 0 58.7222 58.7222 58.7222 58.7222 53.2231 53.2231 52.0119 60.7 52.0119 67.0591 0 56 56.8 67.0591 54.8 54.8 0 55 56.119 75.3 62.2857 56.3333 62.2857 56.5524 59.9187 64.9138 64.9138 64.9138 0 0 0 55.4048 0 52 52.5 54.5 56 56 55.25 52.8333 53.6667 53.6667 0 55.5 56.6667 56.6667 0 0 54 54 55 54.25 55 54.25 53.5 53.5 53.3333 54 53.5 0 0 55.25 56 56 56.5 54.5 55 0 53.2 0 0 0 52 54.3333 54.3333 57.9429 0 0 0 0 0 0 50.9841 55.1667 55.1667 50.9841 50.9841 55.2 56 0 57.9429 55 58.3333 59.25 55 54.8036 0 53.8333 53.8333 62.2 0 56 51 48.5 51.0833 51.0833 51.5 53.0404 52.7143 53.0404 0 53.0404 53.0404 53 55.3571 51.5 0 47.5 48.5 0 45.5 46.3333 41.8333 41.8333 52 48.4364 48.4364 50 50 50 0 50.0417 50.0417 51.8 52.5 0 51.5 51.5 51.5 55.8 51.5 51.5 52.3333 59.5 59.5 52.3 0 0 0 52 52 53.9667 51.1667 0 0 79 75.5 0 47.5476 48.3333 52.3636 0 0 0 52.8 52.8 52.3636 52.3636 52.3636 52.3636 0 0 0 0 0 0 48.3333 48.3333 48.3333 48.3333 48.3333 50.5 50.5 0 42.75 46.3333 28.5273 0 0 46.3333 44.75 0 0 0 0 42.8 42.8 46.3333 46.3333 0 28.5273 37 30.2308 30.2308 38 0 0 0 0 25 25 0 28.0357 0 0 0 0 0 0 0 0 0 0 0 0 0 0 0 0 0 0 0 0 0 0 0 0 0
0 0 0 0 0 0 48.3333 48.2 0 50 0 0 0 0 0 48 48.5 49 49 0 50 0 49 49 49 49 49.5 49.5 49.5 0 50 50 0 0 50 0 51 88.5 88.5 52 0 51 51.5 51.5 0 50.8333 50.8333 51 51 51.5 52 52 0 51.5 51.5 51.5 51.3333 52 0 52.2 0 56.6667 56.6667 0 0 0 0 0 0 0 0 0 0 0 0 0 0 0 0 0 0 0 0 0 0 0 0 0 0 0 0 0 0 0 0 0 0 0 0 0 0 0 0 0 0 0 0 0 0 0 0 0 0 0 0 0 0 0 0 0 0 0 0 0 0 0 0 0 0 0 0 0 0 0 0 0 0 0 0 0 0 0 0 0 0 0 0 0 0 0 0 0 11.6429 11.6429 11.6429 11.6429 10.9 11.6429 0 9.91667 9.91667 0 7 8 8 8.5 0 0 0 0 8 0 0 0 0 6 6.66667 6.5 6.5 7.16667 7.83333 8.2 8.2 8.2 9 0 8.5 7 6 7.71429 8.5 8.5 7.5 7.5 7 7 7.1 8 0 0 6.5 7 7 0 0 8 9.5 8.75 8.75 8.75 9.5 9.5 9 0 0 0 10.6 0 11.6667 11.6667 28 19 19 16 12.5 17 14 13.5 14 14.9167 0 0 0 16.5 17 17 0 18.5 0 0 0 0 0 21 19.6667 0 19.6667 0 0 18.6 0 0 0 0 0 0 26 26 0 0 0 30 30 0 29 25.2667 25.2667 0 17.6667 17.6667 56 33.5 0 0 26 38 0 37.5 37.5 0 0 38 38 0 0 0 41 0 47.6 39.5 0 39 0 0 0 0 39 23.5 0 35.6667 25.3333 35.5 35.2 39.0833 32.7857 39.0833 40.75 34.8333 39.0833 36 0 39 33 48 37.7 37.7 0 32 0 0 0 33.3333 32 0 0 31 31 31.5 36 0 34 33.5 33.5 34 0 0 32.3333 31.5 0 36 0 0 0 33 33 0 33 33 0 33 33 34 36 34 36 36 36 0 0 0 41 0 39 34 0 54 0 0 0 56.25 60.8333 56.25 0 0 53.6349 0 52.6515 53.6349 0 55.2857 53.6667 53.6349 0 0 51.9167 51.0333 55.1538 48 0 53 56.7857 53 53 55.1538 0 0 0 0 0 0 0 52.0119 52.0119 58.7222 53.2231 53.2231 53.2231 0 58.7222 52.0119 52.0119 60.7 52.0119 67.0591 50.4333 0 67.0591 72.3 47.5 47.5 65.2 65.2 0 0 62.2857 62.2857 56.5524 59.9187 64.9138 53.8333 53.8333 64.9138 52 65 65 0 52 52.5 0 52.5 52.5 0 52.5 52.8333 0 53.6667 0 53 0 0 53.5 53 54 53 53 58.75 53.3333 53.3333 53.5 53.5 53.3333 53.3333 53.5 53 55.25 56 56 0 54.5 54.5 0 53.2 53.2 53 0 53.5 59.25 0 0 0 0 0 56 56 51.5 0 51 50.9841 50.9841 50.9841 51 50.9841 56 56 48.6 54.4762 55 55 55 61.1667 0 55 0 53.8333 62.2 54.7 54.7 54.7 51.0833 51.0833 0 0 52.7143 52.7143 50.6889 50.6889 52.3333 50.6889 52.3333 0 55.3571 55.3571 0 0 46.3333 41.8333 51.5 51.5 52 48.4364 48.4364 50 50 50.75 50.75 0 50.0417 0 52 51.5 0 51.6667 52.75 0 0 60 52.3333 52.3333 52.3 52.3 52.3 48 48.5 48.5 48.5 52 53.9667 56.25 70.8571 0 73.5 0 0 0 62.5 0 63.5 63.5 52.8 52.8 52.3636 57.5 57.5 52.3636 52.3636 52.8 54 0 48.3333 48.3333 39 0 50.5 50.5 0 50.5 30.2308 28.5273 28.5273 37 46 0 46.3333 46.3333 46.3333 42.8 0 0 0 0 0 0 44.75 42.2667 28.5273 28.5273 30.2308 30.2308 30.2308 31.6667 31.6667 19.4762 19.4762 19.4762 19.4762 0 0 0 0 0 0 0 0 0 0 0 0 0 0 0 0 0 0 0 0 0 0 0 0 0
0 0 0 0 0 48 0 48.2 49 0 49 49 49 49 0 49.1667 49.1667 49 49 49.5 50 0 50.5 50.5 0 49 49.5 0 0 0 0 50 50 50 50 0 0 50 50 50.5 51 0 0 0 0 50 50.8333 51 51 0 50.5 52 52.5 0 0 51 51.6667 52 0 52.2 0 51.6667 45.6667 45.6667 0 0 0 0 0 0 0 0 0 0 0 0 0 0 0 0 0 0 0 0 0 0 0 0 0 0 0 0 0 0 0 0 0 0 0 0 0 0 0 0 0 0 0 0 0 0 0 0 0 0 0 0 0 0 0 0 0 0 0 0 0 0 0 0 0 0 0 0 0 0 0 0 0 0 0 0 0 0 0 0 0 0 0 0 0 0 0 0 11.6429 84.5 13.5 11.6429 11.6429 0 0 0 13.3333 9.5 9.5 9.5 9 9 9 8.5 8.5 8.25 0 0 0 7 0 6.5 6.5 0 0 0 7 7 6 6 0 0 0 0 7.5 6 6 0 7.5 7.5 6.75 6.75 7.1 0 6 0 6.5 0 7 0 0 8 9 11 7.75 8.75 0 9.5 9 9.5 9.5 9.5 0 0 0 10 12.5 17 20 14.9167 14.9167 13.5 14.5 14.5 0 12.3 12.3 0 0 17 0 0 18.5 19.8333 0 0 19.8333 0 0 21.5 0 0 16 19.6667 0 0 0 20.3 0 20 25 25.5 26 0 27 0 26 30.1667 30.1667 0 42.5 32 7.5 0 24.1667 0 0 0 0 38 36.5 37 0 38.3333 37 0 0 0 0 0 0 39.8333 42 40 44.5 41 42.8333 43 0 0 0 0 0 0 0 35.6667 28 0 0 0 50.5 0 25.1667 0 0 20 0 40.75 33 33.5 33.5 0 0 31 0 0 32.5 32.5 33 0 0 32 0 33 33.5 0 0 33.5 32 34.6667 0 32.3333 32.3333 33.3333 33 33 0 0 35 33 0 34 33 0 33 33.5 0 0 36 0 0 35 0 0 0 0 0 0 0 0 34 0 68 58.6667 0 0 0 66 54.3714 56.25 0 0 0 0 53.6349 52.3333 0 0 52.3333 0 51.9167 51.9167 55.4 59.5621 66.5 0 0 55.1538 47.15 0 71.5 0 58.3333 57 22.8333 50 0 71.5 59.5621 59.5621 59.5621 57.875 57.875 58.7222 58.7222 58.7222 53.2231 58.7222 0 0 50.4333 50.4333 0 0 67.7 66.25 72.3 0 47.5 65.2 55 0 62.2857 62.2857 56.3333 0 59 53.8333 43.5714 43.5714 65 65 85 52 0 52 52.5 51 52.5 52.5 52.8333 51 52 53.6 53.6 52.5 53 0 0 52 52 55.5 55.5 58.75 58.75 53.3333 53.5 58.2 62.5 0 0 51 49.6667 49.6667 0 49.5 0 53.1667 53.1667 58.3333 0 55.2857 51.6667 53.5 0 58.3333 54.8036 57.9429 48.6 56 55.2 51.5 0 49.8182 50.9841 50.3968 51.5 50.3968 0 49.8182 49.8182 49.8182 49.8182 49.8182 48.6 0 55 54.8036 54.8036 0 0 60.6667 0 0 47 55.3571 50.75 47.8929 50.75 51.0833 52 0 50.6889 49.5 49.5 50.6889 50.4167 0 52.8333 0 52.5 0 52.75 50.7 52.8333 52.8333 51.5 52.3333 48.4364 0 50.5 0 52.5 51 51 49 49.5 55.2222 0 57 57 56 56 58.6667 58.6667 60.8333 60.8333 48 52.3 48.5 48.5 48.5 50.5 54.3333 51.5 70.8571 0 0 0 70.8571 0 0 0 0 63.5 63.5 52.8 52.8 47.5476 55.3889 57.5 52.8 52.8 57.5 0 59 0 0 0 19.4762 0 31.6667 38 0 0 27.75 42.2667 0 0 0 0 0 0 0 0 0 0 0 0 0 0 0 0 0 37 34 30.2308 0 0 30.2308 0 0 0 0 0 0 0 0 0 0 0 0 0 0 0 0 0 0 0 0 0 0 0 0 0 0
0 0 0 0 0 46.5 47 47.5 48 49 49 0 47.5 47.5 49 49.1667 48.5 49 0 48 48.5 49 0 0 0 0 0 0 50 51 0 0 48.5 48.5 48.5 49 49.5 0 50 50.5 51 0 49.5 49.5 49.5 50 50.5 51 51 0 50.8333 51 51 0 0 50.5 50.5 52 0 52 0 51.6667 51.6667 0 45.6667 45.6667 45.6667 0 0 0 0 0 0 0 0 0 0 0 0 0 0 0 0 0 0 0 0 0 0 0 0 0 0 0 0 0 83.1111 0 0 0 0 0 0 0 0 0 0 0 0 0 0 0 0 0 0 0 0 0 0 0 0 0 26.8636 26.8636 26.8636 0 0 0 0 0 0 0 0 0 0 0 0 0 0 0 0 0 0 0 0 0 0 0 0 0 0 0 13.5 0 10.9 10.9 10.9 10.9 0 0 0 0 0 0 0 8.66667 0 0 0 8.25 8.25 8.25 8 0 7 7.5 0 0 7.25 0 0 6.5 0 0 0 0 0 7.5 8.5 8.5 8.5 8 7.5 7.5 7.5 7.5 6.75 0 8 0 6 8 7 6.5 7.28571 8 0 7 7.75 9 0 8 9.5 10 0 0 0 0 0 0 9 14.1 14.1 12.3 12.3 12.3 13.8333 13.8333 13.8333 13.8333 0 0 17 0 17.5 0 18 0 0 15.8333 21 0 0 21 0 0 21 21 0 21 20.3 0 0 0 25 25.5 26 0 0 26.6 56 30.1667 56 30.5 12.3333 54.5 54.5 24.1667 23.5667 23.5667 0 34 34 0 36 38.3333 0 41.5 38.3333 0 38.6 39 39.5 39.5 42 31 34.6 34.6 34.6 41 38.3333 42.8333 43 42.8333 42.8333 0 0 47 64 44 0 0 25.1667 0 0 35.75 0 33.5 0 0 24 31 35 38.5 38.5 37 23.5 23.5 0 0 0 36 36 0 35.5 31 0 35 35 0 0 0 34 31 0 34.6667 33.3333 33.3333 34.6667 0 0 33 0 0 34 34 37 0 33.5 0 33.5 34 34 34 0 35 35 0 51.5833 51.5833 0 0 0 33.75 33.75 73 62.25 0 0 0 58.6667 58.6667 55.5778 55.5778 57 0 53.4333 55.1 55.1 60.8333 60.8333 52.1154 0 48.2615 52.3333 51.9167 49 0 51.0333 60.6667 51 47.15 0 47.15 55.1538 47.15 47.15 50.9429 50.9429 0 0 54.8 0 33.4 0 0 53.3571 57.875 57.875 64.1667 64.1667 0 53.2231 64.1667 0 0 50.4333 0 0 67.7 66.25 72.3 53.6667 47.5 52.1667 51 51 51 83.2857 83.2857 71.1667 51.5 51.5 0 0 46 65.5 65.5 89.6667 73.8333 53 0 51.25 75.75 0 0 51 51 52 53.6 52.5 0 0 52 52 0 73 49.7727 58 58 53.1667 58 58 62.5 0 53 51 51.9167 0 50.5 50.5 50.5 49.5 50.5 0 0 0 0 0 53.5 0 61.1667 61.1667 55 0 56 56 0 0 49.8182 50.3968 51.5 51.5 50.3968 0 50.3968 0 49.8182 47.3333 47.3333 50.375 53.5 50.375 55 54.8036 54.8036 48.1667 59.75 59.75 48.9333 0 48.9333 50.5 50.75 47.8929 47.8929 48 47.8929 49 0 0 50.4167 50.4167 51 52.8333 52.8333 52.5 52.75 0 0 50.7 0 0 0 48.8214 50.25 49.6667 50.5 0 50.25 49 49 0 0 55.2222 57 0 56 0 0 48.8333 50 0 0 59.25 0 59.75 0 0 0 0 70.8571 0 0 70.8571 70.8571 43.5 44.5 47 0 52.8 57.5 0 47 47.5476 47.5476 0 42.75 47.5476 42.75 45.2857 45.2857 0 0 26 0 45.5 0 42.7 0 0 27.75 0 42.2667 44.5 44.5 0 0 0 0 0 0 0 0 0 0 0 0 0 0 0 30.2308 0 0 0 0 0 0 0 0 0 0 0 0 0 0 0 0 0 0 0 0 0 0 0 0 0 0 0 0
0 0 0 0 0 0 47 47.5 48 48.5 49 0 0 0 0 48 48.5 49 49 0 48.5 49 48.8333 48.8333 49 49 0 48.5 49 49.5 50 49.6667 49.6667 0 48.5 50 0 50 50 0 0 50 50 50 0 50 0 49.5 51 50.8333 50.8333 50.3333 50.3333 49.2 49.2 49.2 50 50.5 51 0 50 0 51 51 0 50.5 50.5 51 50 50.5 0 0 0 0 0 0 0 0 0 0 0 0 0 0 0 53.3333 0 0 0 0 0 0 0 0 0 0 0 0 0 0 0 0 0 0 0 0 0 0 0 0 0 0 0 0 0 0 0 0 0 0 0 0 0 0 0 0 0 0 0 0 0 0 0 0 0 0 0 0 0 0 0 0 0 0 0 0 0 0 0 0 0 0 12.3333 0 12 12.4 12 12 12 0 10 0 0 0 0 0 9 8 9 7.86667 6.7 6.7 7.5 8 8 7.5 7.25 7.25 7.25 8.5 0 0 8.5 0 9.5 0 0 8 8.5 8.5 0 8 7.83333 7.83333 7.83333 8 6.75 7.5 8 0 6.5 8 0 0 6 8 7.5 9 9 7.75 7.75 8 0 48.5 0 0 0 10 13 12 9.5 13 15.75 15.75 15.75 14 13.8333 13.8333 11.5 11.5 13.5 0 0 17.5 18 18 18 0 0 17.5 17.5 15.8333 15.8333 18 18.6667 18.6667 21 0 21 21.1667 21.1667 0 23.5 0 0 22.5 26 0 0 25 33.6667 30 0 30.5 31 32 32 38.8667 32.5 32.5 0 34 34 35.3333 36 38 39 0 41.5 0 36.3333 39 0 0 39.5 41 0 0 42.8333 41.5 0 0 43.5 0 0 49.3333 45.5 0 0 44.1667 42.4 0 0 0 0 34.8333 0 0 0 0 0 34.6 32.5 32.5 0 0 0 43.5 0 0 32 0 0 36 30.8 33 0 35 35 33.6667 0 32 0 0 31 31 33.5 0 0 30.5 35 33 0 33 35 0 0 0 0 0 0 0 0 34 35 35 0 0 0 0 51.5833 0 51.5833 0 0 54 62.25 60.25 60.25 0 57.3333 57.3333 55.6 53.4333 54.2 0 0 0 52.4 55.1 57 0 0 52.3333 52.3333 48.2615 52.3333 48.2615 65.3333 55.4 55.4 58.3333 0 0 0 51.0333 51.0333 48 45.8611 0 50.9429 50.3333 50.3333 56.7857 56.7857 50.9429 56.25 53.3571 53.3571 53.3571 57.875 57.875 73.3333 57.875 57.25 64.1667 67.75 51 51 50.5 52 73 53.6667 53.6667 52.1667 52.1667 0 51 51 51 83.2857 71.1667 70 81.3571 81.3571 45 46 46 71.25 89.6667 0 73.8333 51.25 51.25 51.25 75.75 51.5 51.5 51 0 47.254 49.5 47.254 0 51 50.8667 0 0 50.8667 49.5 0 50.6 50.6 52.2747 52.2747 0 0 52.2747 51.9167 51 51 50.5 50.5 0 0 49.6667 50 50 0 0 0 0 0 0 0 0 0 55 49.8182 50.1667 50.1667 0 0 50.3968 0 0 0 0 50.3968 49.8182 48 47.3333 47.3333 53.5 50.375 53.25 0 0 0 50 59 59 48.9333 50.5 50.75 0 0 0 48 65.5 0 0 50.4167 55 68 62.6667 51.6667 51.6667 0 0 51.3333 50.5 50.5 50.6667 59 0 48.8214 50.25 48.8214 49.5 50.25 0 49.5 0 0 55.2222 52.4 56.3333 0 0 48.8333 0 0 0 0 65.1667 65.1667 0 0 0 0 0 0 65.1667 65.1667 70.8571 51.5 51.5 44.5 49.5 0 38.3333 0 50.3333 0 0 48.3333 48.3333 42.75 42.75 47.5476 47.5476 45.2857 0 49 0 45.5 48.5 48.5 0 42.7 0 0 28.3333 0 0 0 0 0 0 0 0 0 0 0 0 0 0 0 0 0 0 0 0 0 0 0 0 0 0 0 0 0 0 0 0 0 0 0 0 0 0 0 0 0 0 0 0 0 0
0 0 0 0 0 0 48 48 0 47 0 49 49 49 0 48 48.5 47.6667 48 48 48.5 48.5 48.5 48.8333 49 49 49.3333 0 49 49.5 50 49.6667 49.3333 49.5 49.6667 0 0 0 0 50.5 0 50 50 50 50 50 0 49.5 51 49.5 49.5 0 50.3333 49.2 49.2 49.5 50 50.5 51 0 51.5 0 77.5 51 50.8333 50.8333 51 51 50 50.5 0 0 0 0 0 0 0 0 0 0 0 0 0 0 0 0 0 0 0 0 0 0 86.1988 0 0 0 0 0 0 0 0 0 0 0 0 0 0 0 0 0 0 0 0 0 0 0 0 0 0 0 0 0 0 0 26.8636 0 0 0 0 0 0 0 0 0 0 0 0 0 0 0 0 0 0 0 0 0 0 0 0 0 0 0 0 0 12 12 12 9.83333 9.83333 9.83333 9.83333 10.8333 10.8333 0 0 0 0 8 0 7.86667 7.86667 7.5 7.5 7.5 8 7.66667 7 7 7 10 0 0 9.5 9.5 9.5 0 0 7.5 7.5 7.5 7.5 0 7.83333 7.83333 0 7.83333 7.66667 7 0 0 7.5 7.5 7 6.66667 7.5 7.5 7.5 0 8 0 0 0 7.5 8.5 11 0 10.1 10.1 0 12 12.5 0 0 14 14 14 14 13 12.5 12.5 9 16 16 16.3333 18 17.5 17.5 17.5 0 0 0 17.5 17.5 18 18.6667 19 20.6667 0 0 21.1667 0 0 23 23.5 25.5 26 26 26 0 25 26 0 0 0 0 31.3333 29 0 0 0 36 35.5 35.5 0 37 0 0 0 38.5 38.5 0 38.5 38.5 0 0 40.5 40.5 0 0 0 0 44.3333 44.5 0 0 43 0 45.5 0 0 0 0 0 0 0 34.8333 0 0 0 0 0 0 25.5 39 39 41 41 43.5 33.5 33.5 0 33 0 0 34 34 0 0 0 33.6667 33.6667 33 0 0 33 0 0 0 0 0 0 0 0 0 0 35 38 36.6667 36.6667 0 30.5 0 34 35 35 35 0 0 49 48.7 87 0 48.7 55.4 0 0 73 56.1778 61.5714 53.9167 0 62 60.5 60.5 0 57.3333 55.6 53.4333 54.2 54.2 52.1154 52.1154 58.5 54.2708 52.1154 51.9167 48.2615 48.2385 71.1429 65.3333 55.4 55.4 54.2708 54.6667 48.2385 48.2615 49.7308 59.5621 0 0 45.8611 48 44.675 44.675 44.675 56.7857 50.9429 58.7222 53.3571 53.3571 53.3571 0 0 46.9143 46.9143 54.1429 57.25 67.75 51 51 50.5 50.5 0 33.4 50 61.5 79.1 0 0 68.3333 68.3333 70 12.5 0 70 81.3571 0 45 66.4 65.6429 65.5 100.786 0 71 49 49.5 0 49.5 66.2 66.2 0 53 0 53 75.1667 47.254 47.254 51 49.5 0 47.7333 48 50.8667 50.6 53.5 53.1667 49.7727 49.7727 52.2747 51.9167 0 0 0 0 68.8 68.8 0 49 49 49.5 49.5 54.7 62.2 62.2 63.1429 61.1667 0 0 0 0 0 48.6 54.4762 49.8182 54.4762 0 51 0 48 48 44.7778 44.7778 47 47.3333 47.3333 53.25 50.375 50.375 48.1667 51.1667 51.1667 0 0 52.5714 60 51.75 61.75 53.5667 48 48.3333 48 49 66 0 48 55 55 51.6667 0 51.6667 0 0 51.3333 50.6667 50.6667 0 48.5 48.8214 50.5 48.6667 48.8214 48.8214 89 56.6 0 0 58 0 49.5 0 58.8 26.9286 26.9286 52.4 26.9286 0 0 0 51.6667 51.6667 0 51.6667 65.1 65.1 0 65.1667 0 0 51.5 51.5 0 0 0 0 0 0 0 0 0 48 47.8 47.8 47.8 0 49.875 0 0 0 0 41.3333 0 0 0 0 31 28.3333 28.3333 0 65.1667 0 0 0 0 0 0 0 0 0 0 0 0 0 0 0 0 0 0 0 0 0 0 0 0 0 0 0 0 0 19.4762 28.0357 28.0357 0 0 0 0 0 0 0 0 0
0 0 0 0 0 46.5 47 0 0 0 0 48 47.5 47.5 47.5 48 47.6667 47.6667 48 48 48.5 48.5 48.5 0 0 48 49.6667 50 0 49.5 50 49.3333 49.3333 49.5 49.6667 49.6667 50 50 49.75 51 0 49.6 49.6 49.6 51 51 51 48 49.5 50 50.5 0 49.5 49.5 49.25 49.5 0 49 49.5 50 50 50.5 0 0 0 0 0 0 0 50.5 51 0 0 0 0 0 0 0 0 0 0 0 0 0 0 0 0 0 0 0 0 0 0 0 0 0 0 0 0 0 53.5 0 0 0 0 0 0 0 0 0 0 0 0 0 0 0 0 0 0 0 0 0 0 0 0 0 0 0 0 0 81.1905 0 0 0 0 0 0 0 0 0 0 0 0 0 0 0 0 0 0 0 0 0 11 0 12.4 12.4 12.4 11 11 9.83333 9.83333 9.83333 9.83333 0 0 10.8333 8.5 8.5 0 7 7.33333 0 0 7.5 7.5 7.66667 8.66667 7.66667 0 8 0 0 10.9333 10 0 0 8 8 8 0 0 8 7 7 7 0 7.66667 7.66667 7.5 0 7.5 6.66667 0 7.5 0 7.5 0 0 0 9 0 0 8 0 11 13 13 0 12.6667 0 12.5 0 9 17 17 14.6667 12.5 0 14.6667 14.6667 0 16 0 0 18 17 18 0 0 0 16.4 16.5 16.5 0 0 17.8 20.6667 20.6667 20 0 0 0 23.5 0 25.5 26 26 32 0 27.1667 0 28.5 0 32 0 31.5 33 0 34 0 34 35 37 37 37 40 40 0 0 0 0 35.75 0 0 25.5 0 0 41 43 0 42.5 42.5 41.3333 44.5 41.3333 45.5 0 0 0 0 0 0 0 0 0 0 0 0 0 0 0 0 0 0 41 0 48.6667 33.5 33.5 34 0 0 0 0 0 0 0 35 35.5 0 0 35.5 0 0 0 0 0 0 37 37 38 38 35.5 0 0 0 0 36.6667 0 0 42 0 0 35 35 35 0 0 60.3333 56 0 54 0 0 71.25 60.6667 55.4 55.4 64.75 0 0 64.75 61.5714 53.9167 53.9167 50.3333 50.3333 50.9429 0 54.2 54.2 55.4 55.4 58 0 0 55.4 55.4 60.1389 60.1389 54.6667 47.9 47.9 0 47.9 48.2385 48.2385 59.5621 51.0333 0 0 0 0 0 53.4583 44.675 44.675 44.675 35.5 0 0 0 46.65 0 51.1429 46.9143 54.1429 57.25 51.5 73.1667 0 59.5429 79 54.8 33.4 33.4 0 61.5 0 0 79.1 81.1667 72.5 0 0 85.7692 40.5385 61.0794 80.5 66.4 66.4 65.6429 65.6429 100.786 71 49 49 49.5 49.5 66.2 66.2 59.1667 0 60 66.2 0 47.254 47.254 47.254 0 0 58 48 48 0 48 50.6 49 49.7727 49 52.2747 0 53 0 50 50 0 0 0 50 50 0 0 0 63.1429 62.2 63.1429 54.8036 61.1667 0 0 53.25 48.6 55 53.25 0 0 47 51 0 48 48.1 48.1 44.7778 48 47.3333 47.3333 50.375 50.375 58.4 58.4 0 51.1667 52.5714 51.75 51.75 0 51.75 61.75 0 0 48.3333 50 66 0 0 48 55 55 62.6667 51.6667 51.6667 0 0 53.9 53.9 0 50.5 66.3333 39.9167 0 61 61 48.8214 52.5 56 45.3333 0 49.5 0 0 0 26.9286 0 26.9286 52.4 0 54.5 0 0 46.75 0 0 0 57.6667 0 0 0 0 43.5 0 51.5 0 0 0 0 0 0 27 45.5 45.5 0 0 0 0 43.7857 0 0 0 45 0 0 49 0 0 0 42.7 42.7 42.7 28.3333 31 31 0 0 0 0 0 0 0 0 0 0 0 0 0 0 0 0 0 0 0 0 0 0 0 0 0 0 0 0 0 0 26 0 0 0 0 0 0 0
0 0 0 0 0 0 0 47.3333 48 48.5 0 0 0 47 47.5 48 0 47.6667 48 48 48.3333 48.5 48.5 48.5 49 0 47.5 48.5 49 0 48.8 0 0 48 0 49 49.5 50 50 49.75 49.75 48.75 48.75 48.75 48 49.6 49.6 48 0 0 49 0 0 0 0 49.6667 50 0 49.5 50 50 50.5 0 51 0 0 49.6667 50 50 50.5 50.5 50.5 0 0 0 0 0 0 0 0 0 0 0 0 0 0 0 0 0 0 0 0 0 0 0 0 0 0 0 0 0 0 0 0 0 0 0 0 0 0 0 0 0 0 0 0 0 0 0 0 0 0 0 0 0 0 0 0 0 0 0 26.8636 0 0 0 0 0 0 0 0 0 0 0 0 0 0 0 0 0 0 0 0 12.5 11.8 10.1667 10.1667 11.1 11.1 11.1667 11 11 11 9 9 9 9 9 9 0 7.33333 7.33333 0 7 0 9 9 9 10.3333 7 10.9333 8 8.5 10.9333 0 9 9.33333 8 7.5 7.5 0 8 8 8 0 0 8 0 0 8.5 0 6.66667 0 0 0 7.75 7.75 8 0 7 7.66667 0 11 9 9 12.25 13 13 0 29 12.5 0 12.5 12.5 0 13.5 15 17.8333 12.5 0 14.5 0 17 17 17 0 17.6667 18.5 0 18 0 18 18 19.5 17.5 0 19 0 22.5 22.5 0 0 0 0 25 24 26 40.5 32 0 0 25 0 0 0 32 31.5 33 0 0 0 34 34 0 0 37 0 39.5 0 42 38 38.5 0 0 0 0 41 0 43 43 0 0 42 43.3333 0 41.3333 0 0 0 0 0 0 0 0 9 33.5 46.5 0 0 0 0 0 0 0 35.75 41 41 0 0 0 34 0 0 35 0 0 0 0 35 0 0 0 36 0 37 37 0 0 0 0 0 0 0 0 0 47.8333 48.5 0 0 48.6667 48.6667 0 0 0 0 0 35 0 0 36.8333 36.8333 36.8333 86 49 49 48.7143 71.1429 55.4 55.4 0 66.5 66.5 0 64.75 53.9167 0 61.5714 50.3333 50.9429 50.3333 61.5714 61.5714 50.3333 31.3333 59.5 59.5 0 54.2708 54.2708 49 54.2708 49 48.2385 48.2385 51.5 48.2385 47.9 47.9 48.2385 48.2385 48.2385 49.7308 0 0 0 51.8413 0 53.4583 62.25 44.675 35.5 67.75 53.9 37.5682 46.65 46.65 0 45.9 45.7778 50.8444 0 0 0 59.5429 0 54.8 33.4 33.4 50 61.5 49.75 49.75 49.75 49.75 49.75 0 0 40.5385 40.5385 40.5385 61.0794 80.5 66.4 65.6429 65.6429 65.6429 79.2222 79.2222 0 49.5 0 49.5 0 0 0 69.75 69.75 69.75 0 0 0 48.3333 0 0 47.7333 47.7333 47.7333 48 46 49.5 49.5 49.5 53.1667 0 45.75 0 0 72 100.5 0 0 42 40.6667 49.75 0 0 0 46 62.2 62.2 63.1429 62.2 63.1429 61.1667 0 0 50.375 53.5 47.3333 46 0 48.6667 48.75 47.5 48.6667 48.6667 48.1 0 0 44.8 54.1 0 54 50.5 49 50.5 50.5 0 0 0 0 53.5667 53.5667 48.3333 61 57.4429 36.125 0 57.4429 57.4429 76.9 76.9 48.75 72.6 72.7 75.375 0 65.125 54.8333 66.3333 39.9167 37.8 0 50.5 61 37.8 48 0 0 0 0 45.3333 0 41.6667 42.6667 0 26.9286 0 26.9286 42.6667 42.6667 46.75 42.6667 42.6667 0 0 0 0 0 0 0 0 48 0 46.8333 0 0 46 0 0 43.1 45.8333 46.4444 0 0 41.1667 41.1667 43.7857 43.7857 42 42 45 0 41.2 45.5 41.3333 54.3333 54.3333 0 0 0 28.3333 0 0 0 0 0 0 0 0 0 0 0 0 0 0 0 0 0 0 0 0 0 0 0 0 0 0 0 0 0 0 0 0 0 0 0 0 0 0 0
0 0 0 0 0 46.5 47 46 46.6 47 47.5 47.5 47.5 46.5 47.5 48 48.5 49 0 48 48.6667 0 0 0 47 47 0 47.5 48.1667 0 49 49 49 48 48.5 49 49.5 49.5 49.5 48.5 48.5 48 48 48.75 48.6667 49 0 49 48.3333 49 0 48.5 49.5 49.5 49.5 0 49 49 49.5 50 50 50.5 51 0 50.1667 50.1667 50 50 50 50 50.5 50.5 0 0 0 0 0 0 0 0 0 0 0 0 0 0 0 0 0 0 0 0 0 0 0 0 0 0 0 0 0 0 0 0 0 0 0 0 0 48.25 0 0 0 0 0 0 0 0 0 0 0 0 0 0 0 0 0 0 0 0 0 0 0 0 0 0 0 0 0 0 0 0 0 0 0 0 0 0 0 0 0 0 0 0 10.1667 12.5 0 10.3333 10.3333 11.1667 11.1667 11.1667 0 9 9 9 0 0 0 7 8.1 7 7.5 9.4 0 10.6667 10.6667 8 10.6667 10.9333 10.9333 8.66667 8 0 0 0 8.66667 8.66667 8 8 8 8 8 7 9 8 8 7.66667 10 10 8 8 8 0 0 9 0 0 0 0 0 12 0 7 12.25 9 0 12.5 29 11 0 0 18.5 23 16.3333 17.8333 17.8333 12 0 0 13.5 17.5 17.5 18 0 17.6667 18.5 0 0 0 18 19.5 0 22 0 0 22.5 22 22.5 0 0 0 25 52 52 52 38 26 0 0 27.1667 23 0 28 0 0 32 0 0 0 0 0 37 38 0 41 0 0 37 39.6667 38.5 0 40 38 41 35.5 42 0 49.6667 38.375 35.75 35.75 0 42.5 0 0 0 0 44.5 0 0 0 0 23 39.8333 46.5 47 0 0 0 0 0 0 0 0 23.5 0 0 0 35 0 0 36.1333 0 0 0 0 0 36.1333 36.1333 0 37.3333 37.3333 37.3333 39.5 0 0 0 0 0 0 0 0 0 0 47.8333 50 50 0 49 0 49 0 35 42 35 0 46.8 0 0 0 36.8333 77.3333 49 49 0 0 71.1429 0 55.4 60.6667 65.3333 65.3333 0 0 47.15 50.3333 61.5714 50.3333 50.3333 58.75 50.3333 60.1389 0 31.3333 45.8611 42.5 0 0 0 49.7308 49.7308 49.7308 43.75 47.2 47.2 47.2 47.4 47.4 47.4 47.4 47.2 47.3333 43.75 47.95 46 51.8413 48.875 52 60 46.25 47.8333 60 37.5682 37.5682 46.65 0 45.9 45.7778 62.2222 62.2222 62.2222 62.2222 59.5429 33.1429 41.5758 44.8095 48.4167 48.4167 53.25 47.6 0 71 58 49.75 49.75 34.1429 40.5385 85.7692 40.5385 46.5 40.5385 61.0794 65.6429 65.6429 65.6429 0 32 58 100.786 45 71.8 90.6667 43.5 45.5 45.75 45.75 46.2143 46.25 46.25 0 46 48.3333 45.3571 45.3 45.3 47.7333 46 48 48 50.6 44.4 45.25 44.5 68.75 68.75 68.75 0 0 0 50 0 68.8 68.8 45.5 45.5 0 0 46 62.2 59 0 59.75 0 58.4 58.4 45.75 0 48 0 47 48.1 48.1 47.5 46.8 45.1667 45.1667 47.8667 47.8667 48.3333 48.3333 48.5 52 0 51.3333 51.3333 50.5 50.5 0 0 36.5 0 53.5667 63.6667 36 45.25 62 36.125 57.4429 0 51.7833 62 51.7833 51.7833 36.5217 14.5 57.4429 51.7833 58.8 58.8 0 0 0 37.8 37.8 37.8 0 39.9167 0 58.8 0 0 0 0 0 0 45.6667 46.75 42.6667 0 0 42.6667 0 0 46.75 44.4286 0 44 44.5 46 0 46 0 48 46.8333 0 0 49 0 0 43.1 43.1 45.8333 46.4444 46.4444 41.1667 41.1667 41.1667 43.7857 42 0 42 42 0 45 0 0 0 0 0 0 0 0 0 28.3333 0 0 0 0 0 0 0 0 0 0 0 0 0 0 0 0 0 0 0 0 0 0 0 27.75 27.75 0 0 0 0 0 0 0 0 0 0
0 0 0 0 0 46.5 46.5 46.5 0 47 47.5 47.5 47.5 0 46.5 47.5 48 0 48 48 0 47.5 47.5 0 0 0 48.5 0 48.1667 48.1667 0 0 48 48 49.2 48 48.35 48.35 49 49 48 48 48 48 48.5 0 48 48 48.3333 49 49 0 48.5 48.5 48 48.5 49 49 49.5 50 50 0 51 0 49.5 0 48 50.1667 0 48.5 49 49.5 49.5 63.25 63.25 0 0 0 0 0 0 0 0 0 0 0 0 0 0 0 0 0 0 0 0 0 0 0 0 0 0 0 0 0 47.5 47.5 0 0 0 0 0 0 0 0 0 0 0 0 0 0 0 0 0 0 65.25 0 0 0 0 0 0 0 0 0 0 0 0 0 0 0 0 0 0 0 0 0 0 0 0 0 0 0 0 0 0 0 0 10 13.5 13.5 13.5 10.3333 0 0 0 0 0 0 8.1 8.1 8.1 7.5 0 9.4 9.64286 0 9.64286 9.64286 10 0 0 8.66667 7 0 9.33333 9.33333 8.66667 0 8.5 8.5 8.5 8 0 8 7.5 0 0 8 7.33333 7.33333 7.33333 0 8 0 0 10.5 10.5 0 7 6.66667 0 0 0 8.5 11 12.5 0 0 9.25 0 0 12 18 0 0 0 0 13.3333 13.5 11 15 0 0 17.5 0 0 20 0 19.5 19.5 0 0 20.5 0 0 19.5 0 22 0 23 0 34.1667 23.5 24 25 25 0 15.75 0 29.8 0 0 30.5 32 0 32 32 32 0 0 34.5 0 37 0 0 39.6667 0 0 0 40.5 40.5 0 40.5 40.75 43 0 40 46.5 0 0 0 43 41 0 0 44 0 43.5 45 0 0 43 0 0 0 44 47 0 0 0 0 0 0 0 50.5 0 0 0 0 0 36 36 0 0 0 0 0 0 36.1333 36.1333 0 35.5 37 37.3333 37.8 0 37.8 0 46.5 46.5 0 0 0 0 0 0 47 48.3333 52.5 46.8333 55.1667 0 0 0 42 0 0 45.6471 46.8 0 0 0 65.3333 73 42.8571 77.3333 0 0 71.1429 0 60.1389 55.4 54.2708 0 0 71.1429 54.2708 0 0 0 0 47.15 0 0 56.7857 48 45.8611 53.4583 48 0 49.6667 51.0333 49.7308 47.95 0 47.3333 47.3333 47.4 47.4 47.4 44 44 47.3333 47.3333 47.3333 47.95 41 38.4333 38.4333 41 0 52 42.1429 42.1429 45.7273 45.7273 0 0 35.6667 43.3333 45.9 45.7778 28.3 28.3 11.1667 35.4643 35.4643 44.8095 48.4167 48.4167 53.25 47.5 52 58 58 0 57.3333 57.3333 52 0 40.5385 40.5385 40.5385 40.5385 46.5 46 0 0 0 78.9762 47.75 0 47.75 71.8 47.75 44.6667 45.75 0 45.5 43.3333 43.3333 0 46.25 46 45.3571 0 45.3 45.3 46 46 46 0 0 44.4 45.25 45.25 68.75 68.75 45.75 45.75 0 0 0 0 0 0 45.5 100 100 45 0 59 0 59 59.75 0 58.4 54 54.1 0 0 52.25 52.25 47.8667 50 50 45.1667 45.1667 45.1667 45.1667 48.3333 48.5 48.5 0 0 0 42.25 49.2955 40.1667 40.1667 39 43 70.6667 62.3333 0 44 0 0 45.25 15.5 15.5 52.1 57.4429 62 36.5217 51.7833 36.5217 51.7833 36.5217 0 58.8 36.5217 36.5217 0 0 0 61 61 0 0 0 0 0 0 0 0 45 0 0 0 0 0 0 0 45.6667 42.6667 42.6667 0 0 0 0 0 46 0 0 0 47 47 0 0 0 43.1 0 0 0 45.2667 43.1 0 41.1667 54.5 42 0 0 0 43.7857 42 0 0 0 0 0 0 0 0 0 0 0 0 0 0 0 0 0 0 0 0 0 0 0 0 0 0 0 0 0 0 0 0 0 0 0 0 0 0 0 31 0 0 0 0
0 0 0 0 0 46.5 0 0 46.5 47 0 46.75 46.75 0 46 46.5 47.5 48 0 48 0 0 0 47 47.5 48 0 47.5 48 48 48 48 48 48.1667 49.2 49.2 49.2 48.35 48.35 48.35 49 0 0 48 48.5 47.5 0 47.5 47.5 49 0 48 48 48 48 48.5 48.6667 48 49.5 50 50 50 50 49.5 49.3333 0 48 48.5 49 0 48.5 49 49.5 49.5 50 0 0 0 0 0 0 0 0 0 0 0 0 0 0 0 0 0 0 0 0 10.5294 0 0 0 73.5 0 0 0 0 0 73.5 0 0 0 0 0 0 0 0 0 0 0 0 0 0 0 0 0 0 0 0 0 0 0 0 0 0 0 0 0 0 0 0 0 0 0 0 0 0 0 0 0 0 0 0 0 0 0 0 0 0 10.75 15.8 13 13 0 10 9 0 9.16667 13.5 9 9 9 0 8.1 7.5 7.5 7.5 8.66667 9.64286 9.64286 9.64286 10 0 0 0 7 7 7 9 0 9 0 8.5 8.5 0 8 8.5 9.5 0 9.5 8 8.33333 0 8.33333 9.5 10 11 0 9 9 0 0 8.5 0 0 0 6 0 0 0 0 0 9 0 18 23 12.6667 0 0 0 15 13.5 15 21 0 0 0 0 0 18.1667 18.1667 18.6667 18.6667 0 0 21.3333 0 22.3333 21.25 22 21.5 0 21 21 21.5 24 24 0 15 20.75 28 0 25 0 29 29.75 0 0 31.3333 31.3333 32 0 0 0 0 0 38 0 39.6667 0 42 0 0 0 0 43 39 46.5 42 40 43 0 42 42 0 42.5 0 43 48.5 0 45 45.5 45.5 45 47.8333 47.8333 45.7083 45.7083 47.8333 0 0 0 0 0 0 46.5 46.5 0 50.5 0 48.25 36 0 35 38.3333 0 0 0 0 0 0 0 44 0 0 34.8333 34.8333 0 0 37.8 46.5 43.5556 43.5556 0 64.6667 0 0 60.3333 46.6667 0 0 0 62 0 55.1667 0 47 50.5 27 0 0 73 84 84 71.6 0 44.25 80.8333 55.4 65.3333 0 0 71.1429 0 71.1429 60.1389 0 60.1389 66.5 0 54.2708 59.5621 59.95 0 47.15 56 35.5 50.9429 70.5 70.5 62.25 53.4583 0 51.8413 51.8413 51.8413 51.8413 46 47.95 43.75 43.75 47.4 47.4 46.6667 47.4 44 47.2 45.6667 0 45.6667 0 46 35 38.4333 53.3429 49.2364 42.1429 0 42.1429 50.8222 45.7273 50.8222 50.8222 35.6667 45.7778 33.2 28.3 28.3 11.1667 0 35.4643 0 33.1429 44.8095 55.1795 55.627 55.627 55.1795 52 52 18.7 61.1905 0 0 45 45 66.6667 46.5 46.5 77.3667 77.3667 76.8182 0 0 0 0 47.75 71.8 95.9091 71.25 0 44.5 44.5 43.5 45.5 46.2143 43.3333 46.25 0 48.3333 0 0 45.3 0 70.2857 70.2857 44.4 44.4 44.5 45.25 0 43.5 68.75 45.75 0 0 0 43.3333 0 98.5 45.5 45.5 45.5 46.5 0 0 53.5667 60 52.5714 0 0 0 43 51.3333 0 52 0 48.5 52.25 47.8667 47.8667 46.8 46.8 47.8667 0 50 48.5455 45.359 45.359 43.1818 0 49.2955 49.2955 49.2955 49.2955 40.1667 0 39 42.625 36.5 0 0 48.1 48.1 48.1 48.1 52.1 52.1 36.5217 36.5217 36.5217 36.5217 0 36.5217 36.5217 0 0 14.5 72.6 75.375 65.125 65.125 0 0 0 0 56.6 56.6 0 0 0 44.5 44 43.5 42.5 0 0 43 43 43 44.1667 44.1667 0 0 0 46.5 46.5 38.3333 41.25 41.25 38.4 0 0 40.5 44 0 0 47 39.9286 36.625 36.625 45.2667 45.2667 0 0 37.8718 37.8718 43.7857 36.5 36.5 41 0 0 0 0 0 0 0 0 0 0 0 0 0 0 0 0 0 0 0 0 0 0 0 0 0 0 0 0 0 0 0 0 0 0 0 0 28.3333 0 0 28.3333 28.3333 0
0 0 0 0 0 45 0 0 0 47 47.5 47 47 47 46 46.5 47 47.5 0 48 0 46.9286 47 48.5 47.5 48 48.5 0 48 48 48 48 48 48.1667 48.1667 49.2 47.25 47 47.5 48 46.5 46.5 46 0 47 47.5 48 48 48.5 49 48 47.5 47.5 0 48 48.5 48.6667 48.6667 48 0 48.5 48.5 48.5 49.3333 49.3333 48 47.5 48 48.5 0 48 48.5 49 49.6667 50 50 50 0 0 0 0 0 0 0 0 0 0 0 0 0 0 0 0 0 0 0 0 0 0 0 0 0 0 81.1905 81.1905 0 0 0 10.5294 0 0 44.3243 0 0 0 0 0 0 0 0 0 0 0 0 0 0 0 0 0 0 0 0 0 0 0 0 0 0 0 0 0 0 0 0 0 0 0 0 0 0 0 0 0 0 0 0 0 0 0 12.1667 13 10.75 10.75 9.16667 0 0 0 9 7.5 8.5 9 0 0 8.5 10.1111 13 9.64286 8.16667 7.66667 13 11 10 0 0 0 9 9 8 8.5 9 9 9 9 9 9 0 0 7 9.66667 0 0 0 0 0 11.6667 0 0 0 0 8.5 8.5 10.7143 11.5 11.5 0 0 10.5 10.5 0 0 16.75 14 16.6667 14.5 14.5 16.6667 16.6667 13.3333 10.5 19 0 0 0 0 0 0 0 20 18.6667 21.3333 0 21.3333 20 0 0 21 21.5 21.5 21.5 21 0 23 0 33.2 0 28 29.5 28 28 0 0 29 30.5 31 32 0 31.3333 32.5 0 0 35 35 0 31.5 33 35.75 0 0 0 0 41 39 39 43 43 0 43 42.6667 42.6667 0 0 0 0 43.8333 43.8333 44.5 0 0 45 0 0 47.8333 0 0 45.7083 48.6667 47.8333 47.8333 0 0 0 0 47 46.5 46.5 0 0 0 0 0 0 0 39.75 0 0 37 0 0 0 0 44.5 0 0 34.8333 0 43.8333 37.8 44.6667 43.8929 43.5556 0 0 0 0 60.3333 0 44.0833 0 0 48.3333 48.3333 48.3333 0 48 0 51 0 46.8333 0 85.5 84 0 0 75.5 55.4 55.4 73.5 84.5 0 0 0 0 60.1389 60.1389 0 70.6667 70.6667 66.5 66.75 59.5621 66.75 66.75 0 0 53.9 67.75 67.75 67.75 62.25 0 53.4583 53.4583 53.4583 53.4583 51.8413 53.3429 41 46 46 45.6667 42 42 46.6667 46.6667 46.6667 42 42 44.6632 45.6667 46 0 47.1833 41.2083 0 51.0417 0 0 45.7273 50.8222 50.8222 50.8222 45.7273 35.6667 29.0952 45.7778 45.9 54.8 35.4643 53 53 33.1429 43.7571 43.7571 43.7571 43.7571 52 52 52 58 61.1905 61.1905 57.3333 0 74.875 0 46.5 46.5 46 78.3968 0 0 22.5 22.5 63.9231 63.9231 55.1667 42.25 95.9091 55.1667 40 44.5 44.5 45.75 45.5 0 67.8333 42.75 60.4 60.4 43 42.5 60.4 43 70.2857 70.2857 0 44.4 44.5 0 0 0 92.25 0 0 0 0 43.3333 43.3333 95 44.5 45 79.5333 45 65.4 65.4 0 0 0 0 45 0 50.5 0 57 60.6667 0 0 52.25 0 0 0 0 32.1667 47.5 42.5833 42.5833 42.5833 44.4 44.4 44.4 49.2955 49.2955 42.25 35.2222 45.4 40.1667 36.6 36.5 32.25 0 0 42 45.25 45.25 52.1 0 0 51.7833 36.5217 36.5217 0 76.9 0 0 0 0 72.7 67 75.375 0 65.125 61 0 0 41 78.8333 56.6 0 69 0 0 43.5 42.5 42.5 42.5 0 43 0 42 41 0 0 0 0 0 46.5 38.3333 38.3333 41.25 38.4 44 0 38.4 38.4 0 0 0 36.625 0 0 0 0 41.125 37.8718 37.8718 37.8718 36.5 36.5 36.5 36.5 42 0 0 0 0 0 0 41.3333 0 0 0 0 0 0 0 0 0 0 0 0 0 0 0 0 0 0 0 0 0 0 0 0 0 0 0 0 0 0 0 0
0 0 0 0 0 0 0 46 46.5 0 46 46 46 46 46 46 46 46 47.5 46.9286 46.9286 46.9286 46.9286 46 47 47 47 46.8333 46.8333 47 47 47 47 46.3333 46.3333 47.25 47.25 47 47.5 48 47.5 47.5 46 46.3333 47 0 46.5 48 48 48 48 46.8333 46.8333 47 47.5 48.3333 48.6667 49 48 48.5 0 48.5 48.5 48.5 48.5 48 48 47.5 48 48.5 0 49 48.6667 48 0 48.5 48.5 48.3 48.3 0 0 0 0 0 0 0 0 0 0 0 0 0 0 0 0 0 0 0 0 0 0 0 0 0 0 0 0 0 0 0 0 0 0 0 0 0 0 0 0 0 0 0 0 0 0 0 0 0 0 0 0 0 0 0 0 0 0 0 0 0 0 20.0417 0 0 0 0 0 0 0 0 0 0 0 0 0 12.1667 0 0 0 0 10.75 0 0 9.16667 0 7.6 0 0 9.5 7.5 0 0 7 0 0 0 8.5 9.66667 0 0 7.66667 0 0 0 0 8 8 8 8.5 9 9 9 9 9 9 0 0 8.5 0 0 0 9 8.5 11.6667 9.33333 8.5 0 9.5 9.33333 8.5 9.5 8 0 11.5 11 10.25 10.25 11 0 0 0 0 14 17.5 0 0 0 14.9 18.5 18.5 18.5 18.5 0 0 0 0 18 18 19.5 19.5 18.5 18.5 20 0 0 0 0 0 44 0 0 0 0 23 0 0 0 0 29 0 30.5 30.5 30.75 0 31 32.5 35 0 0 0 0 43.5 0 39.5 39.5 39.6667 0 0 0 41 0 41 0 42.3333 0 0 0 43 43 0 43 0 0 44 0 44.5 0 46 0 0 0 44 0 0 46.8333 46.8333 45.1667 0 46.3333 46.3333 0 0 42.1667 0 49.3333 46.6667 0 46.6667 48.25 0 0 47 0 0 0 37 0 44.375 44.5 0 49.5 0 38 0 38 0 44 44.6667 43.8333 57 44 43.8929 42.6222 42.6222 0 0 0 0 0 0 0 0 36.8333 0 48.3333 39.7778 43 46.1 48 73 48 0 44.5 44.5 0 84 71.5 71.5 86 0 60.7 52.0119 58.7222 0 58.7222 0 64.1667 73.3333 0 0 0 0 0 0 0 0 53.9 67.75 35.5 0 44.675 62.25 46.25 48.875 48.875 53.3429 53.3429 38.4333 41 46 45.6667 0 44.6632 42 44.6632 46.6667 46.6667 44.6632 44.6632 45.6667 0 47.1833 47.1833 41.2083 41.2083 0 0 50.8222 49.2364 50.8222 0 45.7273 50.8222 40.6883 31.8254 31.8254 60.5 38.6667 33.1429 33.1429 29.0952 55.1795 33.1429 53.039 55.1795 55.1795 55.1795 55.1795 64.625 52 47.5 47.5 57.3333 61.9091 74.875 55 65.5 65.5 43.2 81.1429 65.5 43.2 81.1429 0 22.5 22.5 0 0 42.25 55.1667 55.1667 69.2 44.6667 44.6667 41.6667 79.5 67.8333 67.8333 42.75 42.75 42.75 71.8 43 60.4 70.2857 0 0 0 0 41.6 42.4 74 74 90.5 92.25 0 92 0 65.5 95.6 79.5333 0 0 0 45 65.4 0 61.75 61.75 99.1667 0 0 0 49.2955 49.2955 45.5 45.5 0 44.4 48.5455 44.1346 0 42.5833 42.5833 41.6667 42.5833 32.1667 44.1346 44.1346 46.3333 45.359 44.4 49.2955 0 35.2222 35.2222 0 45.4 0 0 0 0 32.25 0 42.8333 19.5 0 39 0 0 0 47.4 51.5 0 0 0 59.0909 0 44.5 44.5 0 0 0 0 0 42 41 42 41 0 42.6667 0 0 47 0 0 0 0 0 0 0 0 42.8788 0 0 0 0 0 42 41.25 0 43.5714 38.3333 38.3333 38.3333 38.3333 0 0 0 36.625 0 36.625 0 0 0 0 41.125 0 0 0 36.5 0 0 0 0 0 0 0 0 0 0 0 0 0 0 0 0 0 0 0 0 0 0 0 0 0 0 0 0 0 0 0 0 0 0 0 0 0 0 0
0 0 0 0 0 45.3333 45.5 46 46.5 46.5 46 0 0 45 45 47.5 47.5 47.1667 47.1667 47.5 46.9286 46.9286 45.4167 45.4167 46 46 46 47 46.8333 47 47.4167 47.4167 47.4167 45.6667 46.3333 46.5 47.25 47 47 47 0 0 46 46.6667 0 47.5 47.5 47.5 0 0 46.8333 46.8333 46.8333 46 47 47.5 48.6667 48.6667 48 48.5 48 48 48.25 48.25 47.5 48 47 47 0 47 47.7 47.7 48.6667 48.6667 48 48 48 48.3 48.3 47.6667 0 0 0 0 0 0 0 0 0 0 0 0 0 0 0 0 0 0 0 0 0 0 0 0 0 0 0 0 0 0 0 0 0 65.8333 0 0 49.4167 0 0 0 0 0 0 0 0 0 0 0 0 0 0 0 0 0 0 0 0 0 0 0 0 0 0 0 0 0 0 0 0 0 0 0 0 0 0 10.978 10.978 10.978 10.7727 0 0 0 0 10 11 10.3333 7.6 7.6 7.6 0 7.5 7.5 9 7.3 0 0 0 0 9.66667 9.66667 0 7.66667 7.66667 7.66667 7.66667 0 9 8 8.5 0 9 9.5 9.5 9.5 9 9 8 8.5 9 9 10.25 10.1667 12 0 10.1667 10.1667 8 9.5 9.33333 11.6667 9.5 8 0 0 0 0 0 12 9.33333 20 14.9 0 17.5 17 0 17.5 0 0 0 18 18.5 18.5 18.5 0 0 0 16 18 18 19 0 0 0 19.3333 0 21.5 18.3333 23 11.6667 0 0 12 0 23 0 28 29.8 0 0 0 29.5 29.5 31 0 0 0 33 32 0 0 35 32.7857 0 0 29 0 0 0 0 44 0 0 42.5 42.5 42.3333 42.6 0 43 43.8333 43.8333 44 43.5 43.5 0 44 0 45.5 45.5 0 0 0 44 44.6667 44.6667 44.4 44.4 45.1667 45.1667 46.8333 43 46.1667 46.1667 46.3333 46.3333 49.3333 54 0 49.3333 46.6667 0 44.75 0 0 0 0 0 44.9583 44.9583 44.375 44.375 45 0 0 0 36 39.5 0 48.5 39 44.6667 44.6667 43.8929 43.8929 42.6222 0 0 0 0 39 43.1667 0 0 0 46.6667 41.0303 41.0303 0 0 43 48.3333 0 0 0 43 44.5 79.25 0 79.25 67.0591 67.0591 44 0 43.5 0 68.5 81 0 0 0 0 0 57.875 0 0 0 0 42.5 42.5 53.9 53.9 37.5682 46.25 60 60 47.8333 41 53.1667 53.3429 38.4333 38.4333 41 46 0 47.1833 47.1833 43.1818 41.25 41.25 0 40.4444 46.1818 43.1818 43.1818 43.1818 47.1833 47.1833 46.1818 46.6 41.1364 0 0 0 0 45.7273 40.6883 31.8254 31.8254 31.8254 31.8254 31.8254 45.5455 0 0 48.4167 41.5758 44.8095 55.627 43.7571 52 69.5 47.5 64.625 32.3333 61.9091 49.0714 61.9091 61.9091 55 0 65.5 73.8571 65.5 65.5 65.5 81.1429 81.1429 22.5 22.5 0 42.25 63.9231 55.1667 69.2 69.2 44.6667 41.6667 96.2727 96.2727 0 0 67.8333 93.5 0 71.8 0 40.5 41.5 41.5 42 42 41.6 41.6 42.4 0 0 44.25 0 92 92 0 72.6667 0 66 66 62 0 44.3333 65.4 0 0 63.6667 42.625 46.5 66 40.1667 0 0 0 0 32.1667 42.5833 42.5833 48.125 0 46.3333 0 0 42.5833 42.5833 42.5833 44.1346 0 48.125 48.125 0 0 82.8333 49.2955 40.1667 0 50.3333 0 0 0 42.8333 0 0 0 67.5833 0 59 0 0 51.5 47.4 47.4 42 41.6 59.0909 59.0909 41 0 0 0 41.5 41.5 41 0 42.5 0 42.6667 42.6667 0 0 0 0 45.3333 0 0 0 39.6 39.6 44.5 42.8788 42.8788 42.8788 0 0 46.5 0 0 43.5714 43.5714 43.5714 36.2 36.2 38.3333 38.4 38.3333 0 0 0 0 36.625 39.9286 0 0 0 0 37.8718 37.8718 37.8718 0 0 0 0 0 0 0 0 0 0 0 0 0 0 0 0 0 0 0 0 0 0 0 0 0 0 0 0 0 0 0 0 0 0 0 0 0 0
0 0 0 0 0 45.5 46 46 46.5 45 45 45 46.5 46 0 45 45 0 46.5 46.5 0 0 45.4167 46 46 46.5 47 0 46.5 47 46.5 46.5 47.4167 45.6667 45.6667 46.5 47 46.6667 46.6667 48 0 0 46.5 45.8333 45.8333 0 46.3333 47 47 47.5 0 46.8333 46 46.5 47 0 0 45 47 48.5 47 47 47 47 47.5 47.5 47.5 47 47 47.5 47.5 48 48 47.5 47.5 47.5 47.5 47.5 48 47.6667 0 0 0 0 48 48 0 0 0 0 0 0 0 0 0 0 0 0 0 0 0 0 0 0 0 0 0 0 0 0 0 0 0 0 0 0 0 0 0 0 0 10.5294 0 0 0 0 0 0 0 0 0 0 0 0 0 0 0 0 0 0 0 0 0 0 0 0 0 0 0 0 0 0 0 0 0 10.7727 10.7727 10.7727 10.7727 0 0 0 10 11 11 11 7.6 0 0 0 0 9.5 0 10.75 14 7.3 7.3 7.3 0 0 8.5 8.5 9.66667 0 8.83333 9 0 8 8.5 0 8 9.5 8.5 8.83333 8.83333 0 8.5 9.25 9.25 9.25 0 0 0 0 8 8 0 13.5 10 0 0 0 0 0 0 8.66667 0 9.33333 9.33333 20 0 15.3333 16.5 15.5 15.5 0 14 0 0 0 18.3333 19 0 0 0 0 18.3333 0 0 0 0 0 19.3333 19.3333 0 7.5 0 0 0 23.5 32 23 0 0 0 29 31 0 0 29 0 31 0 0 0 0 0 0 0 0 0 38.3333 42 52 42.5 42 0 0 0 41.5 44 44 0 0 0 43.3333 43 48.1667 48.1667 0 0 0 0 44 0 46 0 0 46 45 39.75 39.75 43.0667 44.6667 44.6667 44.4 44.4 44.8333 44.8333 45 45 43 0 46.1667 46.1667 0 0 0 0 41.8889 41.8889 41.8889 0 0 44.25 44.25 44.6667 0 44.9583 44.9583 42 44.375 0 35.5 36 36 0 44.5 41.5 0 41.5 41 43.8929 0 0 0 42.6222 42.6667 42.6667 42.6222 44.0833 0 0 0 41.0303 43.5833 43.5833 42 42 42.5 41.5 0 46.1 75.3 75.3 0 0 0 40.8333 40.8333 67.0591 72.3 66.25 0 0 62.5 0 0 0 0 46 46 57.25 54.1429 54.1429 46.9143 51.1429 51.1429 0 46.65 47.8333 47.8333 47.8333 60 46.25 60 52 49.2364 49.2364 49.2364 0 0 0 41.2083 47.1833 47.1833 43.1818 43.1818 41.25 0 40.4444 40.4444 0 43.1818 40.4444 43.1818 40.4444 46.1818 46.1818 0 0 0 30.5 30.5 30.5 28.9643 40.6883 40.6883 40.6883 31.8254 45.5455 18.7 47.6 45.5455 18.7 33.2 26.9 55.627 55.1795 43.7571 43.7571 55.1795 41 53.039 48.3333 48.3333 53.039 41 61.9091 69.3333 32.3333 61.9091 74.875 0 65.5 65.5 66.5 43.2 0 72.8571 0 0 42.25 93.625 93.625 0 41.9 41.6667 96.2727 0 100.846 100.846 96.75 96.75 0 71.8 40.5 0 0 0 42.3333 0 0 0 0 0 44 0 44.3333 72.6667 45 0 0 0 66 66 0 0 0 0 0 32.25 0 42.625 42.625 35.2222 0 0 0 0 0 0 0 0 0 0 35.3333 42.5833 0 0 56.1667 41.5 0 0 48.6111 48.6111 0 48.6111 63.25 63.25 0 0 0 45 0 0 48.5 0 0 67.5833 67.5833 0 0 0 0 47.4 51.5 0 0 59.0909 59.0909 59.0909 0 0 46 0 0 36.3333 40.9 40.9 40.9 0 0 0 0 0 0 0 40.75 40.75 0 40.75 39.6 0 0 0 0 42.8788 42.8788 43.4667 42.8788 0 35.9 0 43.5714 40.8889 36.2 36.2 36.2 0 36.2 0 36.1429 36.1429 32.6667 36.625 0 0 0 37.8718 37.8718 37.8718 0 36.5 36.5 0 0 0 0 0 0 0 0 0 0 0 0 0 0 0 0 0 0 0 0 0 0 0 0 0 0 0 0 0 0 0 0 0 0 0
0 0 0 0 0 44.8333 44.8333 45 45 45.5 0 0 0 0 45 45 45.5 46 45.5 47 0 0 45.6667 46 0 45.3333 45.3333 46 46.5 46.5 46.5 0 46 46 47.2 0 0 46.6667 45.6667 45.6667 46.5 46.5 0 46.5 45.8333 46 46.1667 46.5 46.5 0 46 46 45.5 46 46.3333 46.3333 46 46.5 47 47 0 47 47 47 47 47.5 47.5 46 46.5 46.5 47.5 47.5 47.5 48 46.5 46.5 47.5 47.5 47.5 48 0 0 47 7 7 46.6 46.6 26.5 26.5 0 0 0 0 0 0 0 0 0 0 0 0 0 0 0 59.75 59.75 0 0 65.25 0 0 0 0 0 0 0 0 0 0 0 0 10.5294 0 0 0 0 0 0 0 0 0 0 0 0 0 0 0 0 0 0 0 0 0 0 0 0 0 0 0 0 0 15.5 16.0694 10.978 10.978 10.7727 10.7727 11.5 0 10.978 0 12.1667 0 9.33333 9.33333 9.33333 11.5 0 0 0 7 0 0 0 7 7.3 9 9 0 0 0 8.5 6 6 6 0 8.83333 8.83333 0 9 0 9 0 0 8.83333 8.5 9.5 9.25 0 9.5 9.5 0 0 8.2 8.2 0 0 0 0 8.66667 0 0 9.5 9.5 0 0 13 10.25 11 0 23 15.25 58 17 14 13.6667 0 0 17 0 18.3333 0 0 0 0 18.3333 0 0 0 0 17 0 20 18.3333 18.3333 0 0 0 23.1 23.1 0 0 23 23 0 29.25 29.25 0 0 0 0 34.5 0 0 0 0 0 0 0 0 38.3333 40 42 40 43.5 0 43 42 41.5 0 43 43.5 43.5 0 39.5 42 41 0 0 0 0 44 43.5 43.5 0 0 45.2 0 0 43 0 43.0667 43.0667 43.0667 39.75 44.6667 44.6667 44.6667 44.4 0 45 45 0 46.3333 46.1667 46.1667 0 0 0 41.8889 41.8889 0 41.8889 0 44.75 44.75 42.5 44.25 0 44.6667 44.6667 50.5 0 0 37.8 0 44.375 45 44.375 39.1667 39.1667 41.5 0 32 36.8333 0 44.6667 43.8929 44 43.8929 42.6667 43.1667 42.5 43.5833 52 42.5 43.5833 43.5833 42 42 42.5 42.5 41.5 0 42.6667 43.5 43 42.1667 42.1667 46.75 46.75 46.75 72.3 47.5 0 0 0 0 67.7 67.7 0 67.75 64.1667 73.3333 54.1429 0 59.75 46.9143 0 51.1429 0 0 0 0 0 42 40 50.8222 50.8222 50.8222 49.2364 45.7273 47.8333 0 0 46.1818 46.6 46.1818 46.1818 40.4444 47.1833 47.1833 43.1818 43.1818 40.4444 43.1818 40.4444 41.2778 46.1818 46.1818 46.6 0 0 0 0 49.2364 28.9643 28.9643 28.9643 28.9643 40.6883 40.6883 0 52.5 0 45.5455 29.0952 12.75 18.7 55.1795 45.25 0 0 0 48.3333 53.039 41 52 64.625 47.25 69.3333 63 61.9091 36.3333 51.8333 41 39.25 39.25 84.6364 84.6364 85 72.8571 72.8571 0 60.4 89.5 92.1 41.9 0 52.5714 43 68.2857 68.2857 68.2857 62.6667 41 41.5 41.5 77.5 41.4 0 0 42.3333 43 69.3333 69.3333 0 45 44.3333 45 41 41 67 36.5217 55 76.9 76.9 0 0 0 0 0 0 0 72.5 62.3333 84.6667 45.4 35.2222 35.2222 45.4 0 0 63.25 0 0 0 0 0 48.125 48.125 0 0 35.3333 55 93.3333 93.3333 48.6111 48.6111 0 0 35.2222 0 63.25 0 45 0 0 0 0 0 67.5833 67.5833 0 41 37.75 51.5 39.5 0 40 40 0 0 0 0 42.6667 0 0 0 36.3333 40.9 40.9 41.25 41 0 0 0 0 0 0 0 0 0 40.75 39.6 39.6 36.5 36.5 44.5 42.8788 42.8788 42.8788 32.5577 32.5577 0 0 43.5714 0 0 0 0 0 36.1429 36.1429 32.6667 0 0 0 0 0 0 33.1667 34.1111 0 0 0 37.8718 37.8718 0 0 0 0 0 36.5 0 0 0 0 0 0 0 0 0 0 0 0 0 0 0 0 0 0 0 0 0 0 0 0 0 0
0 0 0 0 0 0 44.8333 0 45 45.5 0 0 44 44.6 45 0 44.5 45 45 45.5 45.5 0 45.75 45.75 0 45.75 45.3333 45.3333 45 45 45 45 0 45 45.5 46 46.5 0 45.6667 45.3333 45.3333 45.3333 45.3333 0 46 46 46.5 46.1667 46.5 46.5 46 46 45.5 45.5 46 46.3333 46.5 0 45.6667 46 47 46.5 46.5 46.5 46 46.5 0 46.5 46 46 46 46.5 47.5 47.5 46 46 46 46 46 47.5 47.5 48 46.6667 46.6667 46.5 47 46.6 46.6 46.6 26.5 26.5 93.3333 94 0 0 0 0 0 0 0 0 0 0 0 0 0 0 0 0 0 0 0 0 0 0 0 0 0 0 0 10.5294 10.5294 0 0 0 0 0 0 0 26.8636 0 0 0 0 0 0 23.1915 0 0 0 0 0 0 0 0 0 0 0 0 0 15.5 16.0694 16.0694 16.0694 16.0694 16.0694 10.978 10.978 10.978 10.7727 10.7727 10.7727 10.5 10.5 9.33333 0 11 11.5 11.5 11.5 9.44444 0 0 10.75 9.44444 7 9.5 0 9 9 9 9 9 9 8.5 8.5 9.5 8.5 0 10 0 10 9.66667 0 10.0556 10.0556 10.5 10 0 11.5 8.2 0 0 8.2 8.2 10.6 0 0 0 0 0 0 9.5 9.5 9.5 10.5 10.5 9.66667 10 0 14 16.25 0 16 12.5 10.5 0 0 0 18.5 19 0 0 0 0 19.8333 18.3333 0 19.8333 24 20 0 0 0 18.3333 0 0 0 0 24 0 0 0 27.5 0 30 32 31.5 0 32 0 0 0 30.5 31.3333 0 0 0 0 40 40 45 41.5 0 42 43.5 42 0 0 41 42.1 42.1 43 0 42 42 42 43.3333 42.5 42.5 0 39.0606 42.9 42.9 42.4762 44.5 44.5 0 44.1667 44.1667 0 0 43 0 0 44.6667 44.125 44.6667 44.6667 41.0455 0 0 0 43 43 43.2333 43.2333 42.9365 42.9365 42.9365 42.9365 42.9365 0 41.8889 40.8214 41.8889 40.8214 42.1667 44.25 0 0 0 50.5 0 0 0 44.375 44.9583 0 0 44.9583 0 0 50 0 48.5 41 41 44.6667 39 40.2 43.5833 0 42.5 42.5 40.3333 42 42 41.75 41.75 41.5 41 41.4 42 0 0 43.5 43 43 0 65.2 40.5 40.5 0 0 98 40.5 40.5 41 40.5 40.5 0 0 67.75 57.25 46 0 54.1429 59.75 59.75 59.75 45.9 45.9 0 0 43.3333 55.5 35.6667 50.8222 50.8222 0 0 40 0 0 49.2364 51.0417 0 51.0417 41.2083 46.6 46.1818 44.7273 41.2778 40.4444 41.2778 41.2778 41.2778 41.2778 41.2778 41.2778 38.3788 38.3788 46.1818 0 0 34.375 41.1364 30.5 85.7692 30.5 41.8762 49.2364 28.9643 71 45.5455 45.5455 34.5 34.5 35.4286 12.75 20.7 18.8333 18.8333 0 0 0 53.039 53.039 48.3333 69.5 64.625 0 0 60.95 51.8333 41 78.7 78.7 78.7 64.5 64.5 0 79.5 72.8 76.375 55.45 55.45 42 56.3214 42 41.4 41.4 68.2857 72.25 72.75 62.6667 54.05 54.05 79.2857 58 52.5 52.5 75.2857 75.2857 75.2857 66.303 41 96.8333 69.3333 0 42 41 62.6667 68 76.9 76.9 76.9 36.5217 36.5217 0 0 0 0 0 0 0 40.6667 35.2222 35.2222 0 0 0 0 0 0 45 82.8333 43.6667 0 48.125 48.125 0 93.3333 93.3333 0 66.7 66.7 93.3333 0 48.125 0 63.25 0 63.25 36.3333 45 0 0 0 0 81.75 40 38.5 0 0 38 80.7 80.7 38.25 46.6667 47.5 47.5 0 0 37.5 35.7778 42 47.3 0 47.3 0 0 36.3333 41.25 44.5 0 0 42 45.5556 0 0 44 44.25 33.75 37.4167 37.4167 43.8889 50 0 0 32.5577 32.5577 42.8788 32.5577 41 41 0 0 0 0 0 0 36.2 36.2 0 0 0 36.1429 32.6667 32.6667 0 33.1667 36.625 0 0 0 0 0 25 25 0 0 0 36.5 36.5 0 0 0 0 0 0 0 0 0 0 0 0 0 0 0 0 0 0 0 0 0 0 0 0
0 0 0 0 0 44 44.5 45 45 0 0 44.1667 0 44.5 45 45.5 46 45.5 45.5 45 45 45 45.5 45.75 0 45 45 44.6667 45 0 0 45 45 0 45 45.5 46 46.5 45 45 45 45.3333 45.3333 45.5 45.5 45.3333 45.3333 0 0 46 46.1667 46.1667 46 45.5 45.3333 46 45.5 46.5 45.6667 45.6667 46 0 0 0 45 45.4 45.4 46.5 46.5 46 46 45.5 46 46.5 45.3333 45.3333 45.6667 0 46 45.3333 46.5 0 46.6667 47 45.25 48.1667 48.1667 45.8333 45.8333 45.8333 45.5 45.5 0 0 0 0 0 0 0 0 0 0 0 0 0 0 0 0 0 0 0 0 0 49.4167 0 0 0 0 0 0 0 0 26.8636 26.8636 0 0 0 0 0 0 0 0 0 0 0 0 0 0 0 0 0 0 0 0 0 0 0 0 0 0 0 12 16.0694 0 10.978 10.978 16.0694 10.978 0 11.1667 10.7727 10.978 11.1667 11.1667 11.1667 0 10 9.5 9.5 9.5 11.6667 0 0 10.25 0 10.75 10.75 9.1 8.71429 8.71429 8.71429 8.71429 8.71429 8.71429 0 9.5 9.5 9.5 7.4 7.5 7.5 11 9.66667 9.66667 0 0 0 10.5 0 0 11.5 0 0 8.75 0 10.6 0 0 0 10.5 10.5 10.5 10.5 10.5 10.5 9 9.5 0 17.5 23 0 19 0 15.6667 18.75 22.75 40.75 0 0 0 0 0 0 19.6667 20 0 0 0 0 22 20 22 0 22.5 0 0 21 0 0 0 24 0 28.5 0 0 0 31.5 0 36 0 0 0 0 26.5 0 0 0 0 0 39 0 40.5 42 39.8333 0 42 42 43 42 41 0 0 0 0 0 41.5 0 39.0606 39.0606 38.5 0 0 39.0606 39.0606 39.5 39.0606 42.4762 0 0 0 0 44.1667 0 41.5455 16.3667 16.3667 0 38.5 44.125 44.125 43.0667 0 44.8 41.0455 0 0 44.25 44.25 0 42.9365 42.9365 42.9365 39.7619 41.5 37.5 37.5 40.8214 40.8214 41.5 0 0 0 0 0 41.5 0 44.375 41.5 0 0 39.5833 0 39.3333 41.6667 44.5 39.05 40.25 40.25 41 41 0 41 40.2 40.5 0 0 42 42 42 41.75 39 41.75 41.5 0 41.4 42 42.6667 0 44.4444 62.2857 0 0 0 83.2857 0 0 0 98 39.5 99 73 0 63.5 64 0 0 0 57.25 54.1429 62.2222 62.2222 62.2222 50.8444 45.7778 45.7778 43.3333 0 0 0 45.7273 45.7273 45.7273 42.1429 0 49.2364 0 0 0 0 0 41.1364 42.7 42.7 44.7273 44.7273 41.2778 41.2778 41.2778 39.8571 39.8571 41.25 41.2778 41.2778 38.3788 46.6 47.1833 38.3788 41.1364 30.5 41.1364 41.1364 34.375 41.1364 30.5 30.5 0 14.3333 0 0 0 38 12.75 20.7 26.9 29.25 0 62 0 0 0 48.3333 48.3333 53.039 47.25 70.625 7.2 28.7436 35.0571 0 74.6667 36.2778 36.2778 64.5 44 79.5 72.8 76.375 76.375 60 60 56.3214 74.4 78.3333 40.9 41.4 37.6667 37.6667 37.6667 54.05 54.05 79.2857 58 52.5 52.5 52.5 0 75.2857 0 40.3333 41 69.3333 69.3333 69.3333 36.1667 36.1667 84.5 72.6 36.5217 36.5217 36.5217 36.5217 61 0 76.9 0 52.1 0 62.3333 40.6667 50.3333 32.25 0 67.5833 42.625 42.625 46.5 0 0 0 36.3333 36.3333 63.25 0 48.6111 48.6111 93.3333 66.7 66.7 66.7 93.3333 93.3333 93.3333 0 43.6 0 0 0 0 0 0 38 0 0 81.75 38.5 0 0 54 0 80.7 64.1667 0 0 0 0 47 47 42 42 47.3 47.3 0 0 0 0 0 30.6 30.6 30.6 42 0 42 42 38.6667 0 33.75 37.4167 37.4167 37.4167 37.4167 37.3333 37.3333 37.3333 32.5577 43 41 32.5577 32.5577 32.5577 32.5577 0 0 0 35.9 43.5714 0 0 0 0 36.1429 0 0 32.6667 33.1667 32.6667 0 0 0 0 0 0 25 0 0 0 0 0 0 0 0 0 0 0 0 0 0 0 0 0 0 0 0 0 0 0 0 0 0 0 0
0 0 0 0 0 44 44.5 0 0 45.5 44.1667 44.1667 44.1667 0 44.5 45 45.5 45.5 44 44.5 44.5 44.25 45 45 45 45 44.8333 44.8333 45 0 0 45.1667 45.1667 45.2 46 44.5 44.5 44.5 45 45 44.5 0 43.6667 44 44.5 45.5 45.3333 45.5 45.5 45 0 0 44.5 45 45.3333 45.5 0 44.3333 44.3333 45.5 45.5 46 46 0 0 45 45.4 45.4 46.5 45.5 0 45.5 0 45 45 45.3333 45 45.6667 45.6667 45.3333 45.3333 45.1667 46.25 46.25 0 47 45.25 45.25 45.25 0 45.8333 0 0 0 0 0 0 0 0 0 0 0 0 0 0 0 0 0 0 0 10.5294 10.5294 0 0 0 0 0 0 0 0 0 0 0 0 0 0 0 0 0 0 26.8636 0 0 0 0 0 0 0 0 0 0 0 0 0 0 0 0 0 0 0 0 0 0 0 0 0 0 16.0694 0 0 0 0 0 12 0 11 0 11.5 11.5 11.5833 11.5833 10.5 0 0 0 9.7 9.7 9.5 9.5 8.71429 9.1 9.5 0 0 0 7.4 7.4 7.4 7.4 0 7 0 8.5 0 9.5 10.6667 0 0 0 9.5 10.5 0 0 11.5 11 11.25 0 0 0 0 11.25 12 0 0 0 0 0 11 21.6667 0 42.5 42.5 9.4 0 7.89583 27.1538 6 0 19.5 0 19 19.6667 20 19.6667 20 0 19.6667 19.5 22.5 20.5 21 0 0 20 20 0 0 0 0 0 23 0 28.5 27 0 0 0 34 0 0 0 0 0 33.5 0 0 0 0 0 42 40.5 40.5 40.5 39.8333 42 0 0 41 39.0667 41 42.1 42.1 0 0 0 0 0 0 0 0 38.5 39.0606 39.0606 0 38.5 38.5 39.0606 42.4762 0 0 0 0 41.5 0 41.5455 41.5455 19.6667 37.9143 37.9143 37.9143 44.125 38.3333 0 0 0 41.0455 0 0 44.25 43.2333 43.2333 0 0 42.9365 0 39.7619 0 39.7619 32 51 0 0 0 41.8889 40.5556 0 0 0 0 41.5 39.5833 39.5833 39.5833 0 39.3333 39.05 39.05 39.05 0 0 0 40.5 0 40 42.1667 40 41.5 39 41.8095 42.7083 0 39 45 0 42.1111 42.5 0 0 84 0 0 83.2857 83.2857 0 0 0 0 0 79.1 61.5 0 81.25 64.5 64.5 54.8 63.5 0 59.5429 73.1667 0 0 73.1667 50.8444 50.8444 50.8444 45.7778 45.9 0 0 0 35.6667 50.8222 50.8222 50.8222 0 0 0 0 30.5 41.1364 41.1364 41.8762 28.5 32 44.7273 44.7273 44.7273 38.3788 38.3788 41.2778 39.8571 39.8571 39.8571 41.2778 41.2778 38.3788 38.3788 38.3788 30.5 42.7 32 28.5 34.5 34.5 0 38.5 0 0 14.3333 14.3333 0 26.25 0 26.3333 41.1667 25 29.25 0 39 16.8333 16.8333 48.3333 53.039 45.1731 41.3636 41.3636 58.7143 7.33333 7.33333 35.0571 35.0571 36.2778 36.2778 43.6667 43.6667 41 41 64.3333 41.5 60 60 44.5 56.3214 56.3214 74.4 41.4 41.4 37.6667 0 72.75 53.6667 0 0 0 52.5 52.5 0 0 0 52.5 0 0 0 66.303 0 0 0 75.375 72.7 72.7 0 36.5217 0 0 74.6667 36.125 0 0 59 0 0 67.5833 67.5833 67.5833 67.5833 36.5 0 42.625 42.625 0 0 0 52 43.6 48.6111 43.6 93.3333 0 93.3333 66.7 66.7 66.7 0 0 43.6 0 0 0 27.7143 40.1 40.1 0 0 0 40.2143 40.2143 40.2143 40.2143 0 49 0 0 0 0 36.625 36.625 47 47 40 0 42 0 0 0 50 35 0 0 41.25 41.25 0 42 0 0 0 0 0 33.2857 0 0 0 53.3333 37.4167 0 0 32.5577 40.25 32.5577 32.5577 32.5577 32.5577 32.5577 32.5577 37.25 37.25 0 0 0 0 0 0 0 0 22.9231 36.1429 0 33.1667 33.1667 0 0 33.1667 0 0 0 25 25 0 0 0 0 0 0 0 0 0 0 0 0 0 0 0 0 0 0 0 0 0 0 0 0
