10.5 10.5 11 11 11 11 11 12 12 0 0 11 11 11 10.6667 0 10 10 10.5 11.5 11.5 11 11 10.5 10.5 10 0 10 9.5 9.5 9 11 11 0 10.3333 10 10 10 9.5 9.5 10 13.5 0 9.16667 9.16667 0 9.5 9.5 9.5 9.5 9 9 9 9.5 9.5 0 8 9 9 0 0 0 9 9 9.5 9.5 0 8.33333 0 8 8 8 8 0 8 8.5 8.5 8 8 9 9.5 9.5 0 8 9 8 7.5 7.5 0 7 7 8 7.66667 7.33333 7 0 7 9 8.5 8.5 8 0 8 8 7.5 7.5 7 7 7 5.4 5.4 5.4 -7.66667 38 38.5 50.3333 40.5 40.5 0 42 0 42 0 42.5 42.5 43 43 0 0 43 42.5 42.5 42.0833 42 0 42 42 42 41 42 42 42 43.5 0 0 43 0 43.1667 44 0 43.5 42.4583 42.4583 42.4583 42 0 0 43.5 43.5 43.5 41 42 0 42 42 42 0 0 0 0 0 43.5 41.6667 37.5 39 39 39 39 37.5 39.5 35 34 0 0 0 0 0 0 36.5 36 0 30 35 34.9333 0 0 36 0 36 36 35.5 35.5 35.5 35.5 0 0 0 0 32.5 33.5 33.5 0 32.5 0 0 0 31 0 32 30 30 0 30 0 0 29 28.5 28.5 28 0 0 0 0 0 26 0 26 0 0 26 0 0 0 0 0 24 24 0 24 21 0 0 37.05 37.05 37.05 33 0 20 20 0 32.5 32.5 19.1667 22 19 24 0 0 20.5 33 46 23 22.6667 32.5 32.5 26 26 24 0 0 27.5 27.5 27.5 23 0 0 28 0 0 0 0 28 0 28 28 28 0 27.5 27.5 26.5 26 0 0 0 27.5 27.5 0 0 27.5 0 27 27 27 0 0 26 45 32.8333 32.8333 0 0 47 21 0 25.5 0 0 26 0 25 0 0 24 0 23.5 24.5 24.5 24 0 0 0 0 0 0 0 0 0 0 0 0 0 0 0 11 0 0 9 0 8 0 0 7 0 0 6 6 0 0 5 5 0 0 0 0 5 5 5 0 4.5 5 0 5 0 0 6 5.5 5 5 5.5 6 0 5 5 6 0 5 5 6 0 6 6 6 0 0 0 0 0 7 0 0 0 -1.5 -0.333333 23.5 23.5 20 0 14.3333 10.3333 0 0 7 2.5 2.5 0 21 22 0 21.5 24 0 0 0 0 24 0 0 21.6667 21.6667 21 0 22.5 22.5 22 22 0 0 0 22.3333 0 22 22 0 21 0 0 21 0 21 0 0 0 0 19 21 18.3333 0 0 18 18 18 18 0 17.5 17 0 0 17 0 0 0 0 0 0 0 0 0 0 0 0 7 7 7.5 0 7 0 7 7 8.5 0 0 8 8 0 0 0 7.5 0 0 0 9 0 0 0 10 0 0 13 0 0 13 0 14 0 13 12 0 11.5 0 12 0 0 11.5 0 0 0 0 0 0 0 0 13.5 0 12.8333 12.8333 14.5 14.5 0 0 0 13.3333 13.3333 0 0 21 0 35.75 35.75 0 12 12 9 9 0 15 0 0 0 4.5 0 0 11 -4 -11.2 -11.2 0 0 0 0 0 0 0 0 4.75 4.75 3 3 -0.5 5.2 4.72917 5.37879 5.37879 0 0 0 7.10714 7.10714 0 10.625 10.625 0 0 0 0 0 0 0 0 6.11111 16 6.11111 12.3333 0 0 0 0 0 0 0 0 0 0 0 0 0 0 0 0 0 0 0 0 0 0 0 0 0 0 0 0
11.5 11.5 12 0 11 11.5 11.5 12 12 11.5 11.5 0 11.5 11 0 0 10 11 0 11.5 11.5 11 11 10.5 10.5 11 10.5 10.5 0 0 9.5 10.5 11 10.3333 10.3333 10 11 11 10.5 10.5 10 12.5 10 11 11 9.5 12.5 0 0 0 9 9 10 9.5 9.5 0 9 0 0 8.5 8.5 10 0 9 9.5 9.5 9 9 9 8.5 8.5 8 9 0 8 8.5 8.5 8 9 0 8.5 8.5 9 9 9 9 0 0 8 8 8 8 7.33333 7.33333 7 7 8.5 9 8.5 8.5 8 8 8.33333 9 8 8 3.5 8 0 7 6.5 6.5 5.4 38 38 39.5 40.5 40.5 41 0 0 43 42 43 43 41 0 44 42 43 42.0833 42.0833 42.0833 42 42 42 42 42 0 41 42.3333 42.3333 43.5 43.5 43.5 43.5 0 43.1667 44 43.5 43 42.4583 42.4583 0 42 0 0 24.5 0 0 41 26.75 26.75 42 0 42 0 0 30.3333 0 35 39.5 41.6667 40.3333 39.5 39.5 39.5 39.5 39 40 0 39.25 31.3333 31.3333 23 35.25 30 0 36 36.5 0 0 35 0 0 0 0 0 34.5 0 0 35.0833 35.5 35.5 0 0 0 33 33 33 33 0 32.5 0 32 0 0 31 0 0 0 0 30 30 30 0 0 0 0 0 0 27.5 0 0 26 26 0 26 0 0 24.5 24.5 24 24 25 0 24 0 23.5 55 50 63 47.8333 31.375 31.375 38 0 20 0 0 20.5 36 43 21 19 38.25 19.1667 19.1667 0 0 23 17 0 26 0 53 30.2857 23.4667 53 27 0 0 0 0 0 24 28 28 0 27 27.5 27.5 0 0 0 28.5 0 0 0 28 0 28 0 0 0 27.5 0 27.5 28 0 27 0 27 27 0 21.5 26.5 43.5 43.5 0 25 25 26 0 25.5 0 26 0 0 25 0 0 25.5 0 0 24 28 24 24 25 0 0 0 0 0 0 0 0 0 0 11 0 0 0 0 0 0 0 8 0 0 0 6 0 6 7 0 0 5 5 5 0 0 5 0 5.4 5 0 4.66667 0 0 0 0 0 0 0 0 5 0 6 0 0 0 0 0 5 0 5.5 0 0 0 0 0 7 7 0 6 0 0 6.5 7 0 3.5 7.5 0 0 0 0 7.5 0 0 0 21.5 0 0 20 0 0 22 22.5 0 0 22 22 20 21.5 0 21 21.6667 21 22 20.5 21.5 0 0 0 23 22 22.3333 0 22 0 0 0 21 0 21 20 0 0 0 0 0 19 18.3333 18 0 0 0 0 0 18 17 0 0 0 15.5 17 0 0 0 0 0 0 0 6 0 0 0 0 0 0 0 6 0 0 7.5 0 7.5 9 0 8 0 0 0 0 8 9.5 0 0 0 0 0 10 11 0 0 13 0 13 0 12 13.5 13.5 11 12.5 12.5 12.5 11.5 12 0 11 11.5 12 13 0 12 12 0 0 12 0 0 12 0 0 0 0 13.5 13 0 13.3333 0 0 21 0 0 0 9 11.3333 12 12 9 0 10 6 0 0 23 15.5 0 0 14 0 0 -11.2 1.5 0 0 0 14.6071 10 0 0 0 4.75 3 3 5.2 4.72917 4.72917 5.37879 0 9 0 0 0 0 0 0 0 0 0 0 13.9167 0 0 0 0 0 0 0 0 0 0 0 0 0 0 0 0 0 0 0 0 0 0 0 0 0 0 0 0 0 0 0 0 0 0 0
11.6667 11.6667 11 12 12 12 12 13 13 0 0 11 12 12 11.5 11.5 11 11 0 0 0 0 11 11.5 11.5 11 10.5 0 10.5 10.5 10 10.5 11.5 0 0 10 11 11 10.5 10.5 10 10 10 0 0 0 10 10 9.5 9.5 10 10 10 9.5 9.5 9 9 10 9.5 0 0 9.5 10 10 9.5 9.5 9 9 10 0 0 8 8 9 9 8.5 8.5 9.5 10 10 9.5 9.5 9 9 0 9 8.5 8.5 0 8 8 8 7.5 7.5 7 7 0 8.5 8.5 8.5 8.5 8 8.33333 8 9.5 9.5 0 7.5 0 8 7.5 7.5 7 0 38 39.5 41.3333 41.3333 0 41 0 41.5 0 0 0 43 42 43.6667 44 0 43.5 43.5 42 42 42 42 0 0 0 41 43 42.3333 0 43.5 43.5 0 0 43 44 44 43 43.5 43.5 0 42 42.5 43 0 0 0 21 36 36 43 0 27 40.5 40.5 0 34 40.1667 40.1667 40.3333 40.3333 39.8 39.8 39.8 39.8 39 37.5 38 39.25 0 0 22.1667 22.1667 0 0 0 0 0 0 34.5 0 35.5 0 0 0 36 35.0833 35.0833 35.0833 0 35.5 0 34 33.5 34 34 33 33 0 0 0 0 32 0 0 31 0 0 0 0 0 30 0 0 0 29 0 0 26.5 0 0 26 0 26 26 0 25 25.5 25.5 58 24 55 0 24 0 23 0 19.5 23 47.8333 47.8333 31.375 0 0 0 20 0 21.3333 21 21 20 0 19 0 0 18 0 37 43 0 23 14 26.1667 26.1667 23.4667 23.4667 27 26.5 26.5 26.5 0 33.5 32 0 28 0 39.5 39 52 0 27.6667 27.6667 46 49.5 39.75 39.75 27.5 47 28 28 28 28 28 25 27.5 0 46 33.5 27 0 33.5 0 26 28.4 0 0 25 24.5 25 0 0 24 24 30.5 0 0 0 0 0 0 24 24.25 24 0 0 24 25 0 0 0 0 0 0 0 0 0 0 0 0 0 0 0 0 6 0 9 0 0 7 0 6 6 0 0 0 6 0 5.33333 6.2 5 0 0 4.5 0 0 0 6 5.5 5.5 0 0 4.75 4.75 0 0 5.5 0 5 5 5 0 5 5 5 5.5 6 6 6 6 6 6.5 0 0 0 0 0 5.5 7.5 6.5 8 0 7.5 0 9.5 0 24 19.5 0 16.5 0 0 0 0 0 20.5 20.5 21 0 0 0 0 0 0 0 0 22 21.5 21.5 22 22 0 0 0 0 0 22 21.5 21.5 0 0 21 0 0 19.75 0 20 0 0 0 19 0 19 18.3333 19 0 18 0 18 18 0 0 0 0 0 0 0 0 0 0 0 0 0 6 13.6667 5 0 0 0 0 4 0 7 0 8.5 8.5 8.5 0 0 0 8 0 0 0 0 8 8 0 8 0 0 0 9 0 11.5 11.5 0 0 11.5 11 12 11.5 0 13 0 12 12 0 0 11.5 0 0 12 12 12 0 0 12 12.5 0 0 12 14 13 13.5 0 0 0 23 6 0 0 0 0 0 0 11.5 0 11.8333 11.8333 9 0 10 0 -2 0 0 0 -7 19 19 24.125 24.125 0 7.5 0 25 8.57143 14.6071 14.6071 14.6071 0 0 0 9.52778 9.33333 9.33333 5.2 4.72917 4.72917 5.37879 5.37879 5.37879 0 0 0 0 0 0 0 0 0 0 0 0 0 6 0 0 0 0 0 0 0 0 0 0 0 0 0 0 0 0 0 0 0 0 0 0 0 0 0 0 0 0 0 0 0
11.6667 0 11.5 12 12 12 12 12 13 12.5 12.5 0 12 12 11.5 11.5 0 11.5 12 0 0 12 0 11 11 11 11 11 10 10 10 0 11 11.5 11.5 0 10 11 10.5 10.5 10 10 0 10 10 10 0 10 9.5 9.5 10 10 10 9.5 9.5 10 0 10 9.5 0 0 11 11 11 9.5 9.5 9.66667 10 9 9.5 9.5 9 9 9 9.5 0 0 9.5 10 10 9.5 9.5 9 10 0 9 9 9 8 8 0 8 7.5 7.5 7 8 0 8.5 0 0 8 9 9 9 8.5 8.5 0 7.5 0 8 7.5 7.5 7 8.5 50.6667 39.5 41.3333 39.9 40 0 41 41.5 42 42.5 42.5 0 0 44 43 43 43 41.5 43 0 42 42 41.5 41.5 41 42 0 0 43 42.5 42.5 42 42 42.5 43.5 44 0 0 0 43 44 42.5 0 24.5 63.6 63.6 54.5 36 36 0 0 30 41.5 41.5 0 0 40 40 40.5 40.5 39.8 38.5 38.5 38.5 38 39.5 0 28.5 0 0 0 0 37 0 36.5 36.5 35 35 35 0 35.5 0 35.6667 35 36 35 35 0 34 0 0 33 33.5 33.5 34 33 33 33 32.5 32.5 31 31 31 31 31 0 0 29 29.5 29 0 0 27 0 0 26.5 26.5 26.5 0 0 26 56 47 45.6667 0 0 0 0 52 0 0 24 43 24 37.8 33.7619 0 47.8333 47.8333 47.8333 20 0 0 20.3333 21 0 21.3333 21.3333 0 0 0 0 0 18 0 23.5 37 14 23.6667 23 23 26.5 26.5 0 0 27 27 27 27 0 23.4667 23.4667 35.6 0 39.5 48.5 48.5 27.8333 27.8333 27.6667 27 0 0 33.1667 33.1667 28 0 37 28 28 45 0 0 0 35 0 32.8333 34 0 33.5 0 26 26.1667 31.5 31.5 0 24 24 24.5 24.5 24 25 0 30.5 0 25.5 29 22 24.6667 24 22.75 22.75 0 0 23 0 0 0 0 0 0 0 0 0 0 0 0 0 0 0 0 0 0 0 0 0 0 6 0 6 0 0 6 0 6 0 0 0 0 0 4 6.58333 4 0 0 5 0 6 5 0 5 0 4.5 6 5.5 0 0 4.5 5 6 42 5.5 0 5.5 6 6.5 6.5 6.5 5.5 7 0 7 7 8.5 8.5 6.75 5.5 7.5 0 0 9 0 20.5 19.5 19.5 19 0 20 20 0 20.5 20.5 20 20 22 21 0 22 22 21.5 21.5 21.5 22 22.5 22.5 0 0 0 0 0 0 0 0 0 0 21.5 21.5 21 0 21 0 0 0 0 0 20 20 0 0 0 21 0 0 0 0 0 0 0 0 0 14 22 0 0 20.5 0 11 0 0 0 0 0 6 0 11.5 14.3333 9.5 12.5 12.5 0 7 0 0 0 0 0 8 10 11.75 0 9 18 0 15.8333 9 8 8 9 9 0 0 0 0 0 11.5 9 11 12 12 0 11.5 12.5 12.5 11.5 11.5 11.5 0 12 12 0 11 0 0 12 0 0 0 0 12 0 0 14 14 14 0 19 0 0 0 20.75 14 12.6667 12.5 9 0 9 11.5 8 12.5 0 14 0 12 0 0 0 0 13 0 0 0 12.0769 0 11.95 0 8.57143 8.57143 14.6071 14.6071 14.6071 0 0 11.5 11.5 4.72917 4.72917 4.72917 9.61905 5.37879 0 0 0 0 0 0 0 0 10.625 0 0 0 0 0 0 0 0 0 0 0 0 0 0 0 0 0 0 0 0 0 0 0 0 0 0 0 0 0 0 0 0 0 -10.3333 0 0 0 0
0 0 11.5 12 12 12.6667 12.6667 0 13 12.5 12.5 12 13 0 0 0 11 0 11.5 11.5 11.5 12 0 11.5 11.5 12 0 11 0 0 11.5 0 11 11.5 11.5 11 11 11 10.5 10.5 10 10 11 11 11 11 11 11 0 0 10 10 10 10.5 10.5 10 0 9 11 0 0 9.5 10.5 11 10.5 10.5 11 11 10 9.5 9.5 10 0 9 9.5 10.5 10.5 0 10 10 0 0 9 10 10 10 9.5 9.5 9 9 9 9 8.5 8.5 8 8 8 8.5 0 9.33333 9 9 0 9 9 9 9 9 9 0 8.5 8.5 8 8.5 8 41.6 39.9 39.9 40 39.6667 39.6667 42 42 0 0 42 41 41 43.3333 0 0 0 43 42.5 42 42 41.5 41.5 41 41 42 42 42 42.5 42.5 42.5 0 0 0 0 0 0 42.5 42.5 43.5 43.5 0 0 63.6 63.6 0 41.1667 41.1667 0 30 35.25 35.25 35.25 31.3333 39.25 39.25 37.5 37.5 40 38.5 38.5 38.5 39 0 32.5 36.5 36.1667 30.3333 30.3333 0 0 0 36 0 36 0 0 0 24.3333 34 0 35.6667 36 35 0 0 0 33.5 34 0 33 33.5 0 34 0 0 0 31.5 31.5 31 30.8333 31 31 31 0 0 30 29 0 29 0 27 27 0 26.5 26.5 26.5 0 0 26 39.6667 45 38.5 0 26.5 0 0 41.4 39.6667 0 0 28.6667 30 36.3333 23 0 23 21.5 21.5 20 0 0 21 21 0 21 21 22 0 0 0 0 18 0 29 20.4286 0 23.6667 24 20 18 33.5833 31.8 39.6667 27 31.25 31.25 25 39.6667 34.25 0 27 0 27 0 28 28.5 28.5 0 27 28 29 29 27 27 27 0 28 0 27.5 25.5 25.5 27 27 0 27 27 0 0 0 0 26.1667 26.1667 25 0 26 24.5 26 0 24 25.5 25.75 24.5 25.5 26 25.6667 22 24.6667 24.6667 25 21 0 0 0 17 19 0 0 0 0 0 0 0 0 0 0 0 0 0 0 0 0 0 0 0 6 6 0 5.5 0 6 0 0 5.07143 5.07143 1.33333 5.5 4.5 4 6.58333 4.5 6.58333 6.16667 4 0 5.66667 5.66667 5 0 3.5 5 5 0 5.5 6.5 0 6 6 6 0 5.5 6 7 7.5 0 7 7 0 6.5 0 0 0 6.83333 6.83333 0 6.75 7.5 8 8 -2 20.5 0 0 0 0 0 20.5 20.5 0 0 18 17.5 20.5 21.5 22.5 0 0 0 22 0 0 22.1667 21.5 21.5 21.5 0 0 21.5 21.6667 22.75 19.5 23 20 0 0 20 0 21 0 20 0 0 0 20 20 0 0 0 0 0 0 18 0 18 0 0 0 0 0 0 0 0 0 15 0 0 0 0 0 6 6 0 0 11.25 11.5 11 11 6 16 0 17.5 0 6.83333 6.83333 0 10 11 11 4 0 15.5 0 16.25 12.5 0 8 0 9 0 11.2 10 0 0 0 10.6667 13 0 12 0 11 12 12 26.8333 29 0 0 10.5 12 0 12 0 12.5 13 0 0 0 13 11.5 12.5 0 12.3333 0 0 0 0 12 0 26 0 11 12.6667 12.6667 0 9.85714 9.85714 0 0 0 0 0 0 16.4 16.4 11 12.3333 0 0 14.2 0 0 0 11.95 11.95 13.8333 0 0 -2.33333 14.6071 14.6071 14.6071 14.6071 0 0 0 0 0 0 4.72917 4.72917 4.72917 5.37879 0 0 0 0 7.10714 10.625 10.625 10.625 10 0 0 0 0 0 0 0 0 0 0 0 0 0 0 0 0 0 0 0 0 0 0 0 0 0 0 0 0 0 0 -10.3333 -10.3333 0 0 0
12.5 12.5 12 12 12 12.6667 13.3333 13 13 12.5 12.5 12 12 0 11.5 11.5 12 12.5 0 11.5 11.5 11 12 11.5 11.5 11 0 0 10.5 10.5 11.5 12 0 11.5 11.5 11 11 11 10.5 10.5 10 10 11 11 11.5 11.5 11.5 11 10.5 10.5 0 10.6667 11 0 0 10 10 10 11 0 0 9.5 10.5 10.5 11.5 11.5 11 11 10.3333 0 0 10 10.5 10 10 10 10 10.5 10 10.5 0 0 9 9 10 10.5 9.5 9.5 10 0 9 10 9.5 9.5 8.5 0 9 9 9.33333 9.33333 9 10 10 10.5 10 10 9 7.33333 9.5 9.5 9 9 9 9 10 41.6 39.9 39.9 0 39.6667 39.8333 40.5 41 42 42 42 0 41.6667 41 43 43 43 42.5 0 42 42 41.5 41.5 41 0 42 42 42 41 41 42.5 0 42 43 44 43.5 43.5 0 0 0 42.5 43 0 30 30 30 41.1667 41.5 41.5 41.5 41.5 0 0 40 40.5 40.5 39.5 42.5 38 38 39.5 39.5 39 39 40.5 0 38.5 23.5 23.5 0 0 0 0 36 36 0 0 35 19.1667 19.1667 0 35.6667 36 35 0 0 0 33 33.5 34 0 0 0 0 32.5 32.5 0 31.5 0 30.8333 30.8333 0 0 0 0 0 0 30.3333 0 0 0 0 27 54.4545 48.3333 48.3333 26.5 50.5 0 26 39.6667 26 26 0 25 27.8333 27.8333 37.1667 0 23 0 23.5 22 28 23 0 23 0 0 0 0 21.3333 21 0 0 0 0 22 0 0 0 0 0 17 0 0 24 0 0 20 0 23.25 23 33.5833 0 26 26 26 23 31.8 31.8 26 28 28 27 28 28 0 0 27 28 0 0 29.5 29 27 0 29.3333 0 29 28 0 0 27.5 0 0 0 27 27 0 0 26.8 26.8 26.8 0 0 25 25 0 0 24 24.5 25.75 24 26 25.6667 25.6667 0 0 0 0 0 0 0 17 24 0 0 0 0 0 0 0 0 0 0 8.5 8.5 0 0 0 6.75 6.25 0 7.75 0 0 7.1 0 6.6 6.2 6.2 0 5.07143 5.33333 5.33333 4 5.5 6.58333 6.58333 5.4 0 6.16667 6.16667 6 5.66667 5 4 0 5 3.5 0 0 5.5 6 0 6 6 6 0 6.5 0 0 5.5 0 5.5 7 7 6.5 6 6 7 7 6.83333 0 7 8 8 0 0 9.5 28 0 9.16667 19 0 17.5 17.5 0 0 0 0 0 20.5 20.5 22.5 0 19.5 21.8 0 22.1667 0 0 21 21.5 0 22 22 21.6667 21.6667 22.75 19.5 0 0 0 0 0 20 0 0 20 21 0 19 0 0 0 0 0 0 0 18 0 0 0 0 0 0 15 0 14.5 0 0 0 0 0 0 0 0 0 0 0 4 4 6.40278 6.15 0 9 7 7 9.33333 0 8.5 0 0 7.83333 7.83333 0 0 7.5 8 0 7 10.3333 10.3333 10.3333 9 9 0 16.4 7.8 10 0 0 0 13 0 0 7.16667 0 0 26.8333 26.8333 11.3333 0 10.5 10.5 13 0 12 11 0 13 0 0 0 10.1667 10.5 12.5 0 12 0 0 11 11 15.25 0 0 24 22.5435 22.5435 14.2333 8.21429 8.21429 9.85714 12 12.25 8.5 8.5 0 0 6.71429 0.769231 0.769231 12 0 0 0 0 0 0 0 0 0 0 0 8.57143 8.57143 14.6071 0 0 0 0 -3.5 0 0 9.52778 9.33333 4.72917 9.61905 0 0 0 0 8 0 7.10714 0 0 0 0 0 0 0 0 0 0 0 0 0 0 0 0 0 0 0 11.5 0 0 0 0 0 0 0 0 0 0 0 0 0 0 0 0 0 0
12.5 12.5 12 12 13.5 13.3333 13.3333 13 14 13.6667 13.6667 0 12 13 0 0 11 12.5 13 0 0 11.5 12 11.5 11.5 11 12 12 11 11 12 11.5 12 0 0 11.5 0 11 11.5 11.5 11 11 11 11.5 11.5 11.75 12 15 11.5 11.5 11 11.5 11.5 10.5 10.5 10 11 0 10 11 11 11 0 10.5 11.5 11.5 11 10.3333 10.3333 0 0 9.4 10 10 10 10 10 10.5 10 10.5 0 0 9 11 0 10.5 9.5 9.5 9 0 10.5 11 0 0 9 9 10.5 10.25 0 0 9.5 10 11 9.5 10 10 9 9 7.33333 9.5 8.5 8.5 9 9 9 41.6 40.5 40.5 40.5 39.8333 39.8333 42 0 42.5 42.5 42.5 42.1667 41.6667 41.6667 42.2 42.2 41 0 42.1667 42 42 0 0 41 0 43.5 0 0 41.5 41.5 41 41 42 42.5 45 0 0 41.3333 0 43 43.3333 43.3333 43 30 30 0 0 0 0 0 0 0 0 0 49.5 49.5 36.5 0 43.5 43.5 39.5 37.5 37.5 39 0 0 37 29.3333 29.3333 0 34 30 0 32.3333 36.5 0 0 35 24.5 24.5 0 35.6667 36 35 0 0 0 0 0 0 0 33.5 0 0 32.5 32.5 0 0 0 0 31 0 31 0 0 29 30 30.3333 54 0 0 0 0 0 26.5 26.5 37.6667 26 26 26 26 26 30 0 26 26 26 32.75 0 23 23 23.5 0 0 23 0 23 0 0 0 0 21 19 0 0 21.6667 21 0 20 20 0 0 18 0 18 0 24 15 20 23.25 0 17 16 29.25 0 26.5 26.5 26.5 29.25 33.5833 33.5833 26.5 0 28 28 0 28 0 27 27 0 27.5 27.5 27 27 27 27 27 27 27 27 27 28 28 0 27 27 0 0 0 21.75 21.75 21.75 25 0 25 25 0 25 25 0 0 25.3333 0 0 0 26 0 0 0 22 0 21.5 21.5 21.5 0 0 0 0 0 0 0 0 0 0 0 0 9.55556 9.55556 0 0 6.75 6.25 0 0 5 0 5 7.1 6.6 6.2 6.2 6.2 5.5 5.07143 5.07143 5.07143 1.33333 5.4 5.4 5.33333 5 5.33333 6.16667 6 4.5 0 0 4 4 4 6 6.14286 6.14286 6.5 6.5 5.5 6.5 0 0 4.66667 0 0 8.75 8.75 8.75 7.75 7.75 7.75 6 8 0 16 7.5 6 8 0 0 15 0 6.5 8 8 17.6667 17.6667 9.5 11.1333 11.1333 10.8462 0 0 0 0 17.5 20 0 0 22.6667 0 0 0 22 0 21 0 0 0 22 0 0 0 0 0 23 21 19 0 19.5 19.5 20 20 0 0 0 0 0 0 0 0 0 0 18 0 17 0 24 15 15 0 14.5 0 0 0 0 0 0 0 0 0 0 6 6 0 0 4.66667 0 5 5 6 0 6.75 8.5 8 8 8 8 7.83333 8.5 8.83333 8.83333 13 0 9 8 10.3333 8 9.5 0 11 7.8 7.8 11.875 11.875 0 0 9 9 0 10.5 10.5 0 10.6667 12 13.6667 0 0 14.5 0 0 0 11.5 10.5 0 0 0 17 10.1667 10.1667 0 16 0 0 0 0 0 0.769231 11.6667 26.5 16 0 11 15.1111 14.2333 0 9.85714 9.85714 0 0 8.21429 0 0 0 0.769231 12.5333 11 0 12.1667 9.91667 9.91667 13 11.95 16.6381 16.6381 16.6381 11.9048 17 17 0 9.5 14.6071 -3.5 -3.5 14.6071 7.66667 7.66667 9.52778 8.57143 8.57143 0 4.72917 4.72917 0 0 0 14.25 14.25 7.10714 7.10714 0 0 0 0 0 0 0 0 0 0 0 0 11 0 0 0 0 0 0 0 0 0 0 0 0 0 0 0 0 0 0 0 0 0 0 0 0
13.5 13.5 13 13 0 13.5 13.5 13 14 13.6667 13.5 13.3333 0 13 12.5 12.5 0 11 0 12.5 12.5 12 13 0 0 11.8333 12 12 11.5 11.5 11 13 13 12 12 11.5 12 12 0 0 11.5 15 0 11.75 11.75 11.75 12 13 12.6667 12.6667 12 11.5 11.5 11.5 11.5 11 11.5 11 11 12.5 12.5 0 11 11 11.5 11.5 11 11 11 10.5 10.5 10 10 11 11 10.5 10.5 0 11 11.5 0 0 10.3333 11 0 11.5 10.6667 10.6667 10 10.5 10.5 10 0 0 9 9 10.5 10.25 10.25 10.25 9.5 10 11 9.5 10.1667 10.1667 10 10 10 10 11.5 11.5 9.5 10.5 7.33333 24.8333 0 0 0 39.5 39.5 42 0 0 0 42.1667 42.1667 43.3333 43.3333 42.2 42.2 42.2 42.1667 42.6667 42 42 41.5 41.5 0 42 43.5 0 0 42.5 42.5 42.5 0 41.5 42 42.25 0 0 42 42.5 0 42.5 43.3333 42.5 34.9333 34.9333 0 34.9333 40 41.5 0 0 0 0 30.3333 36.1667 36.1667 40.5 40.5 39.5 39.5 40 40 0 0 0 0 36.25 0 0 0 35.5 0 0 17 0 0 0 26 30.5 36 0 35 0 35 34.6667 34.6667 0 34 34 0 33 33.5 0 31.5 31.5 0 0 32 0 0 31.3333 0 31 30.6667 30.6667 30 0 30.5 0 0 0 28 28 0 34.1111 34.1111 26 26 33.6667 26 35 30 25.5 0 25.5 25.5 25.5 25 0 0 0 23 0 24 0 0 0 0 0 0 20 21 21.1 21.6667 0 21 17.5 0 0 20 19 19 18 0 18 23.1667 17 0 18 0 27.75 17 16.5 26 26 26 25.5 25.5 26 23 23 20.75 28 0 0 0 27 0 0 28 0 26.5 26.5 26 26.5 0 0 27 27 27 27 0 28 0 0 0 26 0 0 26 0 0 21.75 0 0 24 0 0 25 0 20 25 25.3333 0 19 0 0 0 0 0 0 0 0 20 11 0 0 0 0 0 0 0 0 0 0 0 9.55556 9.55556 9.55556 0 0 0 6.75 6.25 6.25 7.75 5 0 7 7 0 0 0 7.55556 5.5 5.5 5.07143 7.55556 1.33333 5.4 5.97222 6.58333 6.16667 5.33333 2.5 5 5 5 4.5 6.25 6.25 6 6 0 0 5.5 0 0 6.5 0 0 8 0 0 0 7 0 8.75 7.75 0 6.5 8 0 16 7.5 0 6 10.5 10.5 0 0 0 7 17.6667 9.9798 0 9.5 11.1333 11.3333 10.8462 10 9.9798 9.9798 0 19.5 19.5 0 22.6667 22.6667 0 22 22 0 0 0 0 21 0 21 0 19.5 19.5 0 0 0 0 0 0 0 20 0 0 18.3333 0 0 0 0 0 0 0 18 0 0 0 0 0 0 0 0 19 0 0 0 0 10 8.15 8.15 0 7.8 7.8 0 6 7.33333 6.40278 6.40278 4 0 0 5.5 0 6.5 7.5 0 8 8 0 0 7.9 7.9 8.83333 10 8.5 8.5 9.66667 8 8 8.5 9.5 12.1667 12.1667 11.3333 10.75 0 10 16 13.1667 12 11 12 0 10.5 0 10 10 9.33333 0 0 13 11 0 13 12 16.5 0 0 0 0 9 0 12.5 14 0 0 11 0 10.5 11 24.5 0 11 0 0 0 11.3333 11.3333 11.3333 9.85714 8.21429 0 16.25 5 8.66667 12.5333 12.5333 11 0 10.5 10.5 9.91667 9.91667 0 12.0769 12.0769 0 16.6381 16.6381 6.33333 6.33333 0 -2.33333 -2.33333 -3.5 7.66667 7.66667 0 0 0 0 0 0 0 0 0 0 0 14.25 0 0 0 0 0 10.625 0 10 0 13.9167 9.5 10.5 0 0 9.8 0 0 0 0 0 0 0 0 0 10 0 0 0 0 0 0 0 0 0 0 0 0 0 0
13.5 13.5 13 13 14 14.5 14.5 0 14 13.5 13.3333 13.3333 13 0 0 0 12 12.3333 12.6667 12.5 12.5 12 12 0 11.8333 11.8333 12 0 11.5 11.5 12.5 14 0 12.5 12.5 12 13 12.5 12.5 12.5 12 12 17 12.5 12.5 12.5 12 13 12.6667 11.6667 12 0 11.5 11.5 11.5 0 11 12 0 12 12 12 12 12 10.5 10.5 11 11 11.6667 0 0 10.5 11 11 12 11.7 11.7 12 12 12 0 0 11 10.5 10.5 11.5 10.6667 11.3333 11 11 12 11 10.5 10.5 10.5 11 11 12.5 0 0 10 11 11 0 10.1667 10.8333 10.5 11.3333 0 11 11.5 11.5 9.5 42.3333 31.5 -12 0 0 0 0 40.5 39 41 0 0 0 0 0 43.3333 42.5 42.5 0 42.6667 0 42 42 41.5 41.5 41 42 42 42 0 41.6667 41.6667 41 41 41.5 0 42.25 42.25 42.25 40.5 42.5 42.5 0 0 0 0 0 42 34.9333 42 42 0 0 0 0 39 38.5 0 39.6667 0 40.6667 40.6667 0 0 0 39 0 0 32 24.5 24.5 0 31.3333 0 0 28.5 14 11.5 11.5 35 36 23.75 35.5 35.5 0 0 34.6667 35.3333 0 33 0 0 33 33 0 0 0 0 31 31 31 31.3333 31.3333 31 31 30.6667 42.3333 52 30 30 0 0 0 28 30.6667 39 34.1667 34.1667 32.75 0 26 26 0 29.3333 25.5 0 25 25 25 25 0 0 0 23 0 22.5 0 0 23 0 0 0 20 0 21.1 0 0 19 21 0 0 20 0 0 19 0 0 0 0 18 19 0 0 17 24 27 26.5 26.5 20.3333 20.3333 23.25 23.25 27.5 13.25 0 0 24 0 26.5 28 28 28 0 24.25 24.25 25 26 26.5 27 27 26.5 26.5 27 27 0 28 0 0 27 0 26.5 0 0 25.5 25 25 0 24 0 0 0 0 0 24 25.5 26 26 27 0 0 0 0 0 0 0 0 13.2667 0 0 0 0 0 0 0 0 0 0 0 0 9.55556 9.55556 9.55556 0 0 0 6.75 10.1667 0 10.1667 5 9 8.5 0 0 6.5 0 0 8.75 7.55556 7.55556 5.97222 5.97222 5.97222 6.16667 3.4 3.4 2.5 0 7.5 7.5 0 3.30556 6.25 9.5 8.25 8.25 6.14286 8.75 8.75 5.5 4 0 7.66667 0 6.83333 8.2 0 8 8 0 7.8 7.26667 9 7.66667 8.16667 0 9.66667 8.66667 0 8 16.5 8 7 0 8 10.5 9.9798 9.9798 0 11.1333 11.3333 0 21.5 19 18.5 18 18 18 0 0 15 0 22 19 0 19.5 22 22 22 0 0 0 0 0 0 19.3333 0 19 0 0 19 19 0 0 0 0 18.5 0 0 17 18.5 18.5 18 0 0 0 0 0 0 0 14 14 0 0 0 10 10 10 0 8.15 0 0 0 0 7.33333 0 6.40278 6.40278 6.15 4 0 5.5 7 6.5 7 0 8 7.5 7.5 9 0 0 8.5 8.5 9.5 9.66667 9.66667 8 8 0 0 0 0 9.75 0 10 11.3333 8.58333 0 0 11 12 11 11 10 9.33333 9.33333 12.5 12.3333 9.2 12 9.5 13 12.5 0 12 11.8333 11.8333 14.25 0 0 0 12 11 11 0 0 11 0 0 24.5 0 15.6 0 0 13.6667 13.6667 10.8333 0 5 5 0 -1.75 8.66667 0 10.2 0 0 5.83333 5.83333 0 12.1071 12.1071 12.0769 12.0769 12.0769 16.6381 16.6381 11.4 11.4 0 16.6381 0 0 -8 0 -8 0 0 0 -0.5 9.33333 -0.5 0 0 4.72917 0 0 0 0 10.5 10.5 0 0 12.9333 12.25 10 13.9167 13.9167 0 0 0 0 0 0 0 0 0 0 0 0 0 0 0 0 0 0 0 0 0 0 0 0 0 0 0 0
14.5 14.5 13.5 13.5 14.5 14.5 14.5 14 0 0 0 0 13 13 12.6667 12.6667 12.5 0 14 13.5 13.5 12.5 13 13 12.5 12.5 12 12 12.5 12.5 12.5 14 0 13.5 13.5 12 13 13.5 0 0 12.6667 13 12.5 13.25 13.25 13.25 14.6667 0 11.6667 11.6667 12 12 12 12.1 12.1 12 12 12 11.5 11.5 11.5 12 13 13 12 12 11.5 11.5 11.6667 0 0 11.6667 12 11 12 11.7 11.7 12 11 12 0 0 11 12 12 12 11.3333 11.3333 12 11.5 11.5 11.6667 11.5 11.5 11 0 12 11.5 11 11 11.5 11.5 11 11.5 10.8333 10.8333 10.5 0 12 12 0 0 0 43.1 0 13 41 41 0 0 40 40.5 42 0 0 0 42 43 43 42.5 42.5 0 42.6667 42.6667 42.6 42.6 42.6 42.6 41 42 42 42 42 41.6667 41.3333 41.1667 41.1667 41.5 43.5 41 43.5 43.5 0 43 0 43 42 24.3333 42 42 0 0 42 42 30 34 34 0 29.3333 36.25 0 0 40.6667 38.5 38.5 39.8333 39.8333 0 39 31 42 32 31.75 31.75 0 0 28 0 28.5 0 0 0 0 25 23.75 35 35 35 34 35.3333 35.3333 0 0 33 0 33 34 34 0 0 0 31.3333 31 31 56 31 53 31 42.3333 42.3333 30 0 0 32.8333 32.8333 0 0 28 28 33.25 33.25 0 26 25.5 26 26 0 0 0 0 0 0 0 0 23 23 0 0 24 0 0 0 0 0 0 20 0 21.1 21.1 0 19.3333 21 0 0 20 19 19 19 19 19 19 0 0 16.5 0 17 20.3333 27 27.75 26.5 26.5 25.3333 25.3333 0 23.25 0 0 28 0 0 0 25 25 26 27.5 25.5 25.5 26 25 26 27 0 28.5 28.5 25 27.5 0 0 27.5 0 0 27 26.5 26.5 26 25.5 0 0 25 0 24 0 24 0 0 0 0 25.5 0 0 0 0 0 0 0 0 0 0 0 0 0 0 0 12 13.2667 0 11.3 11.3 0 0 0 0 9.55556 0 0 9 10.5333 10.5333 0 10.1667 0 10.1667 10.1667 9 9 8.5 0 0 7.55556 0 8.75 8.75 7.55556 7.55556 7.8 0 13.3333 6.16667 3.4 3.4 3.30556 3.30556 9 9 3.30556 6.25 0 0 8.25 0 4 8.75 8.75 0 7 7 7.66667 0 6.83333 0 0 8 0 7.8 7.26667 7.26667 7.66667 8.16667 10.5 0 8.66667 8.66667 8 10.3182 16.5 0 11.0278 0 0 10.5 9.9798 9.85 0 9.85 22 10.8462 4 0 3.75 3.75 3.75 0 0 20 0 0 17.5 0 0 22 22 22 0 0 21 0 0 0 20 0 0 0 0 0 19 19.5 0 0 0 0 0 0 17 0 0 0 0 20.5 0 22 0 0 14 10.5 10.5 0 0 0 0 0 10 10 8.15 8.15 0 0 7.8 6 7.33333 6.40278 6.40278 6.40278 6.15 6.15 7.16667 6.5 6.75 6.5 0 9.5 9.5 7.5 7.5 0 0 9 0 0 9.5 0 0 0 9 0 0 10 0 9.75 0 8.58333 8.58333 0 0 0 0 11 0 10 0 0 0 0 0 12.3333 10.1667 10.1667 12.5 0 0 11 11 9.33333 0 0 11 0 10 0 0 0 0 0 0 12 13 0 0 0 0 0 0 9 10.2857 0 -3 0 9.5 9.5 0 0 0 -3.5 -0.5 9.91667 12.1071 12.1071 12.1071 12.0769 12.0769 12.0769 12.0769 11.9048 6.33333 0 10 5.83333 0 40.5 -15.5714 7.33333 0 -3.5 0 0 9.33333 0 10.5 5.02564 5.02564 9.61905 9.96154 0 0 0 0 0 0 12.9333 0 12.25 16.5 0 0 0 0 0 0 0 0 0 0 0 0 0 0 0 0 0 0 0 0 0 0 0 0 0 0 0 0 0
14.5 14.5 14 14 16 15.5 15.5 14.5 14 14 13.5 13.5 13 13 12.6667 0 13 13.5 13 0 0 13 13.5 0 13 13 13 0 12.5 12.5 12.5 13 0 13.5 13.5 13 13 13.5 0 0 11.5 13 0 14.6667 14.6667 13.5 0 0 14.8 14.8 13 12 12 12.1 12.1 12 12 12 11.5 11.5 11.5 12 13 13 12 12 11.5 11.5 11.6667 0 0 11.6667 12 12 12.5 13 13 13 12 12 0 0 11 11.3333 13 12.5 12 12 12 11.5 11.5 11.6667 11.5 11.5 11 0 12 11.5 11 11 11.5 11.5 13 12 12.5 12.5 12 0 0 12 11.5 11.5 10.5 10.5 12 3.5 48.75 48.75 0 0 42.3333 0 40.5 0 0 42 42 0 42 43.5 43.5 0 42.6667 42.6667 0 42.6 40.5 40.5 42 42 42.6667 0 42 41.3333 41.3333 41.1667 0 41 42.5 43 43.5 43.5 43.5 43 43 43 0 0 43 43 0 41.3333 41 42 0 0 0 39 0 39 42 0 38.5 40.3333 40.3333 37.5 36.5 40.3333 38.5 33 0 26.5 26.5 30.5 0 29 29 0 0 35.3333 34.5 34.5 0 0 0 0 0 0 34 34.5 34.5 0 32.3333 32.5 0 33 33 0 0 0 31.3333 31.3333 31.5 0 30.5 30.5 31 0 40.5 40.5 30 30 0 0 0 0 0 28 0 0 0 27 25 0 26 0 0 0 0 0 25 25 0 23 0 0 23 0 0 0 21.5 21.5 0 0 20 0 0 20 21.1 0 0 0 20 20 0 18.5 18.5 18 0 19 19 0 22.5 16 0 0 0 27 27.75 0 0 26 25.3333 0 0 23.6667 0 0 0 0 26 0 0 25 25 25 25 24.25 25 27.5 0 0 28 28 0 0 26.5 26.5 0 28 26.5 0 0 0 0 0 0 0 0 0 0 0 0 0 0 0 25 26 0 0 0 0 0 0 0 0 0 0 0 0 12.75 12.75 12.75 12 13.2667 13.2667 0 11.3 0 0 10 10 0 11.5 0 9 9 10.5333 0 0 10.1667 0 11.9167 0 0 12.25 8.5 0 7.55556 0 7.55556 8.75 0 0 0 7.8 0 2.5 5.1 5.1 5.05556 0 9 9 0 0 0 0 8.25 0 0 8.66667 0 0 0 7.66667 10.2778 0 10.1652 8.04762 0 11.1964 11.1964 0 10.2778 8.11429 0 0 8.16667 11.5333 11.5333 10.641 10.641 6.66667 10.6389 10.6389 11.0278 10.581 0 9.7 10.5 9.9798 9.85 -0.666667 9.9798 9.9798 9.9798 0 21.5 3.33333 19 0 17.6667 0 0 22 17.5 0 0 22.5 22.5 22 0 0 0 0 0 0 0 0 19 0 0 0 18.5 0 0 0 0 0 0 0 0 17 0 16.5 0 0 0 0 0 0 0 14 0 0 0 0 0 0 0 9 0 0 0 0 7.8 7.8 9 8 0 0 6.15 0 7.16667 7.16667 0 0 11 9.5 0 0 9 11.5 0 8.5 9.5 11 8.25 8.25 0 9 9 0 0 0 0 7 0 9.25 9.25 11 0 9.66667 0 0 0 0 0 10 10.5 10.4667 0 13 13 12 12.5 0 0 0 10.5 11 12 10 10.5 9.5 9.5 11 14 9 13 9.66667 8.66667 23 12 5.66667 0 11.8 11.8 0 0 0 9 0 0 0 8.3 22 5.83333 52.5 12.1667 52.5 10 9.91667 9.91667 9.91667 12.1071 16.6381 16.6381 12.0769 12.0769 12.0769 0 0 0 0 14.2 13.25 15.7857 9.5 0 12.5 12.5 0 9.52778 9.33333 0 0 5.02564 15.1515 0 9.96154 9.96154 6.83333 14.25 0 10.5 15.1667 15.1667 10.625 12.9333 12.25 0 0 0 0 0 0 0 0 0 0 0 0 0 0 0 0 0 0 0 0 0 0 0 0 0 0 0 0
14.6667 14.6667 14 14 14.5 0 0 14.5 15 15 0 0 14 14 0 0 13 13.5 14.5 13.5 13.5 14 14 14 13.5 13.5 13 13 0 0 13 0 14 13.5 13.5 13 13 14 13.5 13.5 0 12.5 14.8 0 0 13.5 0 0 14.8 14.8 13 12 12 12.1 12.3333 12 22.5 22.9 0 0 12.6667 13 13 13 12.5 12.5 12.5 13.5 12.25 12.5 12.5 11.6667 12 13 13 12.5 12.5 13 13 13 12.5 12.5 0 12 12 12.5 11.5 11.5 12 11.5 11.5 13 12.6667 12.6667 12 12.5 11.5 13.5 13 13 13 12.5 13 12 12.5 12.5 12 12 0 12 0 0 11 12 0 12 39.5 39.5 37 35.4 43.1 0 40 40 40 41 41 0 41.875 41.875 41.875 0 43.5 42 42 43 42 42 42 0 0 0 0 41.5 41.5 41 0 42 0 0 0 0 0 0 0 43 0 19.1667 0 0 0 0 0 32.3333 0 0 35.5 0 31.75 0 0 36.6667 0 40.3333 40.3333 0 0 40.3333 0 36.6667 28 34.6667 34.6667 30.5 0 33 0 0 28 35.3333 34.5 34.5 0 7 0 0 35 0 34 34 34 32.3333 32.3333 0 0 33 34 0 0 0 32 32 32.5 45 0 32 0 43 35.9 35.9 37 30 27.3333 30 0 0 0 0 0 0 26 26.3333 0 0 0 26 0 0 0 26 25 0 23 23.6667 0 23.5 0 0 23 0 0 20.5 20.5 21 19 0 0 19 21 0 20 0 0 19 19.5 19.5 19 19 19 19 28 0 22 0 19 0 0 27 27.75 26.5 26.5 26 5 24 20 0 0 0 0 0 26 26 0 26 27 28.5 28.5 24.25 23.5 27 27 26 28 28 0 0 0 26 26 0 0 0 0 25.5 26.5 26.5 0 24 25 25 25 0 0 0 26.6667 22 26 0 0 0 0 0 0 21 21 0 0 0 13 0 0 0 12.75 12 0 13.2667 0 11 11.3 0 10 10 0 10 11.5 9 12 12.3 0 0 12.5 0 11.9167 9.5 12.25 12.25 9.5 0 5.5 0 0 0 10.2667 8.66667 8.66667 11.7843 0 6.5 2.5 0 5.1 5.05556 6.88889 17.3 0 8.22727 8.22727 8.51648 8.51648 -5.16667 10.8333 8.66667 9.85714 5 0 7.66667 7.66667 0 0 10.1652 8.04762 0 11.1964 0 0 8.11429 9.7 0 9 0 11.5333 11.5333 0 6.66667 10.6389 10.6389 0 0 10.581 0 9.7 10.5 9.9798 9.9798 10 9.9798 0 -0.666667 0 -4 0 0 0 0 21 0 0 0 0 20 0 22 0 0 21.5 21 0 23 0 19 20.5 0 19 0 18 0 0 0 0 18.5 0 0 18 0 18.5 16.5 18.5 0 0 0 0 0 0 12.5 0 0 0 0 12 0 10.5 10.5 0 10 10 10 10 9.5 0 0 10.9 11.3333 11.3333 8 0 0 0 0 10 0 10 0 0 10 11.5 0 0 11 0 10 9 0 8.5 10 9.66667 0 0 8 0 10 9.25 11 11 0 0 0 0 0 0 9.66667 10.5 10.4667 10.6667 0 0 13 9.5 0 0 0 0 10.3333 11 0 11 11.5 0 11 0 10 13 0 0 0 9 0 0 0 11.8 11.8 0 11 10 5.66667 0 0 0 8.3 12.5333 11 0 12.1667 9.91667 9.91667 9.91667 9.91667 12.1071 11.4 16.6381 16.6381 16.6381 14 11.9048 13.8333 11.4 17.9744 14.2 13.25 0 0 0 0 0 0 0 0 16.7692 11.5 13 13 0 0 0 9.96154 14.8 10.5 0 0 11 11 12.9333 0 11 16.5 0 0 0 0 0 0 0 0 0 0 0 0 0 0 0 0 0 0 0 0 0 0 0 0 0 0
14.6667 14.3333 14 15.5 16 0 0 15 0 15 14.5 14.5 14 14 13.5 13.5 0 13.5 14.5 14.5 14.5 15 15 0 14.5 14.5 14 14 13.5 13.5 13.8 14.5 0 13 13 13 13 14 13.6667 13.6667 13.5 13 13 14 14 13.5 13.5 14 13 13 14 13 13 12.3333 12.3333 12 13 22.9 0 0 12.5 14.3333 0 13.6667 13.3333 13.3333 13.3333 13.5 12.25 12.25 12.25 13 13 13 14.3333 0 0 13.3333 14 14 13.5 13.5 0 13.5 13 0 12.5 12.5 12 12 13 13 12.6667 13.3333 13.5 14 14 14 13.5 13.5 13 14 14 0 12.5 12.5 12 12 12 13 0 12.3333 0 12 0 0 41.5 41.5 34 35.4 0 0 40 39.5 39.5 41.1667 0 0 41.875 41.875 41.875 0 41.5 43 0 43.5 0 0 0 41.5 0 0 42.25 40.5 40.5 41 41 42 42.3333 0 41.8333 41.8333 42.5 0 0 42.5 43 0 24.5 24.5 41.5 0 0 32.3333 0 35.5 35.5 0 31.75 34.6667 39 0 39 40.3333 40.3333 37.5 37.5 40.3333 32.5 41 0 0 0 30.5 0 29.75 32.6667 0 35.3333 0 0 0 0 0 0 29 35 0 0 0 0 0 0 0 0 32 0 33 0 0 32 32 39.7 39.7 0 46 0 43 35.9 35.9 0 0 27.3333 29 28 0 0 28 0 0 26 0 0 26 26 0 25 25 25.5 25 25 0 0 0 0 23.5 0 0 23 0 0 0 0 0 19 20 0 0 20 0 0 0 19 19 19.5 19.5 23 18 0 17 0 0 24.2 22 15 0 19.6667 27.5 27.5 12.5 12.5 7 12 8.5 7 15 0 0 0 0 26 26 0 0 27 23.5 23.5 23.5 0 27 24.5 28 28 0 0 0 25 25 0 24.5 25.5 0 0 25.5 0 0 0 25 25 25 0 0 0 0 0 0 0 0 0 0 0 0 0 0 13 12.6667 0 0 11.5 13 13 0 0 0 0 12 12 0 11.3 0 0 10.75 11.6667 0 12 12 13 12 12.3 12.3 10.5 12.5 0 11.9167 9.5 12.25 0 6 0 0 0 0 10.2667 10.2667 13.0833 11.7843 11.7843 0 6.5 11.7818 11.7818 6.88889 6.88889 2 17.3 8.5 8.22727 8.22727 8.51648 0 -5.16667 10.8333 9.85714 5 0 5 5 10.2778 0 0 8.04762 8.04762 11.1964 11.1964 0 10.2778 9.7 9.7 0 9 10.5 11.5333 11.5333 0 6.66667 10.6389 10.6389 11.0278 10.581 10.581 10.581 9.7 0 9.9798 9.9798 0 -3 -2 0 0 10.6667 16.5 5.5 0 0 22 20.3333 0 0 20 0 22.5 22.5 0 21 21.5 23 19.5 0 0 17 0 18.5 18.5 0 0 0 0 0 0 0 0 0 0 0 18.5 16 0 0 0 0 0 0 0 0 10.5 12.5 12.5 19.5 16.75 0 12 0 0 11.4 11.4 11.3333 10.5 10.5 0 10.9 10.9 11.3333 11.3333 8 9 9.9 9.9 0 11 0 14.5 0 10 11.5 11.5 8.5 9.5 10 10 10 10 9.5 9.5 10 0 9.66667 9 0 10 9.25 15.6 0 0 14 11.25 10 10 10.25 9.66667 10.5 0 10.6667 11.25 0 11.25 0 0 9.66667 11.5 11.5 10.3333 0 0 10.8 0 0 52.5 22 0 12.5 12.5 0 0 0 0 11.5 0 0 0 9.5 0 10.25 10.5714 10.5714 8.3 0 0 0 8 12.5333 0 52.5 24.125 24.125 0 24.125 11.4 0 16.6381 16.6381 16.6381 0 16.6381 15 17.9744 0 14.2 0 0 15.7857 15.625 0 0 0 0 24.8636 16.8611 11.5 13 13 0 14.8 14.8 21 13 0 20 0 0 0 0 0 0 0 0 0 0 0 0 0 0 0 0 0 0 0 0 0 0 0 0 0 0 0 0 0 0 0 0
14.3333 14.3333 14 14 16 15.5 15.5 15 0 15.5 15.5 15.5 0 15 14.5 14.5 14.5 15 15 14.5 14.5 15 15.5 0 15 15 15 0 14.5 14.5 14.5 15 0 14.1667 14.1667 22.5 31 13.5 13.6667 14.9 21.75 21.75 16.3333 0 0 14.8333 14.8333 0 16.3333 16.3333 21.75 18.5 14 13.5 13.5 13 13 22.9 0 0 0 15 15 15 14 14 14 0 13.3333 13.3333 13.3333 13 13 13 14.3333 0 13.6667 14 15 0 13.5 13.5 13 0 14 14 13.5 13.5 13 13 13 13.5 13.3333 13.3333 0 14 14 14 14 14 0 13 0 0 13.5 13.5 13 0 12 13 12.3333 12.3333 0 12 0 13 36.5 36.5 0 22.3333 0 0 0 40 40 41 42.5 42.5 40.6 41.875 41.875 0 42 42 43.5 0 42 42 42 0 41.5 41.5 42.25 42.5 42.5 0 0 42 42.3333 0 0 0 41 0 43.5 43.5 43 0 30.5 30.5 26 0 0 28.5 59 0 0 0 30.5 38 0 41 0 0 0 36.5 36.5 0 34 31.25 0 30.5 30.5 0 0 29.75 0 0 0 35 0 0 38.5 5.5 0 0 26.6667 0 0 34.8333 34.8333 0 0 33 0 0 0 45 32.5 32.5 32 0 39 35.5 31 40 0 0 29 29 0 27.3333 0 29 29 0 0 0 0 0 27 27.5 0 0 26 0 26 26 0 0 0 0 23 23 0 23 23 0 23 0 21 21 21 0 0 0 0 0 20 0 0 0 18 0 17.5 17.5 17.5 17 0 17 18 0 24.2 23.1667 19 19 18.5 14 20 20 0 22 16 0 16.5 25 0 0 24 22.5 22.5 0 0 0 0 0 0 22 0 24 0 0 0 23.6667 0 0 0 0 0 24.5 0 25 0 0 0 0 0 25 25 25 0 0 0 0 0 0 0 0 12 0 0 0 13 0 12 12.6667 12.6667 0 0 13 13 0 0 12.1667 11.8333 11.8333 12 0 11 11 0 10.75 11.6667 11.6667 12 12 0 15.6667 12.3 12.3 0 0 12.5 0 12.25 12.25 0 6 0 0 0 0 12.6667 0 0 13.0833 17.0667 0 17.0667 9.35 2.42857 2.42857 0 6.88889 8.22727 8.22727 0 0 8.51648 8.51648 8.51648 10.8333 8.66667 -3 5 -3 0 0 10.2778 10.1652 10.1652 8.04762 8.04762 11.1964 11.1964 0 10.2778 9.7 8.11429 8.11429 11.5333 11.5333 11.5333 13.4 10.641 10.641 10.6389 10.6389 11.0278 14.2 14.2 10.581 9.7 9.9798 9.9798 9.85 9.85 11.1333 10 0 0 18 0 20 22 0 20.3333 0 0 18 14.5 0 0 0 22 0 0 0 0 0 0 0 0 0 0 0 0 0 0 17.5 18 0 0 16 0 0 16 0 0 0 0 0 12 0 0 0 13 14.5 0 16.75 0 12 10.9 10.9 10 11.4 11.3333 11.3333 10.5 10.5 0 10.9 11.3333 11.3333 8 8 0 13.75 13.25 0 14.25 6.83333 0 10.2 12 0 10.8333 0 0 0 10.4167 10.7143 0 13.5 13.5 13.6667 13.6667 7.8 11.875 14 11 12.3333 15.6 15.6 13 14 0 0 0 0 9.66667 0 10.4667 10.6667 0 0 8.5 0 9.66667 0 0 0 0 0 17 16.5 11 52.5 52.5 0 22 22 0 0 8.3 14.5 10.5714 0 0 0 0 13.6667 0 0 0 0 0 0 20.5 0 0 20 0 0 0 24.125 3 0 13.8242 0 16.6381 16.6381 16.6381 14 16.6381 25.5 17.9744 14.2 14.2 13.25 13.25 15.7857 15.625 0 0 0 0 24.8636 16.8611 24.5 24.6667 15.1515 15.1515 14.8 14.8 13 13 0 0 0 0 0 0 0 0 0 0 0 0 0 0 0 0 0 0 0 0 0 0 0 0 0 0 0 0 0 0 0 0 0
0 0 14 14 16 15.5 15.5 15 0 15.5 15.5 15.5 0 15 14.5 14.5 14.5 15.25 16 14.5 14.5 15 15.5 16 14.5 14.5 15.25 15.5 14.5 14.5 14.5 16 0 22.9 22.9 15 15 15 14.9 14.9 21.75 14.3333 15 0 0 16.1667 14.8333 18.8 15.5 15.5 15 15 14.75 15.1667 15.1667 0 14 15.5 0 0 0 15 15 0 14.5 14.5 14 0 36.5 14.5 14.5 14 14 14 0 13.6667 13.6667 14 15 15 14.5 14.5 14 14 14 0 13.5 13.5 13.5 0 14 14 13.5 13.5 0 14 14 14 14.5 14.5 14 18 16.1667 16.1667 12.5 12.5 13.5 13 0 12 11.5 11.5 12 12 0 0 0 0 0 37 40 0 41.5 40 40 42 0 42.5 42 42 42 0 42 42 42 0 43 43 43 0 41.6667 0 41.5 41.5 41.5 41 0 40.5 43 0 0 41.3333 41.5 0 0 0 23.75 23.75 0 0 41 0 0 28.5 0 0 0 29 30.5 0 42.5 41.5 41.5 0 0 37.5 37.5 0 36 34 0 39.6667 39.6667 30.5 0 41 0 51.6429 35.5 35.5 0 0 48.3333 56.3 27.3333 68.75 0 36 34.75 34.8333 34.8333 0 42 0 0 0 33 0 31.5 31.5 32 0 32 35.5 0 0 29.5 29.5 0 0 28 0 0 27 28.3333 0 27.5 28 0 0 26 27 0 26 26 0 25 25.5 0 0 0 0 23 23 0 0 0 0 0 0 0 0 0 0 22.75 0 19 19 19.5 20 22.6 0 18 0 0 0 0 0 0 17 12 0 17 0 18 18.5 0 15 0 0 0 0 16 16.5 17 18 0 0 0 24 26 24 30 12 0 23 23 0 0 0 0 0 23.5 23.6667 0 0 0 0 24 24 24 24 0 0 0 0 0 25 0 0 0 17.5 0 0 0 0 14.3333 14.3333 0 0 0 0 0 0 14.3333 0 13.85 13.85 0 0 11 13 11.75 12.1667 12.1667 11.8333 12 12 0 11 0 10.75 10.75 11.6667 0 15.1667 0 15.6667 13.0714 13.5 13.5 13 0 13.3333 13.3333 12.25 0 0 0 0 14.5 9.64286 0 0 0 17.2051 17.2051 0 17.0667 13.7 2.42857 -1.66667 -2.80952 -2.80952 -2.80952 -2.80952 -2.80952 -2.80952 -2.80952 0 -1.66667 9.85714 -2.91667 9.85714 9.85714 16.0714 5 0 14.3333 10.2778 0 10.1652 8.04762 8.04762 16 0 0 8.11429 9.7 8.11429 10.5 0 11.5333 13.25 10.641 13.4 10.641 10.5 14 14.2 14.2 0 10.581 0 -0.666667 9.9798 0 0 11.1333 20 12.25 13 0 0 16.5 0 5.8 18 20.3333 0 0 0 0 0 0 0 0 0 16.8462 0 0 0 0 0 0 0 0 12.5 0 18 0 0 0 16 16 15.5 0 0 0 15.6667 0 0 14.4286 0 0 0 13 23.3 14.5 19.5 16.75 0 0 0 0 28.25 11.4 0 13.3333 0 0 0 14 11.8333 11.8333 0 9.5 16 13.75 13.25 14.25 7 14.5 0 10.2 10.2 0 0 10.5 10.5 10.4167 10.7143 10.7143 11.5 0 0 0 13.6667 13.6667 0 11.875 0 12.3333 12.3333 13 14 14 0 0 0 0 12 12.6667 0 15.6667 12 0 0 0 0 0 0 0 0 24.125 17 16.5 0 0 0.769231 12.5333 0 0 0 8.3 14.4 15.2667 0 0 10.8333 13.8 13.8 13.8 15.2667 14.4 0 0 0 0 0 0 -0.166667 20 0 8.225 15.1458 15.1458 15.1458 0 0 0 0 0 0 0 0 0 0 0 0 0 0 15.625 15.625 15.625 0 0 0 0 0 16.8611 5.2 0 0 0 0 0 0 0 0 0 0 0 0 0 0 0 0 0 0 0 0 0 0 0 0 0 0 0 0 0 0 0 0 0 0 0 0 0 0
16 15.8333 15.8333 16 0 15.5 15.5 16.3333 0 16 15.5 15.5 15 15.5 15 15 14 16 15.6667 16.5 16.5 15.1667 15.1667 16 14.5 14.5 15.25 15.25 14.5 14.5 14.5 16 0 15 15 15 0 15 14.9 14.9 18.5 14.3333 15 18.8 18.8 16.1667 16.1667 0 15.5 15.5 15 15 14.75 14.75 14.75 0 14 15.5 0 0 0 15 0 15 14.5 14.5 14 0 14.6667 14.8333 14.8333 14.5 14.5 14 14 14.1667 14.1667 14 15 15.5 15.6667 15.6667 0 0 0 14 14.5 14.5 14 0 14 14 13.5 13.5 14.5 0 14 0 0 0 0 0 0 0 0 0 0 0 0 0 0 0 0 0 0 0 0 0 -11 0 40.25 40 41.5 39 39 39.6667 0 0 41.5 42 42 0 42 42 0 0 41.5 41.5 41.5 0 41.6667 41.6667 41.5 41.5 41.5 41 0 41 41 0 41.3333 41.3333 40.5 0 41.25 41.25 42 25 43 43 43 0 0 0 29 33 33 0 30.5 0 0 34 36 40.5 40.5 36.5 36.5 52.75 39.6667 36.5 50 42.6667 42.6667 56.5 55.6667 55 31 51.6429 15 35 0 0 42.6667 20.2 27.3333 0 0 36 34.75 34.8333 34.8333 0 33 37 0 36.5 33 0 31.5 31.5 33 0 32 0 0 0 0 29 28.1667 28.1667 0 28 0 28 28.3333 0 0 27 0 0 26 26.5 0 0 0 0 25 25.5 0 0 0 0 23 23 0 23 0 22 22 -8.5 21 20.5 20.5 23.5 20 0 20 20 19.5 0 0 0 0 0 17.5 17.5 18.5 17.5 17.5 17.5 0 0 17 17.5 19 0 0 0 0 0 0 0 17 17 0 17 0 0 0 13 0 24 0 0 24.2857 24.2857 22.25 22.25 0 0 0 0 23.5 23.6667 0 0 0 0 21.7667 22.85 0 21.8 0 0 16 16 0 0 0 25 21 15.1667 15.1667 0 0 14.5 0 12.5 0 0 0 14 13.8333 13.8333 13.2 14.3333 13 13.85 0 0 0 14.875 0 0 14.6667 0 14.7333 15.1905 17 13.25 0 13.1667 13.1667 14.1667 0 0 15 0 15.6667 13.5 13.5 0 0 12.5 13.3333 12.25 0 0 0 0 0 13.0833 0 0 17.0952 9.64286 17.2051 9.64286 10.5 0 0 9.35 2.42857 2.42857 -2.80952 0 0 -2.80952 -2.80952 0 0 8.51648 -2.91667 9.85714 9.85714 16.0714 15 15 15 14.3333 0 0 14.2667 0 0 0 14.5 0 8.11429 -0.833333 13.5 13.5 0 13.25 13.4 13.4 13.4 13 0 14 14 14.2 0 12.5 13 0 12.5 12.5 13 12 14.5 14.5 12 0 23 0 0 0 16.5 23.8333 13.5 0 13.25 16 16 0 21 0 0 19.5 0 0 0 0 0 14.5 0 13.2 12.5 16.75 0 17 15.3333 16 0 0 0 14.4286 0 15.6667 15.6667 0 14.4286 14.4286 14.4286 17 0 15.9667 23.3 0 24 22.125 0 28.4 0 0 0 0 0 0 0 14 14 0 0 11.8333 9.5 0 0 13.75 13.25 14.25 14.25 0 0 10.2 10.8333 0 0 0 0 10.4167 10.7143 10.7143 13.5 13.5 12 0 0 0 0 0 0 0 0 0 13 0 0 0 0 0 0 12.6667 12.5 0 12.5 12.5 0 0 0 0 0 16 12 16 24.125 8.225 0 0 16.9 16.9 17.5 0.769231 0 0 0 0 11 15.2667 15.2667 13.8 13.8 0 15.2667 14.4 0 8.66667 0 0 17.5 0 16.9 20 0 0 15.1458 15.1458 0 13.8242 13.8242 13.8242 18.0395 18.0395 26.2 26.2 26.2 18.0395 0 0 13.8242 15.1458 8.225 8.225 15.625 15.625 0 0 0 0 0 0 0 0 0 0 0 0 0 0 0 0 0 0 0 0 0 0 0 0 0 0 0 0 0 0 0 0 0 0 0 0 0 0 0 0 0 0 0 0
0 16 16 16.5 17 16.5 16.5 16.3333 0 17.3333 17.1667 17.1667 16 16.6667 17 17 0 0 16 15.6667 15.6667 15.1667 15.1667 15 14.5 14.5 15.25 16 16.1667 16.1667 16 15.6667 17 16 16 16.25 0 15.5 15.5 15.5 15 15 15.5 18.8 18.8 17.3333 16 17.3333 15.5 15.5 15.5 0 15 14.5 14.5 15 0 14.5 15 15 15 15 0 15 15 15 15 0 14.6667 14.8333 14.8333 14.5 15.5 16 15 16 16 15.6667 16 15.5 15.6667 0 0 0 0 0 0 0 0 0 0 0 0 0 0 0 0 0 0 0 0 0 0 0 0 0 0 0 0 0 0 0 0 0 0 0 0 0 18.2 38.5 40.25 0 0 36.8333 36.8333 39.5 43.3333 0 43 43 43 0 0 0 0 41 40 40 40 0 0 0 0 41.5 41.5 0 0 40 0 0 40.5 40.5 40.5 0 41.1667 41.1667 42.6667 0 0 41.5 41.5 42 0 0 32.6667 29.75 29.75 0 38 39.6667 0 49 51.25 51.6 51.6 37.5 37.5 43.8 45.25 42.6667 49 26 26 30.5 0 19 35 36 15 35 0 0 33 33 40.75 53 18 34.75 34.75 34.5 34.5 0 33 0 0 0 0 0 31.6667 31.6667 32 0 0 0 0 29 0 0 0 0 0 28 28 28 0 0 0 26 0 0 25.5 27.3333 0 0 0 0 0 26.5 0 0 0 0 0 0 0 22 0 0 22 0 21 0 0 0 19 0 18 0 0 0 0 0 0 19 0 0 17.1667 0 0 0 0 0 0 0 0 18 0 0 0 0 17 0 17 0 15 0 0 16 0 14.6667 24.125 0 0 0 24.2857 24.2857 21.5 22.5 0 24.5 0 0 0 24 0 0 0 15 0 0 0 16.8333 16.8333 0 0 16.5 16.1667 25 25 0 17.3333 16 15.1667 15.1667 0 14 14.5 14.3333 12.5 0 0 14 13.8333 13.8333 13.2 14.3333 13 13.85 0 0 0 13.9286 14.875 16 16 14.6667 14.7333 15.1905 15.1905 15.1905 13.25 13.25 13.1667 13.1667 14.1667 0 15 0 20.3333 13.0714 0 0 0 0 0 0 0 0 0 0 0 17.2051 17.2051 0 0 0 0 9.64286 17.2051 17.0667 13.7 13.7 9.35 0 11.7818 11.0833 0 -2.80952 -2.80952 -2.80952 -1.66667 -1.66667 16.0714 16.0714 0 0 16.0714 15 0 14.3333 13.5 0 14.2667 14.2667 0 14.5 16 0 14.5 -0.833333 0 13.5 13.5 0 13.25 13.25 0 13.6667 8.1 0 13.5 14 15 13.3333 15 13 13.5 14.5 15 14 13.1667 0 13.5 0 12.5 16 15 15 0 13.5 15 0 0 0 26 17.5 0 0 0 0 21 14 0 0 0 14 14.5 0 13.2 19.5 14 0 0 24.5 24.5 17 14.4286 15 0 0 13.3333 13.3333 15 16.5 14.4286 0 0 15.9667 15.9667 0 0 22.125 22.125 0 0 0 0 0 13.3333 0 0 0 11.8333 14 0 11.8333 11.8333 9.5 0 13.75 14.1667 0 0 16 0 0 13.5 10.2 0 4 0 0 0 10.7143 11.5 0 0 0 0 13.6667 0 0 12.5 0 14.8 15.6 15.6 0 0 0 10.6667 10.6667 12 8 14.5 12.6667 0 15.6667 15.6667 0 0 0 0 0 9 14.5 14.5 15.1458 8.225 0 20 16.9 0 0 0.769231 20.5 0 0 14.4 0 0 0 14 0 12.5 12.5 0 14.4 0 0 0 17.5 16.9 16.9 8.225 0 8.225 15.1458 15.1458 15.1458 21.3333 21.3333 0 0 0 0 26.2 18.0395 18.0395 0 13.8242 13.8242 15.1458 15.1458 0 15.7857 15.625 0 0 0 0 0 0 0 0 0 0 0 0 0 0 0 0 0 0 0 0 0 0 0 0 0 0 0 0 0 0 0 0 0 0 0 0 0 0 0 0 0 0 0
0 16 16 18.5 0 17.5 17.5 17.6667 0 17.3333 17.1667 0 17.5 18.3333 18 18 0 17 17 16.5 16.5 16.5 16.5 16 0 0 15.5 16 16.1667 15.8333 17 17 17 16.5 16.5 16 16 16.5 16 16 16 16 16.5 16.5 16.5 17.3333 16.6667 17 15.5 15.5 15 16 0 15.1667 15.1667 15.3333 15 15 15 15 15.5 15.5 15.5 15 16 16 16 16 16 0 0 0 15.5 16 15 16 16 15.6667 16 0 0 0 0 0 0 0 0 0 0 0 0 0 0 0 0 0 0 0 0 0 0 0 0 0 0 0 0 0 0 0 0 0 0 0 0 0 0 0 -6 0 -11 0 0 43.3333 43.3333 39.5 39 39.6 43.5 41.5 41.5 0 42 42 0 41 40.7 40.7 40.7 40.5 41 0 0 41 41 41 40 40.3333 0 41 40.5 40.5 42.25 0 0 41 0 0 0 41.5 41.5 0 28 0 32.6667 39.5 39.5 0 30.5 45 50 49 45.25 38.25 38.25 37 37 38.25 32 30 0 33.3333 33.3333 30.5 49.6667 0 0 0 35 0 0 0 0 34.5 34 21 17 36 0 34.5 34.5 34 0 0 0 32 0 0 31.6667 0 31 32 0 0 0 0 0 28 28 28 0 28 0 27 27.5 0 0 26 0 0 25.5 0 26.5 22 26.5 0 27 0 0 0 0 0 0 0 0 22 0 0 21.5 21.5 0 19.5 19.5 19 0 0 18 0 18.5 27 17 17 0 19 0 0 17.1667 17.1667 0 18 0 0 18.1667 16 0 17.5 17.5 0 17 17 17 0 0 0 16 16 0 16 0 0 24.125 14 0 0 24.2857 24.2857 24.2857 14.6667 24.45 26 0 0 24 0 16.3333 0 0 0 0 14.5 0 0 16.8333 16.5 16.5 0 0 25 25.5 0 0 20 17.4762 15.1667 15.1667 14 19.6 0 16.7333 0 14.3333 14.3333 14.5 17 18.0556 17.3333 14 16.5 13.8 13.8 0 0 13.9286 14.875 16 14.6667 14.6667 17 15.1905 15.1905 11 13.25 22 19.6667 19.7 0 22.1667 22.1667 20.3333 20.3333 0 0 0 0 0 0 8 2.42857 0 0 0 0 17.2051 17.2051 9.64286 17.0952 17.0952 0 9.64286 8.1 8.1 0 13.7 9.35 11.7818 11.7818 0 0 -2.80952 15.5 15.5 -3 0 3.66667 16.0714 0 16.0714 15 0 0 6.41667 13.5 15.3333 0 0 0 15.5 19.5 16.5 15.5 0 0 14.5 0 13.5 13.5 14.5 13.6667 13.6667 0 0 13.5 14 0 13.3333 13 14 13.5 15 0 13.1667 13.1667 0 0 0 0 0 0 15.5 0 15 16 0 15.3333 15 0 20.75 15 0 14.9286 16.1667 13.3333 16 16 16 0 15.5 0 15 13.2 15.5 23.3 23.3 0 17.5714 16.25 0 0 12.1818 12.1818 15.3333 13.3333 12.1818 15.1538 15.1538 0 0 0 0 23.3 0 0 22.125 22.125 28.4 11.1905 11.1905 28.25 0 0 13.3333 0 0 14 14 14.3333 0 13.4167 0 0 14.1667 14.1667 14.35 0 16 14.5 0 13.5 10.8333 0 0 0 0 13.8667 10.7143 13.8667 0 0 12 13.6667 17 0 15 0 0 13.5 0 0 15.5 16.3333 0 0 15.5 0 0 0 14.3333 14 15.5 13 0 0 0 0 15 14.5 15.6667 0 15.1458 0 8.225 0 0 0 12.25 25.875 0 0 0 36.72 33.2308 0 0 0 0 0 0 11 11.6667 0 7 15.25 0.769231 0 0 0 0 0 15.1458 15.1458 15.1458 24 21.3333 13.8242 18.0395 18.0395 18.0395 0 18.0395 18.0395 13.8242 13.8242 0 0 0 0 0 0 0 0 0 0 0 0 0 0 0 0 0 0 0 0 0 0 0 0 0 0 0 0 0 0 0 0 0 0 0 0 0 0 0 0 0 0 0 0 0 0 0 0
19 18 18 0 0 0 0 0 0 17 0 0 17.5 0 0 0 0 0 18.3333 18.1667 18.1667 18 17.5 0 17 17 16.5 16 15.8333 15.8333 17.6667 18 0 17 17 16.5 0 17 16.5 16.5 16 16 0 16.5 16.5 16 16.6667 17 0 0 0 0 0 17.5 17.5 26 0 27 0 0 16.5 0 0 0 16 16 0 0 0 0 0 0 0 0 0 0 0 0 0 0 0 0 0 0 0 0 0 0 0 0 0 0 0 0 0 0 0 0 0 0 0 0 0 0 0 0 0 0 0 0 0 0 0 0 0 0 0 0 -6 0 39.4 38.6667 39.4286 0 0 40 39.6 41 39.6 41.5 41.5 0 0 41.5 0 41 40.7 40.7 0 40.3333 40.5 40.5 40.5 40.75 40.75 40.75 40.75 40.5 41 41 40.5 40.5 41.3333 40 0 41 29 0 0 38.5 0 41 61 0 0 55 55 55.6667 56.5 42.6667 52.3333 42.6667 45.25 38.25 0 37 37 0 34.5 38.8667 36 29.6667 29.6667 0 49.6667 33 38.3333 0 35 0 0 0 33 0 0 0 35 36 34.5 34.5 34 0 0 0 31 37 0 31 0 0 0 32 28 0 0 0 30 28.5 28.5 28.5 0 28 0 0 0 0 26 26 27.6667 27.6667 0 0 0 0 0 0 26.5 0 26 0 0 0 0 23 0 22 0 0 22 0 0 20.5 20.5 20 0 0 0 17 0 16 18 18 18 18 16.5 16.5 16.5 17 18 18 17 17 18 25 0 17 0 17 0 0 17 0 0 0 0 16.5 0 17 30.5 25 22.5714 17 17 0 0 0 23 0 15.6 0 22.25 24 24 0 0 21.875 16 15.25 15.25 21 20.3036 20.3036 18.75 17 17 0 0 17.3333 19 0 17 0 20 17.4762 17.4762 21 19.6 16.7333 16.7333 16.7333 18.1111 14.3333 16.7143 0 18.0556 20.4 14 13.8 13.8 13.8 0 0 20.8 0 14.875 18.725 18.725 0 14.7333 15.1905 16.1 16.1 15 19.6667 16.1 19.7 22.1667 19.7 0 0 0 0 0 0 0 0 0 8.5 0 0 0 0 17.0667 0 0 17.0952 17.0952 17.0952 17.2051 17.2051 17.2051 15.5 13.7 3 0 0 11.0833 0 16 0 0 -7.5 16.3333 2.5 -14 0 -0.380952 2.07143 -0.666667 -0.666667 6.41667 15 0 15.3333 15.5 0 14.5 15.5 19.5 16.5 15.5 0 13.5 14.5 0 15 15.5 0 11.3333 0 0 15 15.6667 16 13.3333 15.5 0 15 16 0 15.6667 14 0 14 19.8333 0 0 0 15.5 21.8333 20.2857 22.1 0 0 20.2 19.95 20.75 20.75 0 13.3333 14.9286 0 0 14.3 12.5 0 15.6667 0 0 22.125 15.5 0 14.8333 23.3 0 17.5714 0 0 15.1538 12.1818 12.1818 0 0 12.1818 12.1818 12.1818 0 17.5714 17.5714 15.9667 23.3 0 24 22.5833 26.3333 20.75 0 0 15 14 15.0833 15.0833 13.5 0 0 14.3333 0 13.4167 11.5714 0 14.5 14.1667 0 14.35 0 16 14.5 0 13.5 13.5 0 0 0 0 0 13.8667 2 0 0 0 7.8 17 0 0 0 0 0 0 0 15.3333 15.3333 0 16.3333 15.5 15 14.3333 14.3333 0 13 15.5 13 15 0 15.3333 0 0 14.5 0 0 32.4 32.4 32.4 16.6667 16.6667 0 0 0 29 0 0 0 0 0 0 0 0 15.1111 0 8.33333 26.5 11.6667 11.6667 0.769231 0 0.769231 0.769231 0 8.225 8.225 0 19 0 0 0 0 0 19.5 0 0 0 0 0 0 0 0 0 0 0 0 0 0 0 0 0 0 0 0 0 0 0 0 0 0 0 0 0 0 0 0 0 0 0 0 0 0 0 0 0 0 0 0 0 0 0 0 0 0 0 0 0
19 18 18 0 0 0 0 0 0 0 0 0 0 0 18.5 18.5 18.5 0 18.3333 18.1667 18.1667 18 17.5 36.5 16 16 16.5 17.8 17.5 17.5 17.6667 18 0 0 0 0 27 26 0 0 30 0 0 0 0 0 0 0 0 0 0 0 0 17.5 17.5 0 0 0 0 0 0 0 0 0 0 0 0 0 0 0 0 0 0 0 0 0 0 0 0 0 0 0 0 0 0 0 0 0 0 0 0 0 0 0 0 0 0 0 0 0 0 0 0 0 0 0 0 0 0 0 0 0 0 0 0 0 0 0 0 7.33333 39.4 39.4 0 0 0 40.6667 0 41 0 72.8333 72.8333 40 0 41.5 0 40.5 41.1667 41.1667 0 0 0 0 0 0 0 0 0 40.5 41 0 39.5 39.5 39 0 41.5 41.5 29 0 0 61.8889 61.8889 51 0 0 0 39 39 0 30.5 41.6667 0 0 0 0 0 0 0 39.6667 36.5 38.8667 37 32.8333 32.8333 34.8333 30.5 30.5 17.5 0 35.5 35.5 0 0 33 33.5 0 33 33.6667 0 0 0 0 0 0 0 31 32.3333 0 0 31 31 0 0 30 32 0 0 30 0 0 28.5 0 0 0 0 0 0 27 25 27.6667 0 0 0 24.5 25 0 24 0 0 0 0 0 0 0 0 0 0 0 21 21 20 0 19.5 19.5 18.5 0 0 17 0 0 17 0 0 0 0 0 15.8 15.8 0 0 0 0 16.5 0 16.5 0 0 16.5 13 16.5 16.5 16 0 0 0 16.2 17.5 0 0 17 0 17 17 17 0 15.8333 15.8333 17 16.5 15.6 15.6 0 24 24 15.6 17.3333 18.75 18.3333 0 0 0 20.3036 20.3036 0 18.75 18.75 17.3333 19 17.3333 17.4444 0 17.4444 18.9333 18.9333 20 17.4762 17.4762 0 20.9643 19.6 0 16.7333 18.1111 18.1111 23.25 23.25 18.0556 17.3333 20.8 20.8 0 20.8 0 0 20.8 18.4 20.3333 18.725 0 0 0 0 0 15 16.1 16.1 19.7 19.7 19.7 19.7 20.3333 0 20.3333 0 0 0 0 0 0 19 0 0 0 0 0 17.2051 0 17.0952 16.6667 16.6667 16.6667 14.3333 15.5 9 13.4667 8.83333 0 11.5 11.0833 0 16 7.6 -7.5 16.3333 0 0 -0.380952 -0.380952 1 2.07143 -0.666667 -21 6.41667 0 15.3333 6 0 0 14.5 15.5 16 16 0 0 0 0 16.3333 9.875 16 0 0 0 8.5 18.3333 18.3333 0 14.5 15.5 0 16.5 18.25 15.6667 15.6667 14 16.2143 16.2143 19.8333 22 21.5 21.8333 21.8333 19 0 22 22.1 20.2 19.95 19.95 0 0 0 14.9286 13 0 14.3 14.3 12.5 0 0 28.4 22.125 22.125 24 0 23.3 0 0 17.5714 0 0 0 15.1538 0 0 0 12.1818 12.1818 0 16.2 17.5714 0 15.9667 23.3 35.75 22.5833 0 20.75 26.3333 0 0 0 0 15.0833 0 0 13.5 14.3333 0 0 0 0 0 14.1667 14.1667 14.35 0 14.35 20 0 14 15.6364 18.3333 0 0 0 0 16.5 0 0 0 0 0 0 17 0 8 19 7.16667 7.16667 0 0 15.3333 16.3333 16.8333 19 19 19 16 16 16 17.6667 17.6667 19 0 54.15 22.6429 1.5 47.1875 16.5 0 0 0 35.303 0 35.25 37.0833 26.4348 37.0833 0 0 6 0 0 11.75 0 0 9.85714 8.21429 0 15.25 10 0 11.6667 -0.166667 0.769231 0 0 0 0 16 0 0 0 0 0 0 13.8242 0 19.5 18.0395 18.0395 0 0 0 0 0 0 0 0 0 0 0 0 0 0 0 0 0 0 24.6667 17.6 0 0 0 20 21.5 0 20.3333 0 0 0 0 0 0 0 0 0 0 0 0 0 0 0 0 0 0 0 0 0 0 0
0 19 19 19 20 19.5 19.5 18 19 19 18.5 18.5 18 18.3333 18.5 18.5 19.5 0 19 19.1 19.1 18 18.3333 18.5 0 0 17 17.8 17.5 17.5 17.6667 0 0 0 0 0 0 0 0 0 0 0 0 0 0 0 0 0 0 0 0 0 0 0 0 0 0 0 0 0 0 0 0 0 0 0 0 0 0 0 0 0 0 0 0 0 0 0 0 0 0 0 0 0 0 0 0 0 0 0 0 0 0 0 0 0 0 0 0 0 0 0 0 0 0 0 0 0 0 0 0 0 0 0 0 0 0 0 0 7.33333 39.4 39.4 36.3333 41.5 41.5 41 0 0 39 39 39 0 45.8333 59 52.4667 0 75.7 75.7 0 0 40.5 41 0 44.5 44.5 47.3333 62.25 0 75 66.6364 48 48 0 0 26.6667 26.6667 0 0 56.3 61.8889 35.0333 59 41 36 0 46.5 46.5 49.6667 30.5 33.3333 36 38.8667 44.875 39.6667 39.6667 0 36.8333 0 36.5 38.6667 37 36.5 36.5 0 0 0 0 0 35.5 35.5 0 0 33 33.5 0 33.6667 0 33.6667 33.6667 33.6667 31 0 32 0 0 30 0 0 0 0 0 0 30.5 0 0 0 30 0 0 0 0 28 0 0 0 0 26 26 0 0 0 0 24.5 25 0 24 0 23 0 23.5 23.5 23 22 0 0 22 0 21 18.75 0 18.8333 19.5 19.5 17.5 18.4167 0 0 0 17 16.4 18 0 0 15.5 15.5 15.8 16.5 16 17 17.5 17.5 0 17 17.5 17.5 0 0 0 0 13.25 0 18.5 0 0 18.5 17.5 0 0 18.2727 22 0 17 16.2 0 0 18.5 16 16.5 0 15.6 0 24 0 0 0 21.875 18.75 18.3333 18.5 20 21 20.3036 20.3036 20.3036 18.75 17.3333 23 0 17.4444 17.4444 17.4444 21.5 18.9333 17.8889 17.4762 17.4762 0 0 19.6 0 16.7333 0 20.75 14.5 23.25 18.0556 20.4 20.4 20.4 20.4 19.3333 18.3333 0 20.8 18.4 18.4 20.3333 18.725 18.725 27 19.6667 19.6667 0 0 0 19.6667 19.7 0 19.7 0 0 0 20.6667 0 0 19.75 19.75 0 0 0 0 0 0 0 0 0 0 0 16.6667 16.6667 15.6667 14.3333 15.5 13.4667 13.4667 0 0 11.0833 10.55 16.5 2.53333 0 2.42424 2.5 10.75 -11.5 5.5 0 3 -1.4 17 17.5 16.5 0 6 8 17 0.666667 16.5 18.5 4.66667 16 0 16.1667 13 0 16.3333 9.875 18.5 17.3333 17.3333 0 17 18.3333 19.5 0 15.5 15.5 0 18.25 18.25 0 20 16.2143 16.2143 19.8333 22 0 19.25 17 21.8333 20.2857 0 22.1 20.2 0 19.95 19.95 0 0 14.9286 14.9286 14.9286 0 0 14.3 0 0 0 28.4 0 24 0 23.3 15.9667 0 0 0 0 0 15.1538 12.1818 15.3333 15.3333 0 0 17.0556 16.2 16.25 17.5714 0 21 21 0 22.5833 0 26.3333 19.75 25.6667 11.1905 19 17.3333 17.3333 19.5 19.5 19.5 18 18 15.375 15.375 0 0 10.75 0 9.92857 0 0 0 7 6.5 0 0 16.1667 16.1667 17.75 16.5 16.5 0 0 0 16.5 0 0 17.1 18.3333 0 0 19 17 0 0 16.8 0 16.8333 19 15.8 16 16 0 0 17.6667 0 0 0 0 54.15 0 0 0 16.5 29.6667 0 0 0 35.25 37.0833 0 15.25 15.25 0 0 0 18.8 0 0 14.2333 14.2333 0 0 0 0 0 8.33333 11.6667 0.769231 0 0 0 0 0 0 0 0 0 0 0 0 18.0395 19.5 0 0 0 0 0 0 0 0 0 0 0 0 0 0 0 0 0 16.8611 24.5 19 0 0 0 0 0 0 0 0 0 0 0 0 0 0 0 0 0 0 0 0 0 0 0 0 0 0 0 0 0 0 0
0 0 0 19 19 19.5 19.5 19 19 19 18.5 18.5 18.3333 18.3333 19.8333 19.8333 19.5 0 19 19.1 19.1 18 20 62 0 0 0 0 0 0 0 0 0 0 0 0 0 0 0 0 0 0 0 0 0 0 0 0 0 0 0 0 0 0 0 0 0 0 0 0 0 0 0 0 0 0 0 0 0 0 0 0 0 0 0 0 0 0 0 0 0 0 0 0 0 0 0 0 0 0 0 0 0 0 0 0 0 0 0 0 0 19.3333 0 0 0 0 19.3333 0 0 0 0 0 0 0 0 0 0 0 0 45 0 36.3333 36.3333 36.3333 41 41 0 38.5 70.3333 0 0 0 0 42.6667 52.8333 0 0 0 56.8333 53.5 40.5 39.25 39.25 71.6 71.6 63.6667 33.5 0 48.75 50 0 0 0 0 18 53 0 56.3 56.3 42.6667 40.5 0 41 0 38.3333 33 33 58.5 34.8333 29.6667 42 42 36.5 39 39 36.8333 36.8333 39.2 39.2 34 0 0 0 0 0 33 15 0 24.5 33.5 33.5 0 32.5 34 0 33 32.3333 34.5 32.3333 32.3333 33 0 0 0 32 0 0 0 0 0 0 29 0 0 29.5 0 29 28.5 28.5 28 0 28 0 0 0 0 26 26 0 0 25 0 0 24.5 0 0 0 0 23 0 0 0 23.5 22.5 0 0 0 20 0 20 19.5 19.5 0 0 0 18.4167 17 0 16 19 19 0 18 15.5 15.5 15.8 16.5 17.8 0 10 17 0 17 16 16 17.5 17 16 16 13.25 9.2 0 0 10 18.5 17.5 3.43056 3.43056 2.33333 20.9286 20.9286 3.96429 8.825 20.8333 20.8333 0 18.5 -14.5 20.5 20.0476 20.0476 0 0 24.3333 0 21.2 24.3333 18.3333 18.5 0 0 20.3036 22.85 22.85 21.2 0 0 0 20 20.6667 21.6667 21 21.5 17.5 21.5 19.5 19.5 0 20.25 19.6667 20.9643 20.9643 20.75 21.1 21.1 0 0 0 20.4 20.4 20.4 19.3333 18.3333 0 20.8 18.4 20.3333 18.725 18.725 0 19.6667 0 0 21.25 18 19.6667 19.6667 19.7 18.75 19.5 20.5 0 20.6667 19.5 0 0 0 0 18.75 0 0 0 0 0 0 0 0 0 0 16.6667 15.6667 14.3333 15.5 0 12.9048 8.83333 0 11.5 10.55 4 16.5 2.53333 7.5 2.42424 10.75 0 5.5 -0.333333 3 5.75 1.11111 -17 -17 0 2.33333 2.33333 -23 0 18.3333 18.3333 4.66667 10.75 0 16.1667 16.1667 18 16.3333 18.2 19.4 18.5 17.3333 0 0 17 21 19.5 0 15.5 0 16.5 18.25 0 0 20 20 19 0 22 19.25 0 17 19.75 20.2857 22 22.1 20.2 19.95 19.95 16.8462 0 0 16.1667 14.9286 0 0 0 28.25 28.25 0 28.4 20.75 22.5833 35.75 19 28.0417 21 0 0 0 0 16.5 17.0556 17.0556 0 16 0 19.5714 17.0556 16.2 0 0 0 28.0417 21 0 27 19.75 20.75 18.1 0 19.5 0 0 0 0 20.6667 0 18 18 0 15.375 16 0 10.75 11 9.92857 0 0 20.5 0 14 19.8 0 0 16.1667 17.75 16.5 15.375 16.5 17 17 16.5 16 16 17.1 26.3333 0 0 20.1111 20.2 0 16.8 0 16.8333 21.0833 21.0833 24 31 0 0 25 17.8182 0 0 9.27273 17.8182 17.8182 60.0714 0 0 29.6667 29.6667 0 35.303 64.1739 16.4 0 0 0 15.25 0 14.5 0 16.25 14.2333 8.21429 0 0 0 15.25 0 0 13.5 0 0 0 0 17.5 0 0 35.303 0 32.4 0 0 0 13.8242 13.8242 18.0395 18.0395 0 0 0 0 0 0 0 23 0 0 0 0 21.6667 21.6667 21 24.6667 0 0 0 0 0 0 0 0 0 0 0 0 0 0 0 0 0 0 0 0 0 0 0 0 0 0 0 0 0 0 0 0 0 0
19 0 0 20.375 20.5 20 20 20 20.5 21 19.5 19.5 19.6667 0 19.8333 19.8333 19.5 0 19 19.1 0 0 0 0 0 0 0 0 0 0 0 0 0 0 0 0 0 0 0 0 0 0 0 0 0 0 0 0 0 0 0 0 0 0 0 0 0 0 0 0 0 0 0 0 0 0 0 0 0 0 0 0 0 0 0 0 0 0 0 0 0 0 0 0 0 0 0 0 0 0 0 21.5 21.5 21.5 0 0 0 0 20.25 20.25 0 19.3333 19.6667 20 19.5 19.5 19.3333 0 0 0 0 0 0 0 0 0 0 0 0 0 0 -2.5 36.3333 36.3333 41 0 34 39 41.5 0 0 40.5 43.6667 39.5 44.6111 52.8333 44.1667 44.1667 42 41 42.6 39.25 39.25 71.6 71.6 63.6667 0 0 0 64.3333 42.5 42.5 61 57.3333 38 21 40.75 52.8333 52.8333 42.6667 69.6667 0 25 38.3333 40 30.5 30.5 0 0 43.5 0 38.6667 40.3333 39.2 39.2 37 37 39.2 37.25 32.3333 32.3333 29.1667 29.1667 36 0 0 0 0 35 35 35 0 33.5 34 33.5 33 8.33333 0 32.5 32.5 0 0 0 0 0 32 0 31 0 0 0 28 0 0 28 0 0 29 29 0 0 27.6667 0 0 27 0 26.5 0 25.5 25.5 25 0 0 0 0 23 23 0 23 0 0 24.25 20 0 0 0 20.3333 0 0 19.5 19.5 19.5 0 18 18.4167 18 0 19 0 19.6667 19.6667 0 18 0 0 15.8 16.5 0 0 18.1667 0 0 16.5 0 0 17 23.7143 18.45 18.45 13.25 19.9643 11 0 0 15.7444 15.7444 15.7444 3.43056 3.43056 2.33333 16.7143 16.7143 3.96429 19.1818 19.1818 19.1818 0 17.1667 17.1667 18.5833 20.0476 0 19.2 22.2222 18.8 0 24.3333 24.3333 23.5 23 23.5 21.7667 22.85 22.85 22.85 21.8 21.8 23 0 20 20.6667 21 21 21.5 21.5 17.5 0 0 20.25 19.6667 20.9643 20.9643 20.75 20.75 21.1 18 0 0 23.25 20.4 0 19.3333 18.3333 0 19.75 23.1 18.4 20.5 18.725 0 19.6 0 0 21.25 0 0 20.5 20.8333 18.75 0 19.5 0 0 19.5 19.5 0 0 19.75 18.75 0 0 0 0 0 0 0 0 0 0 17 15 15.6667 18.5 16.6364 0 12.9048 5 13.5128 10.55 10.55 3.66667 2.53333 16 2.42424 10.75 0 9.41667 9.41667 -0.5 10.1667 1.11111 -12.5 -13.5 7.95238 0 -9.5 -9.5 -23 17.75 18.3333 18.5 4.66667 0 0 21.5 23 0 18.2 18.2 19.4 20 20 20.5 0 24.8333 24.8333 19 22.6667 15.5 0 21.8333 -6 0 20 0 0 22 22 0 0 18 17 19.75 20.2857 0 0 15.3636 16.8462 16.8462 16.8462 0 0 13.3333 19.6667 19.5 13 14.3 0 0 0 0 0 35.75 35.75 21 28.0417 0 0 0 12.5 0 17.0556 0 0 19 0 19.5714 15.9 16.25 16.25 25.5 24.3333 18.6667 22.9167 22.9167 24.25 0 25.6667 19.75 18.1 0 19.5 19 20 19.9167 17.3333 19.5 0 19 0 19 0 19.4286 19.8333 20 20.45 18.95 0 20.5 0 0 19.8 20.5 0 0 16.1667 0 0 20.5 22 17.5 17.5 0 18.75 20.6667 0 0 19.6 19.6 22.6667 22.6667 18 17.6 18.4167 22.2222 21.0833 21.0833 33.8485 34 35.5556 40.5 0 0 59 9.27273 9.27273 64.1739 17.8182 73.5417 0 0 0 0 0 0 0 0 0 0 0 0 16.2 0 35.3333 0 8.21429 0 0 0 0 15.25 30 29 15.1429 0 0 0 0 12.25 26.4348 0 0 0 0 0 0 0 0 18.0395 0 0 0 0 0 25.5 21.1818 0 0 0 0 19.5714 0 0 21.6667 0 0 0 0 0 0 0 0 0 0 0 0 0 0 0 0 0 0 0 0 0 0 0 0 0 0 0 0 0 0 0 0 0 0 0 0
19 21.5 21.5 20.375 23 0 0 20 21 0 0 0 0 0 0 0 0 0 0 0 0 0 0 0 0 0 0 0 0 0 0 0 0 0 0 0 0 0 0 0 0 0 0 0 0 0 0 0 0 0 0 0 0 0 0 0 0 0 0 0 0 0 0 0 0 0 0 0 0 0 0 0 0 0 0 0 0 0 0 0 0 0 0 0 0 0 0 0 0 0 0 0 23.5 23.5 0 0 0 0 21.5 21.5 0 21 0 0 0 0 0 0 0 0 0 0 0 0 0 0 0 0 0 0 0 0 -6.5 -6.5 0 0 0 0 0 0 0 40 0 0 38.6667 44.6111 39.25 39.25 37 39 40 55.1 55.1 71.6 0 59.6667 39.5 39.5 39.5 0 37.5 37.5 0 0 17 38 39 0 0 39.5 69.6667 38 0 40.5 40.5 39.5 39.5 0 0 43.5 38 32.3333 38 37.25 37.25 36.8333 36.8333 37 37.25 36.75 36.75 28.6667 28.6667 29.5 35 0 30.1667 0 35 34.5 34.5 0 0 33.5 0 0 8.33333 0 32.5 32.5 0 33 0 0 0 31 31 30.5 30.5 0 0 0 0 0 0 0 27 27.1667 27.1667 0 0 0 0 0 27 0 26.5 0 0 0 25 0 24 24 0 0 22.6667 0 22 22 0 0 20.6667 0 0 0 19 0 19 19.5 19.1667 19.1667 0 18 17.5 18 0 22.1 8.825 18 0 0 16.7143 16.7143 16.7143 0 0 0 15.7444 15.7444 0 15.5 21.4 21.4 19.9643 18.45 23.7143 23.7143 23.7143 18.45 19.9643 21.4 0 15.5 0 15.7444 15.7444 3.43056 3.43056 2.33333 16.7143 16.7143 3.96429 3.96429 3.96429 8.825 -11 17.1667 22.25 22.5 1.63636 24.45 24.45 22.2222 21.5 24.3333 14 6.18182 -8.5 0 11.4286 21.7667 0 0 22.85 20.3333 0 21.5 0 20 20.6667 20.6667 0 21 21.5 17.5 21.5 0 20.25 20.25 19.6667 20.9643 20.9643 0 20 21.1 21.1 19.5 0 20.4 21 0 19.1667 19.6667 19.75 23.1 22.9 0 20.5 20.5 0 19.6 20.3 21.25 20.3333 0 19.5 19.5 18.75 18.75 0 20.5 20.5 20.6667 19.5 0 21.3333 19.75 18.75 18.75 0 0 0 0 0 0 0 0 0 0 18.6667 17 18.5 16.6364 0 12.9048 7 13.5128 10.55 0 3.66667 3.66667 18 16.6 15.2273 2.66667 10.1053 -0.6 -0.6 -0.5 10.1667 1.11111 -12.5 7.95238 7.95238 20.4706 20.4706 21.4857 22.2667 22.5 18 16.9 0 0 0 23 0 0 0 18.2 19.4 13 16 0 18.2 24.8333 19.5 0 0 0 21.8333 21.8333 19 0 0 0 22 22 0 0 0 20 21.8333 19.75 20.2857 0 22.1 20.2 19.95 22 0 0 0 19.6667 19.6667 19.5 19 0 0 0 41.5 26.3333 0 0 0 0 22.9167 0 24.3333 18 0 16.2 17.0556 19.5714 19.5714 0 0 19.5714 15.9 0 0 25.5 18.6667 18.6667 22.9167 24.25 24.25 27 19.75 32.9714 0 0 19.5 0 18.5 19.9167 19.5 0 19.6667 0 19 18.5 19.4286 19.8333 0 20.45 20.45 0 0 0 0 19.8 19.8 20.5 0 0 18 19.5 0 20.5 22 0 17.6667 0 18.75 16.5 20 0 19.6 20.1111 20.2 21.0833 17.6 18 17.6 18.4167 22.2222 21.0833 0 0 0 26.75 44.25 17.8182 9.27273 0 0 0 0 33.8485 33.8485 0 0 0 0 16.4 0 0 0 47.3333 37.0833 16.2 41.3 42.2727 0 16.4 0 0 0 0 0 25.4286 25.4286 13.5 0 16.2 0 0 37.0833 37.0833 18.6667 0 0 0 0 0 0 0 19 0 0 23.75 0 26.2 0 0 0 0 0 0 0 0 0 0 0 0 0 0 0 0 0 0 0 0 0 0 0 0 0 0 0 0 0 0 0 0 0 0 0 0 0 0 0 0 0 0 0 0 0 0
0 21.5 21.5 21 23 0 0 0 0 0 0 0 0 0 0 0 0 0 0 0 0 0 0 0 0 0 0 0 0 0 0 0 0 0 0 0 0 0 0 0 0 0 0 0 0 0 0 0 0 0 0 0 0 0 0 0 0 0 0 0 0 0 0 0 0 0 0 0 0 0 0 0 0 0 0 0 0 0 0 0 0 0 22.3333 0 0 0 0 0 0 0 0 0 23.5 23.5 0 0 0 0 0 0 0 0 0 0 0 0 0 0 0 0 0 0 0 0 0 0 0 0 0 0 0 0 0 0 0 0 0 0 40 0 0 40 39.5 0 39 39 38.5 38.5 0 39.5 33.5 33.5 37.25 0 0 40.6667 40 40 0 0 0 0 0 39 0 0 39 0 0 39 0 38 0 0 0 33 33 0 0 29.1667 42.5 41.5 38 0 0 37.5 37.5 0 0 36.75 28 28.6667 28.6667 29.5 0 35.2143 33.6667 0 10 18 18 0 33 0 0 0 34.6667 0 0 0 32.5 32.5 32.5 0 31 33 0 0 0 0 0 0 28 28 0 0 27 27.5 27.5 0 27 27.5 0 0 27 0 26.5 25 25 0 0 24 24 23.6667 0 23 22.6667 0 22.5 22.5 0 0 20 0 20 0 20.25 19.5 19.5 20 19.1667 18.8333 18.8333 19.1071 19.1071 22.25 22.25 24.5 22.1 8.825 3.96429 3.96429 3.96429 16.7143 16.7143 27.5 27.5 3.43056 17.5 17.5 0 15.5 21.4 21.4 19.9643 19.9643 20 23.7143 23.7143 20 18.45 23.7083 11 0 0 15.7444 0 0 27.5 0 10.3 16.7143 16 3.96429 3.96429 10.5303 10.5303 10.5303 7 12.25 1.63636 1.63636 0 22.2222 22.2222 0 24.3333 21.2 22.5714 24.3333 0 23.5 23.5 21.7667 21.7667 20.3333 0 21.8 23 0 20 20.6667 21.6667 21 21.5 17.5 21 21.8667 0 21.5 21.4 21.8 21.8 22 0 20.75 20.75 18 0 20.6667 21 21 0 19.6667 19.75 19.75 23.1 0 0 20.5 0 0 20.3 20.3 21.25 20.3333 0 21.0833 20.8333 22.5 20.5 21 0 26 22.3333 0 0 0 0 0 0 0 0 0 0 0 0 0 0 0 18.6667 18.6667 22.5227 18.5 24.5 0 7 7 13.5128 15.2273 15.85 18 18 0 0.416667 11.8095 11.8095 18 23.3333 19 29.875 5.94444 5.94444 28 24.3 24.3 20.4706 20.4706 16 22.2667 22.5 22.5 16.9 17 0 17 21.5 18 0 18.2 19.4 18.6667 20 20.5 0 18.2 24.8333 21 0 0 21.8333 18.475 21.7143 19 0 20.3333 0 22 0 0 0 19.25 20 19.75 20.2857 0 0 0 20.9167 0 0 0 0 0 0 0 0 0 0 0 0 21 26.3333 0 0 0 0 0 30.6667 25.5 24.25 16.2 16.25 24 19.5714 19 19 20 19.5714 0 16.25 24.3333 0 0 30.0833 31 21.5 10.5 0 32.9714 20 0 20 0 0 18.5 19.9167 20.6667 19.6667 19 0 18.5 19.4286 0 0 20 20.45 18.95 18.95 19.3333 0 0 0 19.8 0 0 0 19.5 0 0 22 22 0 0 18.75 18.75 16.5 26.3333 26.3333 19.6 19.6 20.2 22.6667 18 18.4167 18.4167 21.0833 21.0833 0 0 0 73.5417 17.8182 17.8182 17.8182 73.5758 76 0 73.5758 73.5758 64.9545 64.9545 76 0 34 0 0 0 0 47.3333 47.3333 50.4583 0 0 0 0 11.75 11.75 0 22.2 0 38.8462 25.4286 18.8 18.8 0 15.1429 15.1429 16.2 37.0833 37.0833 0 16.6667 0 0 0 0 0 0 20.1429 21.75 0 0 0 0 0 0 0 0 0 0 0 0 0 0 0 0 0 0 0 0 0 0 0 0 0 0 0 0 0 0 0 0 0 0 0 0 0 0 0 0 0 0 0 0 0 0 0 0 0
0 0 0 0 0 0 0 0 0 0 0 0 0 0 0 0 0 0 0 0 0 0 0 0 0 0 0 0 0 0 0 0 0 0 0 0 0 0 0 0 0 0 0 0 0 0 0 0 0 0 0 0 0 0 0 0 0 0 0 0 0 0 0 0 0 0 0 0 0 0 0 0 0 0 0 0 0 0 0 0 0 0 0 0 0 0 0 0 0 0 0 0 23.5 23.5 0 0 0 0 0 0 0 0 0 0 0 0 0 0 0 0 0 0 0 0 0 0 0 0 0 0 0 0 0 0 0 0 0 37 40 39.6667 39.6667 0 0 0 11.5 40 0 0 38 38 40.5 41.5 41.5 40.6667 40.6667 40.6667 40.6667 40 0 0 0 0 0 0 0 0 0 37.5 37.5 38.5 38.5 38 0 0 30.1667 0 0 37 29.5 28.6667 38 36.75 38 38.3333 38.3333 38 38 38.3333 38 42.5 28 0 0 0 36 30 0 0 24.5 0 0 0 34 34 0 0 34 0 0 0 32.5 32 0 0 0 32 0 0 0 0 28 28 0 28 28 0 0 25.5 25.5 27 27 27.5 0 0 0 0 26 26 26 25 0 22.3333 0 23.6667 24 24 24 0 0 0 0 21 21 0 22.6667 20 22.9394 20.3333 21.3333 21.3333 18.8333 19.1071 0 28.25 25 1.63636 18 16 0 22.1 3.96429 3.96429 16 16.7143 16.7143 16.7143 0 27.5 17.5 0 18 18.9 23.7083 19.8333 23.7083 19.9643 19.9643 24.5 24.5 23.7143 21.619 24.2019 23.7083 19.8333 18.9 18 0 17.1948 17.6429 17.6429 13.5 10.3 -2 4.57143 4.57143 4.57143 10.5303 0 0 19.6667 1.63636 1.63636 1.63636 22.2222 22.2222 21.5 21.2 21.2 22.5714 24.3333 23.5 23 23 23.5 21.7667 22.85 20.3333 21.8 21.5 0 20 20.6667 21.6667 0 21 0 21 21.8667 0 0 21.4 21.4 19.5 21.8 21.1667 0 0 20.75 0 0 21 21 0 19.1667 19.6667 23.1 23.1 22.9 0 22 0 0 19.6 20.3 0 20.3333 0 0 0 0 22.5 21 0 0 22.3333 0 0 0 0 0 0 0 0 0 0 0 0 0 22.5227 0 0 19 20.3333 22.75 22.5227 21.6 25 0 10 21.625 16.3333 15.85 0 17.3333 0.416667 0.416667 0.416667 10.1053 18 23.3333 -0.6 5.94444 5.94444 8.8 24.3 24.3 22.8889 20.4706 16 21.4857 21.4857 22.2667 16.9 18 17 24 26 18.5 20.3333 18.2 18.2 18.6667 0 20 0 18.2 24.8333 21 19 19 0 21.8333 18.475 19 19 0 20.3333 22 22 0 0 0 19.25 21.8333 22 20.2857 0 0 0 0 22 22 20.75 0 0 0 21.5 0 21.5 0 0 20.3333 21 26.3333 0 24.25 31 30.0833 30.6667 30.6667 25.5 26.2 0 0 20.3 21.25 20.0833 20.0833 21.25 20.3 0 0 0 0 0 31 0 21.5 0 0 0 20 0 19.5 19.5 0 19.9167 20.6667 19.5 19.6667 20 0 0 22.3333 0 19.8333 0 20.45 18.95 0 30 0 0 0 0 22.5 0 0 0 0 0 0 0 0 17.6667 0 0 0 0 0 20.1111 20.2 0 0 0 0 17.6 21.0833 0 0 0 73.5417 33.8485 54.125 54.125 54.125 9.27273 9.27273 17.8182 73.5758 17.8182 33.8485 34 0 0 0 0 0 29 45.5 35.25 47.3333 37.0833 41.3 15.1429 15.1429 0 18.8 25.4286 25.4286 22.2 22.2 22.2 25.4286 35.3333 18.8 0 15.1429 0 16.2 37.0833 37.0833 35.25 35.25 0 0 0 0 0 0 0 0 0 0 0 0 0 0 0 0 0 0 0 0 0 0 0 0 0 0 0 0 0 0 0 0 0 0 0 0 0 0 0 0 0 0 0 0 0 0 0 0 0 0 0 0 0 0 0 0
0 0 0 0 0 0 0 0 0 0 0 0 0 0 0 0 0 0 0 0 0 0 0 0 0 0 0 0 0 0 0 0 0 0 0 0 0 0 0 0 0 0 0 0 0 0 0 0 0 0 0 0 0 0 0 0 0 0 0 0 0 0 0 0 0 0 0 0 0 0 0 0 0 0 0 0 0 0 0 0 0 0 0 0 0 0 0 0 0 0 0 0 23.5 23.5 0 0 0 0 0 0 0 0 0 0 0 0 0 0 0 0 0 0 0 0 0 0 0 0 0 0 22.3 22.3 -2.25 -2.25 23 42 37 0 39 39.6667 0 37 0 0 11.5 38 37.5 37.5 0 38 38 0 40.5 43.5 43.5 0 40.6667 41 58.9 58.9 37.5 37.5 0 37.5 37.5 0 0 37 37 38.5 37 24.5 37 0 30.1667 35.2143 35.2143 0 29.5 28.6667 42.5 34 38.6 38.6 38.6 37 0 38.6 35.8 0 0 0 0 0 0 32 0 0 25 0 0 0 0 34 0 33 0 33 0 0 31.6667 0 0 0 0 33 0 0 0 0 29 0 0 27.5 28 0 0 26.9524 26.9524 27 27 27 0 26.5 26.5 26 26 0 0 0 27 0 23 24 24 24 0 0 0 0 22.4167 24.9615 24.9615 22.8333 22.6667 0 22.9394 22.9394 21.3333 21.3333 19.1071 19.1071 18.8333 22.8333 28.25 1.63636 22.25 12.25 24.5 22.1 8.825 3.96429 16 0 0 16.7143 0 3.43056 15.7444 0 0 0 23.7083 23.7083 19.8333 24.2019 16 24.5 24.5 24.5 24.5 24.2019 24.2019 0 18.9 18 0 17.1948 17.1948 14 14 13.5 10.3 10.3 4.57143 4.57143 10.5303 0 22.5 22.25 22 23 24.45 0 22.2222 22.2222 0 23 23.5 24.3333 0 22.5 22.5 0 0 22.25 22.25 22 22.25 22.25 20.6667 22.6667 0 0 0 21 21 20.5 21.8667 0 21.5 21.4 21.8 21.8 21.1667 21.1667 0 20.75 20.5 0 22.0667 23.1111 21 0 22 0 21.1667 22 21 22 21 21.5 22.125 23.75 0 23 21.1667 0 21.0833 21.0833 0 20.5 25 20.5 0 0 22.3333 0 0 0 0 0 0 0 0 0 0 0 18.5 22.5227 20.3333 24.85 19 20.3333 22.75 24.5 24 14.7143 21.625 0 0 15.85 9.25 0 17.3333 0.416667 11.8095 11.8095 10.1053 23.3333 9.41667 -0.6 11.4 11.4 21.5 20.4706 22.8889 22.8889 20.4706 21.4857 22.5 22.2667 22.5 18 10.9 10.9 24 18.5 0 19.5 18.2 19.4 18.6667 0 0 21.6667 18.2 21.6667 21 19 22.6667 0 21.8333 19 18.475 0 20.3333 0 22 22 0 0 21.5 20.5 20.8 20.5 0 23.8333 19.5 0 20.9167 0 0 0 0 0 0 0 21.5 21.5 21.5 0 20.3333 25.6667 0 27 0 31 31 35.6 32.5 32.5 0 0 0 21.25 20 20.0833 20 21.25 20.3 21.3333 0 0 0 30.0833 31 0 21.5 0 0 22.5 0 22.5 0 0 0 22.5 22.5 26.5 0 0 20 20 19.3333 0 19 0 0 24 30 30 19 19 20.8 0 22.5 0 0 -1 26.25 0 0 0 0 0 0 0 20.2 9.2 9.2 0 9.2 0 0 18 0 0 21.5 0 0 0 0 0 73.5758 67.4 17.8182 59 59 17.8182 54.9318 0 17.8182 64.9545 0 0 0 0 73.5758 73.5758 0 47.3333 47.3333 47.3333 41.3 0 0 35.3333 35.3333 25.4286 38.8462 0 22.2 0 38.8462 35.3333 0 0 15.1429 41.3 41.3 37.0833 35.25 35.25 0 20 32.4 0 0 20.5 28 0 0 0 0 0 0 0 0 0 0 0 0 0 0 0 0 0 0 0 0 0 0 0 0 0 0 0 0 0 0 0 0 0 0 0 0 0 0 0 0 0 0 0 0 0 0 0 0 0
0 0 0 0 0 0 0 0 0 0 0 0 0 0 0 0 0 0 0 0 0 0 0 0 0 0 0 0 0 0 0 0 0 0 0 0 0 0 0 0 0 0 0 0 0 0 0 0 0 0 0 0 0 0 0 0 0 0 0 0 0 0 0 0 0 0 0 0 0 0 0 0 0 0 0 0 0 0 0 0 0 0 0 0 0 24 0 0 0 0 0 0 0 0 0 0 0 0 0 0 0 0 0 0 0 0 0 0 0 0 0 0 0 0 0 0 0 0 0 0 24 25.8333 25.8333 25.8333 0 23 40.5 35 0 0 0 37 37 37 38 38 0 0 38 0 39 40.5 38.8 40.1 40.1 0 0 41 58.9 58.9 38.5 38.5 38.5 8.33333 0 0 0 0 0 70.5 0 37 0 0 33.6667 35.2143 35.2143 53 50 47.5 0 37 35.5 0 0 36 0 0 36 34 0 0 0 0 0 32 15 0 12 9.5 9.5 5 34 34 0 33 0 33 0 0 32 0 31 0 0 31 0 0 0 29 0 0 0 0 27 0 27.25 26.9524 26.9524 28 27.4 24 26 25.5 26 26 0 0 0 24 0 23 23.5 23 24 0 23.5 0 22.4167 22.4167 22.4167 36.6667 24.25 0 0 22.6667 25.9643 20.3333 24.7 24.7 21.3333 21.3333 18.8333 19.1071 18 0 22.25 19.6667 0 22.1 10.5303 4.57143 0 17 17 0 0 0 0 0 17.1948 0 17.1948 21.619 0 24.2019 24.2019 24.2019 24.2019 24.5 24.5 21.619 24.2019 19.8333 19.8333 18.9 18 0 0 17.1948 17.6429 0 10.3 10.3 -2 24.125 24.125 0 22 22.25 22.25 23 22.5 0 0 22.2222 23.25 23 23 23.6667 23.8 23.8 23.8 0 0 21.5 22.25 22 22 22.25 20.6667 21.3333 0 0 0 23.7 0 24.4 24.7333 24.7333 24.8333 21.4 20 23.6571 23.6571 23.6571 22.3333 0 22.8333 0 22.0667 23.1111 23.1111 0 22 22.3333 22.5 21.1667 22 0 27 21 21 22.125 23.75 0 21.1667 0 0 21.0833 0 0 0 0 0 22.6667 0 0 21.3333 0 0 0 0 0 23 0 0 0 0 0 0 0 24.85 24.375 24.375 22.75 24 24 21 27.5 10 21.625 9.25 0 17.3333 0.416667 26.5952 26.5952 18 18 9.41667 10.8333 -11.3 11.4 5.94444 0 0 20.4706 20.4706 16 21.4857 22.5 22.5 16.9 -1 18.2 0 0 20.3333 18.2 19.5 19.6667 21.6667 0 6.75 21.6667 -2 18.2 23 21.6667 0 22.6667 18.475 18.475 22.5 0 0 21.6667 0 22 22.25 22.6667 23 20.5 0 22 20.5 0 23.8333 19.5 20.9167 23.3333 23 0 22 0 0 23 0 0 23.1667 0 20.3333 32.9714 0 0 0 31 20.75 21.5 22 21 33 30.6 21.3333 20.3 22.3 20 0 0 20 22.3 0 0 0 0 22.8571 29.2 0 0 0 0 22.5 22.5714 0 0 0 0 26.5 26.5 0 0 0 0 0 19.3333 19 0 0 24 24 24 19 0 0 0 0 0 0 0 0 0 0 0 0 2 0 12.5 9.2 0 9.2 0 0 0 0 0 23 0 17.6 21.0833 21.0833 0 0 0 0 17.8182 17.8182 54.125 76 76 17.8182 17.8182 17.8182 64.9545 64.9545 0 0 33.8485 33.8485 73.5758 76 0 47.3333 47.3333 41.3 0 0 0 35.3333 38.8462 38.8462 0 0 0 38.8462 38.8462 35.3333 0 0 0 41.3 47.3333 47.3333 0 0 35.25 0 0 0 0 0 0 0 0 0 0 0 0 0 0 0 0 0 0 0 0 0 0 0 0 0 0 0 0 0 0 0 0 0 0 0 0 0 0 0 0 0 0 0 0 0 0 0 0 0 0 0 0 0 0
0 0 0 0 0 0 0 0 0 0 0 0 0 0 0 0 0 0 0 0 0 0 0 0 0 0 0 0 0 0 0 0 0 0 0 0 0 0 0 0 0 0 0 0 0 0 0 0 0 0 0 0 0 0 0 0 0 0 0 0 0 0 0 0 0 0 0 0 0 0 0 0 0 0 0 0 0 0 0 0 0 0 0 0 0 0 0 0 0 0 0 0 0 0 0 0 0 0 0 0 0 0 0 0 0 0 0 0 0 0 0 0 0 0 0 0 0 0 0 0 0 0 0 0 0 24.6667 40.5 36 36 0 0 37 37 37 37.5 38 0 0 36.8333 36.8333 38.5 41.5 41.5 40.1 40.1 40 0 40 40 58.9 0 0 0 37.6667 38.5 0 38 36.5 36.5 36.5 70.5 18 37 37 33.6667 35.2143 35.2143 0 0 37 40.5 37 0 0 0 36 36 0 30 28 31 31 31 0 0 0 0 0 0 18.5 18.5 6 35 0 0 33 33 33 32.5 32.5 32 0 0 0 0 31.5 0 0 0 0 0 28 28 0 0 0 27.25 26.9524 26.9524 27.4 0 0 0 25.5 25.5 0 0 0 0 0 24 0 0 0 23.5 0 25.625 0 0 0 0 24.25 36.6667 24.25 0 0 0 0 18.75 26.7857 18.75 18.75 0 19.1071 0 28.25 1.63636 12.25 19.6667 24.5 26.3333 0 10.5303 10.5303 24.9 24.9 10.3 13.5 14 17.6429 17.1948 17.1948 0 18 0 23.7083 24.2019 24.2019 21.619 22 24.5 24.5 21.619 24.2019 23.7083 19.8333 0 0 0 13.4 26.3333 0 14.0833 14.0833 0 0 24 25 0 23.1667 24 24 24 24 0 23.3333 23.25 23.25 23 23.6667 24 23.8 23.8 0 0 0 22.25 0 22 22.25 0 20.6667 24.2222 24.9167 24.9167 23 23 20.6667 24.7333 24.7333 0 24.8333 0 19.5 23.6571 23.6571 23.4286 22.3333 0 0 0 22.0667 26.4 25.5 26.5 30 0 25.5833 25.5833 24.5 0 23.5 0 0 24.1667 25.5 19 21.1667 0 0 23.3333 0 0 23 0 22.6667 22.6667 0 0 0 0 0 0 23 0 28 0 27.6667 0 0 0 0 25.3333 25.3333 24.375 24.375 20.5 24 21 27.5 27.5 18.75 9.25 0 22.5 25.0714 25.0714 26.5952 26.5952 0 0 10.8333 24.25 11.4 -11.3 5.94444 5.94444 8.8 24.3 22.8889 22.8889 21.4857 16 24.8333 0 16.9 0 0 21.5 20.3333 0 19.6667 21.6667 21.6667 0 0 0 22 23 21.6667 0 22.6667 23 22.5 22.5 22.5 0 21.6667 22 0 21 22.6667 22.6667 0 0 0 24.4 20.5 0 0 22.75 23 25.5 23.5 24.5 0 22.5 22 23 23 23.1667 23.1667 0 32.9714 32.9714 0 0 0 31 30.0833 0 0 27.2 30.6 30.6 26 22.3 20 0 0 20 22.3 26.5 30.6 27.2 0 0 29.2 0 0 0 0 0 0 22.5 0 0 0 0 40.4444 26.5 0 0 0 0 19.3333 29.5 44.5 24.75 0 0 24 24 30 0 0 0 28.3333 -2.16667 28.3333 0 0 0 0 0 0 0 0 0 0 0 0 0 0 0 0 0 0 0 0 21.0833 0 0 0 0 0 0 67.4 67.4 9.27273 0 17.8182 17.8182 64.9545 64.9545 38.6 0 0 33.8485 73.5758 73.5758 0 0 47.3333 47.3333 41.3 0 0 0 35.3333 38.8462 35.3333 38.8462 0 0 38.8462 35.3333 0 0 0 0 0 0 47.3333 47.3333 0 0 73.5758 0 0 0 0 0 0 0 0 0 0 0 0 0 0 0 0 0 0 0 0 0 0 0 0 0 0 0 0 0 0 0 0 0 0 0 0 0 0 0 0 0 0 0 0 0 0 0 0 0 0 0 0
0 0 0 0 0 0 0 0 0 0 0 0 0 0 0 0 0 0 0 0 0 0 0 0 0 0 0 0 0 0 0 0 0 0 0 0 0 0 0 0 0 0 0 0 0 0 0 0 0 0 0 0 0 0 0 0 0 0 0 0 0 0 0 0 0 0 0 0 0 0 0 0 0 0 0 0 0 0 0 0 0 0 0 0 0 0 0 0 0 0 0 0 0 0 0 0 0 0 0 0 0 0 0 0 0 0 25 0 0 0 0 0 0 0 0 0 0 0 0 0 0 0 0 0 0 0 25 41.5 0 0 0 37.5 37.5 37 38.5 38.4 37.5 37.5 38 38.5 37.5 40 40 40.5 40.5 40.5 0 39.5 39.5 0 0 0 39 0 38 0 0 38.5 38.5 37.25 0 58 0 0 0 30 30 0 0 37 37 42 38 0 0 35.5 35.5 0 36.6667 39 34 0 0 0 0 35 33 0 0 17 17 36.5 36.5 34 0 0 33.5 0 0 0 0 0 31.5 0 0 31 0 0 0 0 0 0 0 28 0 0 26.5 0 0 27.4 0 0 25.5 25.6667 26 0 0 23.5 23.5 27.4524 26.5 24.3333 0 24 24 0 25.625 28.7879 0 0 0 21 28.8333 26.9375 27.5 27.5 0 25.9643 6.18182 26.7857 16.5 16.5 26.7857 25.6667 25.6 0 28.25 1.63636 19.6667 26.3333 26.3333 24 10.5303 10.5303 24.9 24.9 10.3 10.3 13.5 17.6429 17.6429 17.1948 17.1948 18 18.9 19.8333 24.25 24.25 21.619 21.619 24.5 25 21.8 24.2019 19.8333 19.8333 14.5 0 0 13.4 13 0 0 0 0 0 0 24 24 23.1667 15.3333 -12 20.5714 24 23 0 23.25 25.3 23.25 23.25 26.1667 26.1667 0 24.2 24.3333 24.1667 21.5 0 25.1667 25.1667 0 24 23.1429 24.2222 24.9167 0 23.7 20.6667 20.6667 24.7333 23 24.8333 23.5 0 0 19 23.4286 22.3333 0 22.8333 0 26 25.5 25.5 0 26.5 0 23 25.5833 0 0 0 23.5 23.5 23.5 24.1667 0 24 24 0 0 0 0 30 33 0 0 0 0 29.5 29.5 27.3333 0 0 0 0 0 27.6667 27.6667 0 26.6667 0 0 24.85 26.35 24.375 23.4167 24 24 21 27.5 18.75 19.5 22.5 0 0 25.0714 25.0714 2.6 25.5 0 10.8333 10.8333 24.25 -11.3 5.94444 0 0 22.8889 22.8889 22.8889 20.4706 21.4857 22.2667 24 22 -1.5 24 24 24 24 24 24 24 24.3333 24.3333 23 -12 -12 23.3333 23.3333 23.5 23 0 25 22.1667 0 0 22.5 0 0 22 22.5 0 22.5 0 24 26.5 0 26.3333 0 0 24.75 23.5 0 0 0 22.5 22 0 25 24.5 23 0 24 0 0 24.5 0 29.2 0 0 27.2 33 30.6 26.5 20 20 0 21.3 21.3 20 20 22.3 0 0 0 29.2 29.2 0 0 0 0 0 21.4737 0 0 0 0 36 40.4444 26.5 0 0 27 38.25 38.25 29.5 27.6667 24.75 24.75 21.4 21.4 0 0 0 0 28.3333 28.3333 -2.16667 0 0 0 0 0 0 0 0 0 0 0 0 0 0 0 0 0 0 0 0 0 0 0 0 0 0 0 0 0 0 0 25 0 0 0 0 0 18 18 32.6667 11.6667 0 0 0 16.5 46 0 0 0 27 35.3333 35.3333 38.8462 0 0 0 0 0 0 0 0 0 0 41.3 47.3333 47.3333 0 0 0 0 0 0 0 0 0 0 0 0 0 0 0 0 0 0 0 0 0 0 0 0 0 0 0 0 0 0 0 0 0 0 0 0 0 0 0 0 0 0 0 0 0 0 0 0 0 0 0 0 0 0
0 0 0 0 0 0 0 0 0 0 0 0 0 0 0 0 0 0 0 0 0 0 0 0 0 0 0 0 0 0 0 0 0 0 0 0 0 0 0 0 0 0 0 0 0 0 0 0 0 0 0 0 0 0 0 16.5 16.5 0 0 0 0 0 0 0 0 0 0 0 0 0 0 0 0 0 0 0 0 0 0 0 0 0 0 0 0 0 0 0 0 0 0 0 0 0 0 0 0 0 0 0 0 0 0 0 0 0 0 0 0 0 0 0 0 0 0 0 0 0 0 0 0 0 0 0 0 0 0 25 0 0 0 35.5 0 37.5 38.5 38.4 38.4 38.4 0 38.5 39 40.5 40.5 40.6667 40.6667 40.6667 0 39.5 40 0 0 0 0 0 0 0 39 38.5 38.5 49.5 38 58 0 19.5 19.5 32 32 0 0 0 0 39 0 0 0 35.5 35.5 35 37 34.6667 32.1667 0 0 0 32.5 35 33 33 33 5.5 5.5 2 0 0 0 0 0 0 0 0 0 0 31.5 0 0 31 31.5 0 0 0 0 28 28 0 0 0 0 0 0 25 0 0 32 25.6667 25.6667 30 27.4286 27.4286 27.4286 24.3333 29.0192 24.3333 24 28.8 0 28.4 28.7879 28.7879 22.6667 22.6667 0 11.4286 26.9375 26.9375 27.5 27.3333 0 25.9643 24.5 6.18182 26.7857 26.7857 26.7857 0 25.6 25.6 0 1.63636 19.6667 19.6667 26.3333 26.3333 0 0 10.5303 24.9 4.57143 10.3 0 14 17.6429 17.1948 0 0 0 0 24.25 24.25 23.2222 21.8 25 26 25 21.8 19 24.25 14.5 26.3333 0 13.4 13.4 13 0 0 0 0 3.96429 17 0 0 23.1667 22.25 0 24 26.1667 25.3333 23.25 23.25 25.4 23.25 24.625 24.625 24.5 0 24.3333 0 0 0 0 23.6667 23.3333 24 24 24 24.9167 0 0 0 26.75 26.75 27.3333 0 0 26.5 26.5 24 27.625 25.6667 25 20.6667 25.6667 0 25.5 0 21 0 0 0 27.7083 25 0 0 0 0 28 29.5 0 30 0 0 0 0 30 0 32 0 0 0 0 0 0 0 0 0 0 30.2 0 0 0 0 0 0 24.375 26.35 26.35 24.85 22.75 24.375 20.5 21 20.5 20.5 18.75 21.625 15.85 9.25 25.0714 25.0714 2.6 26.5952 25.5 0 10.8333 19 -11.3 11.4 5.94444 0 19 -19 0 22.8889 23.3333 0 24 22 0 -1.25 0 0 24 23 24 24 23 24.3333 26 23 -1.5 24.5 23.3333 0 23.7 23.7 0 25.3333 22.1667 0 0 24.3333 24.3333 24.5 25.0667 22.5 0 22.5 0 0 26.5 22.5 23.25 24.75 0 27.375 27.375 23.6667 27.3333 27.3333 0 0 0 0 23 0 0 23.3333 23.3333 23.5 0 29.2 29.2 29.2 21.5 0 26.6818 0 27.8889 0 0 0 0 0 0 27.8889 0 27.2 27.2 0 25.7273 29.2 0 0 17.3333 21.4737 21.4737 29.7 0 0 0 36 40.4444 40.4444 40.4444 -12 2 38.25 38.25 38.25 28.3333 28.3333 0 0 24 21.4 0 0 0 -2.16667 -2.16667 0 0 0 0 0 0 0 0 0 0 20.8 20.8 0 0 0 0 0 0 0 0 0 0 0 24 0 0 0 0 0 26 0 0 0 0 0 0 0 40 0 0 0 0 0 0 0 0 16.5 15.5 39.2857 39.2857 39.2857 0 0 0 0 0 0 0 0 0 0 0 0 0 0 0 0 0 0 0 0 0 0 0 0 0 0 0 0 0 0 0 0 0 0 0 0 0 0 0 0 0 0 0 0 0 0 0 0 0 0 0 0 0 0 0 0 0 0 0 0 0 0 0 0 0 0 0 0 0 0
0 0 0 0 0 0 0 0 0 0 0 0 0 0 0 0 0 0 0 0 0 0 0 0 0 0 0 0 0 0 0 0 0 0 0 0 0 0 0 0 0 0 0 0 0 0 0 0 0 0 0 0 0 0 0 0 0 0 0 0 0 0 0 0 0 0 0 0 0 0 0 0 0 0 0 0 0 0 0 0 0 0 0 0 0 0 0 0 0 0 0 0 0 0 0 0 0 0 0 0 0 0 0 0 0 0 27.5 0 0 0 0 0 0 0 0 0 0 0 0 0 0 0 0 0 0 0 25 38 0 0 0 0 0 38.5 38.5 38.4 39.8 39.8 0 38.5 0 0 0 0 0 0 0 0 0 40 39.5 39.5 0 0 0 0 0 35 35 0 0 24.5 25 38 0 41.25 41.25 0 0 0 0 37 35.5 35.5 34 35.5 34 37 37 29.3333 26 34.5 34.5 33 0 33 33 0 34 0 0 0 32 33.5 0 0 0 32 31.5 31.5 0 30 30.6667 0 0 31.5 0 29.5 29.5 0 0 28.5 0 0 27 0 0 26 26 0 28.3333 29.7143 0 30.5952 29.358 31.1795 0 0 0 0 0 22.3333 0 0 23.6667 28.4 28.7879 23.5 22.6667 27.3 22 0 28.8333 26.9375 27.5 27.5 27.3333 25.9643 25.9643 24.5 24.5 14 14 25.6667 25.6 25.6 26 0 29.2143 19.6667 7 26.3333 24 24 26.1667 17 0 27 14.0833 0 13 13.4 0 0 0 0 24.25 24.25 23.2222 21.8 25 25 25 23.2222 23.2222 19 0 11.5 0 0 0 20.0556 20.0556 20.0556 0 14.5 0 23.5 25.3 0 0 25.3333 25.2 25.5 26.1667 0 25.3333 23.25 25.3 23.25 24.625 24.625 28 0 0 0 0 24.1667 23.625 23.6667 23.6667 27.5 0 24 24.2222 29.25 0 27 25 26 27.3333 27.6667 27 26.5 26.5 0 27.1667 24 25 0 25.6667 25.6667 26.4 27.3333 28.0222 28.0222 26.5 0 0 25 27.7083 0 27.6667 0 0 28 29.5 0 0 0 0 0 30.2 0 0 0 0 0 0 0 0 0 0 0 0 0 0 0 0 0 0 28 0 0 0 25.25 25.3333 24.375 25.8 0 0 26.8 26.8 18.75 15.85 0 0 25.5 2.6 2.6 26.5952 0 24.25 10.8333 19 -9 16 -12 0 -19 -19 23.3333 23.3333 0 24 0 0 -1.25 0 0 0 25 25 -5.33333 24.5 24.5 26 26 23 -1.5 0 0 25.5 25 25.5 25 25.3333 24.5 24 24 25 0 25.0667 0 0 0 0 0 25 0 22.5 23.25 26.3333 26.8667 24.25 0 0 27.3333 26.5 0 0 26.5 24.5 23 0 25 23.3333 0 0 0 39.3333 25.7273 31.1143 0 0 0 27.8889 27.8889 0 0 0 0 21.5333 21.5333 27.8889 26.6818 0 0 31.1143 25.7273 25.7273 0 0 17.3333 21.4737 21.4737 29.7 0 0 0 36 40.4444 40.4444 40.4444 0 0 38.25 38.25 0 0 0 27.6667 24.75 21.4 21.4 0 0 -2.16667 0 0 0 0 0 0 0 0 0 0 0 0 20.8 20.8 0 0 0 0 0 26.6 0 0 0 25 0 0 24.3333 0 0 0 0 26 26 0 0 0 31.5 0 0 35.5556 0 18 18 18 54.6667 0 0 0 16.5 16.5 39.2857 0 0 0 0 0 0 0 0 0 0 0 0 0 0 0 0 0 0 0 0 0 0 0 0 0 0 0 0 0 0 0 0 0 0 0 0 0 0 0 0 0 0 0 0 0 0 0 0 0 0 0 0 0 0 0 0 0 0 0 0 0 0 0 0 0 0 0 0 0 0 0
0 0 0 0 0 0 0 0 0 0 0 0 0 0 0 0 0 0 0 0 0 0 0 0 0 0 0 0 0 0 0 0 0 0 0 0 0 0 0 0 0 0 0 0 0 0 0 0 0 0 0 0 0 0 0 0 0 0 0 0 0 0 0 0 0 0 0 0 0 0 0 0 0 0 0 0 0 0 0 0 0 0 0 0 0 0 0 0 0 0 0 0 0 0 0 0 29 0 0 0 0 25 28 0 27.5 27.5 27.5 0 24 28 0 0 0 0 0 0 0 0 0 0 0 34 27.5 27.5 29.9167 0 0 -2.25 27.8889 27.4848 27.4848 27.4848 0 38 36.5 39.25 39.8 39.8 0 39 0 0 38.5 39.5 39.5 0 0 0 0 0 0 0 39 0 0 35 35.6667 35.5 35.5 37 0 18.5 38 0 0 0 0 0 34 37 0 39 0 0 35 34 0 35.5 33 33.5 30 26.3333 26.3333 0 0 13.5 33 0 33 0 0 34 32 0 0 34 0 29 29.5 29.5 0 0 30 0 0 0 29 0 0 0 0 0 0 27.5 27.5 0 0 34.5 34.5 34.5 26 29.7143 31.6 30.5952 29.358 31.1795 0 0 0 27.4286 0 0 28 22.3333 0 26.6 0 22.6667 27.3 28.7879 27.3 0 11.4286 11.4286 26.9375 27.5 27.3333 0 25.9643 24.5 24.5 24.5 26.7857 14 25.6667 26.6 26 0 20.5714 0 0 26 26.5 26.5 26.1667 26.1667 0 0 14.0833 0 0 0 0 0 27.1667 20.5 31.8571 31.8571 24.25 23.2222 23.2222 29.3333 23.2222 26 23.2222 23.2222 19 31.8571 11.5 0 0 10.7333 10.7333 20.0556 0 0 0 27.8333 14.3 19.5 25.3333 25.3333 26 25.5 25.5 26.1667 25.3333 23.25 30.3333 28.3333 27.6 27.6 27.6 30.5 0 27 27 26.5 26 28 0 0 0 27.5 29.25 29.25 0 0 25 29 29 29.7778 0 0 0 29.8 27.5556 27.1667 27 0 28.4667 28.4667 27 27.1667 28.0222 27 0 0 0 27.7083 27.7083 25.25 27.6667 32.2222 26.5 26.5 29.5 0 0 30.5 30.6 30.5 0 30.6 0 32.2222 32.2222 32.2222 32.2222 29.5 29.5 27.4 29 27.3333 27.3333 27.8333 0 0 0 26 27.5 28 26.6667 0 0 25.25 25.25 23.4167 23.4167 0 0 0 26.8 19.5 19.5 0 0 0 25.0714 2.6 14 10.3333 -4 0 24.25 -11.3 14.3333 -12 0 0 -19 -19 24 3.5 26 26 0 25.5714 -0.727273 5.6 5.6 25.25 25.25 -5.33333 2.5 24.5 0 26 25 25 0 4.91667 -12.5 25.5 25 25.5 25.3333 -4 24.5 0 25 24.3333 0 25.0667 0 0 24.3333 0 25 0 0 26.3333 23.5 26.8667 24.25 27.375 0 23.6667 0 40.4444 36 0 25.3333 0 0 29 21.4737 0 17.3333 0 0 0 25.7273 31.1143 0 0 0 27.8889 0 0 0 0 0 0 0 27.8889 0 0 0 0 0 29.2 0 0 17.3333 21.4737 24.25 0 0 0 0 0 0 24.25 0 0 0 0 38.25 0 44.5 27.6667 27.6667 27.6667 24 21.4 0 0 0 25.5 25.5 0 0 26 0 25.5 0 0 0 0 0 20.8 0 0 0 0 0 0 0 0 0 27.25 27.25 0 0 24.3333 0 0 24.3333 24.5 26 0 0 0 0 31.5 31.5 0 0 18 18 18 0 54.6667 27.4444 0 0 0 0 0 0 0 0 0 0 0 0 0 0 0 0 0 0 0 0 0 0 0 0 0 0 0 0 0 0 0 0 0 0 0 0 0 0 0 0 0 0 0 0 0 0 0 0 0 0 0 0 0 0 0 0 0 0 0 0 0 0 0 0 0 0 0 0 0 0 0 0 0 0 0
0 0 0 0 0 0 0 0 0 0 0 0 0 0 0 0 0 0 0 0 0 0 0 0 0 0 0 0 0 0 0 0 0 0 0 0 0 0 0 0 0 0 0 0 0 0 0 0 0 0 0 0 0 0 0 0 0 0 0 0 0 0 0 0 0 0 0 0 0 0 0 0 0 0 0 0 0 0 0 0 0 0 0 0 0 0 0 0 0 0 0 0 0 0 0 0 0 0 27 27 28.5714 0 0 0 27.5 27.5 0 0 0 0 0 0 0 0 0 0 0 0 0 28.5 32 34 0 0 27.5 30.8333 30.8333 0 0 0 0 27.4848 27.4848 0 0 39.8 0 0 0 39 39 0 38.3333 0 0 37 0 0 40 38.5 0 0 0 0 0 35 0 36.5 36.5 0 0 17 0 0 36 35.5 35.5 0 32.1667 32.1667 0 39 0 0 0 0 34 34 28.5 0 34 27.5 27.5 19 25.5 24 0 33 33 35.6667 35.6667 0 31 0 0 0 0 31 0 0 0 29 0 0 29 0 29 28 28 28 30.0769 28 0 27.5 27.5 29.9792 29.9792 33.75 33.75 26.9524 0 24 31.6 0 31.1795 31.1795 0 27.4286 27.4286 27.4524 27.4524 0 29.0192 28 28.8 29.1667 26.6 28.4 28.7879 28.7879 27.3 27.3 0 0 28.8333 32.1071 30.6667 0 25.9643 26.5 26.5 26.75 28 26.1 0 26.6 26 20.5714 20.5714 29.2143 15.3333 15.3333 26 26 0 0 0 0 0 0 0 0 0 20.375 0 27.1667 31.8571 31.8571 24.8571 26.1 0 26.1 27.6 29.3333 26.1 26.1 24.8571 31.8571 20.5 0 20.375 20.375 20.375 19.5 25 0 0 0 27.8333 25.3 25 0 29 0 28.5 29 29.5 30.3333 30.3333 28.5 28.5 28.3333 28.3333 28 0 0 0 0 0 28 26 0 0 0 0 29.25 32.1667 0 27.6667 0 29 29.7778 29.7778 29.7778 29.7778 0 0 27.5556 27.5556 27.3333 28.4667 27.6667 27 27.1667 27.1667 32.6667 27 0 31 27.7083 27.7083 25 0 27.6667 26.5 26.5 28 29.5 0 0 0 30.5 30.6 29 28.4 0 0 0 32.2222 28 29.5 27.4 27.4 26.75 0 0 27.8333 30.2 0 26 26.6667 27.5 26.6667 0 0 0 26.35 25.25 23.4167 0 0 0 20.5 26.8 22.6667 22.5 0 0 26.5 0 14 10.3333 13.5 -4 -4 0 2.75 4.5 4.5 -12.5 24 -19 -2.33333 26.5 3.5 -0.611111 10.6667 25.5714 0.166667 0.166667 5.6 0 25.25 25 -5.33333 9.75 24.5 0 23.5 35.4 25.2 4.91667 4.91667 25.3333 25.3333 25.4444 1.8 27.3571 25.5 23.4 24 24.5 0.666667 0.666667 24.7143 23.0909 0 23.6667 26.1667 26.1667 0 26.5 27 23.5 26.8667 24.25 24.25 23.6667 0 40.4444 0 0 26.5 0 0 29 33 21.4737 21.4737 0 0 0 0 25.7273 0 0 0 0 27.8889 0 0 0 0 0 21.5333 27.8889 0 0 0 0 31.1143 25.7273 25.7273 0 0 17.3333 21.4737 0 0 0 0 36 36 40.4444 40.4444 0 0 0 0 38.25 0 0 0 27.6667 0 0 0 0 26.5 26.5 27.1667 0 0 0 0 0 25.5 0 0 0 28 26 26 0 0 0 0 32.5 25 0 28 28 0 27.25 0 0 0 50.5 0 0 0 26 0 0 0 0 31.5 0 12.875 0 0 18 18 0 0 0 0 0 0 0 0 0 0 0 0 0 0 0 0 0 0 38.8462 0 0 0 0 0 41.3 0 0 0 0 0 0 33.8485 0 0 0 0 0 0 0 0 0 0 0 0 0 0 0 0 0 0 0 0 0 0 0 0 0 0 0 0 0 0 0 0 0 0 0 0 0 0 0 0 0 0 0 0 0
0 0 0 0 0 0 0 0 0 0 0 0 0 0 0 0 0 0 0 0 0 0 0 0 0 0 0 0 0 0 0 0 0 0 0 0 0 0 0 0 0 0 0 0 0 0 0 0 0 0 0 0 0 0 0 0 0 0 0 0 0 0 0 0 0 0 0 0 0 0 0 0 0 0 11.5 13.3 13.3 12.3 12.3 0 0 0 0 0 0 0 0 0 0 0 0 0 0 0 0 0 0 29 28.1667 28.1667 0 0 0 0 30.5 30.5 0 0 0 0 0 0 0 0 0 0 0 0 0 0 0 0 0 0 0 0 0 0 0 0 0 27.8889 27.8889 0 0 0 39.5 39.5 0 39 38.3333 37.5 40 0 0 0 0 0 36.5 33 38.5 38.5 0 0 0 0 0 36.6667 36.6667 0 34 36 0 0 35 36.5 36.5 36 0 0 0 35.5 0 0 0 0 41.5 37.125 31.5833 30.5 33.5 33.5 0 0 0 33.5 0 0 0 35.6667 0 31 0 0 0 30 0 31 0 0 29 29.5 0 28.6667 29 0 29 0 0 0 30.2381 30.0769 32.6667 30.6667 31.5 0 30.75 27.25 27.25 28 27.4 35 31.6 0 0 29.358 31.1795 0 0 0 0 27.4222 29.0192 28 0 29.1667 26.6 28.4 28.7879 28.7879 27.3 0 0 0 32.1071 32.1071 30.6667 0 27 26.5 26.5 26.75 28 26.1 26.1 26.6 26.6 20.5714 0 0 0 27.2 32 32 0 28.1071 17 23.5 0 0 0 20.0556 20.0556 20.375 0 0 24.8571 24.8571 26.75 24.8571 0 0 27.6 27.6 29.3333 0 26.75 24.8571 31.8571 0 0 20.375 10.7333 21.8 14.3333 0 0 0 17.625 17.5 22.7857 0 0 -4 28.5 29 29.5 0 27.6667 29.5 29.5 29 29.75 29.75 0 29.8333 31.3333 28.3 28.3 0 0 0 27.5 27.5 0 32.1667 32.1667 0 0 0 29 29.7778 31.3333 31.3333 31.3333 0 29.8 0 27.5556 27.3333 0 0 27.6667 27.6667 30.8333 30.8667 30.8667 33.1429 33.1429 27.2 27.7083 27.7083 25.25 25.25 0 26.5 26.5 30 30.6 30 0 30.5 30.6 30.6 30.6 28.4 28.4 0 32.2222 0 28 29.5 27.4 26.75 27.5 0 0 30.2 0 0 0 0 0 28.1667 0 0 27 27 26.5 26 26 0 19.25 26.8 22 19.4 28 0 28 15 14.6667 15.5 13.5 28 15.6 0 8.83333 8.83333 4.41667 0 0 16 19.619 19.619 13.6667 13.6667 -0.611111 25.5714 25.5714 11.5714 5.6 0 25.25 28.2 31 28.7955 28.25 24.8 31 35.4 25.2 25.2 26.6667 26.6667 25 27.25 25.4444 1.8 1.8 25.5 23.4 24.5 24.5 0.666667 24.7143 23.0909 0 28 23.6667 0 0 26.1667 26.5 26.5 26.8667 26.8667 29.0833 0 0 27 0 40.4444 36 26.5 0 0 29.7 21.4737 24.25 25.7273 0 0 0 0 25.7273 0 0 0 0 31.1143 21.5333 0 0 0 0 0 30.2143 0 0 0 31.1143 31.1143 21.2857 23 0 17.3333 21.4737 21.4737 21.4737 0 0 0 0 0 51.4 40.4444 0 0 0 26.5 26.5 0 0 0 0 28 0 0 26.5 26.5 27.1667 27.1667 0 0 0 26 25.5 25.5 0 0 0 0 0 26 0 0 0 0 32.5 29.5 33.1905 28 28 27.25 0 0 0 0 0 0 0 0 31.5 22.7308 0 0 0 0 31.5 0 0 0 0 0 0 0 0 0 0 0 0 0 0 0 0 0 0 0 0 0 0 0 0 0 0 0 0 0 0 0 47.3333 0 0 0 0 0 0 0 0 0 0 0 0 0 9.27273 0 0 24.5 0 0 0 0 0 0 0 0 0 0 0 0 0 0 0 0 0 0 0 0 0 0 0 0 0 0 0 0 0 0 0 0
0 0 0 0 0 0 0 0 0 0 0 0 0 0 0 0 0 0 0 0 0 0 0 0 0 0 0 0 0 0 0 0 0 0 0 0 0 0 0 0 0 0 0 0 0 0 0 0 0 0 0 0 0 0 0 0 0 0 0 0 0 0 0 0 0 0 0 0 0 0 0 0 0 0 11.5 0 0 0 0 0 0 0 0 0 0 0 0 0 0 0 0 0 0 0 0 0 0 0 0 0 27 28.5 0 0 0 0 0 0 0 0 0 0 0 0 0 0 0 0 0 0 0 0 0 0 0 0 0 0 0 0 0 27.4848 27.8889 27.8889 0 36.5 0 0 37 38.3333 38.3333 36.5 0 25.6667 25.6667 37 0 36 36.5 0 0 0 0 0 0 34 0 36.6667 36.8333 0 35.5 36 0 0 37 0 0 26.3333 30 0 33.5 0 0 0 0 33.6667 37.125 37.125 31.25 38.2857 0 0 34 0 0 0 0 0 0 0 0 31 31 0 0 0 0 30 30 30 0 0 0 30 0 0 35.5 0 35.375 35.375 30.2381 30.0769 32.0211 32.6667 31.5 30 30.75 30.75 30.75 34.5 27.4 35 29.7143 31.6 0 29.358 31.1795 0 0 27.4286 0 32 27.4524 29.0192 0 28.8 29.1667 26.6 26.6 27.3 27.3 0 29 0 32.1071 0 0 0 27 27 27 26.75 26.75 26.1 7 20.5714 26.6 20.5714 0 31 29.9333 29.9333 27.2 27.2 19.5 19.5 28.1071 14.3 0 0 0 20.0556 19.5 20.375 0 0 27.1667 27.1667 24.8571 26.75 26.75 26.1 27.6 27.6 0 26.1 28.875 29 0 20 27.1667 10.7333 10.7333 14.3333 14.3333 14.3333 26.5 0 17.625 17.625 17.625 22.7857 0 0 0 31 33.2 33.2 31 29.5 27.6667 29.5 30.25 29.75 29.6286 0 29.8333 0 28.3 28.3 0 0 29.6667 32 0 29.2857 32.1667 32.1667 0 0 0 29 29 29 31.3333 0 0 29.8 0 27.5556 27 0 27.6667 30.1667 0 30.5 28.0222 28.0222 26.5 30 0 29.3333 25 29.8333 30.5 0 29.3333 29.3333 30.3333 0 29 30.5 30.5 30.6 29 29 28.4 28.4 32.2222 32.2222 28 28 27.4 26.75 26.75 0 28 0 30.2 0 0 0 0 28 28.1667 0 28.1667 27 27 26.5 26 26 21.2 27 27 22 28 22.7143 0 15 14.6667 15.1667 15.5 28 0 0 0.125 20.8333 4.41667 4.41667 0 0 16 19.619 13.6667 12.5 -0.611111 25.5714 25.5714 0.166667 18.3714 18.3714 27.6667 28.2 35.7857 28.7955 28.7955 28.25 -1.5 35.4 35.4 25.2 26.6667 26.6667 26.6667 25.4444 25.4444 25.4444 1.8 23.0909 0.666667 24.5 24.5 0 23.0909 23.0909 23.0909 0 23.6667 23.6667 26.1667 22.6364 31.6667 27 0 29 29.0833 38.25 0 0 0 0 40.4444 36 0 0 24.25 21.4737 27 0 21.4737 17.3333 0 0 25.7273 36.5 0 0 31.5 0 25 30.2143 30.2143 10 0 21.5333 30.2143 0 0 0 0 0 36.5 21.2857 21.2857 38 27 0 0 29 0 0 27 0 0 51.4 0 0 27 27 31.6667 29.6667 0 31 31 32 30.4 30.4 30.5 0 0 27.1071 27.1071 31 0 0 0 31.5 31.5 30 29 27.7692 27.7692 28.3333 28.3333 0 0 0 0 34.6667 29.5 33.1905 0 0 0 0 0 0 0 0 0 0 32.3333 -4.09091 8 14.0769 14.0769 0 31.5 31.5 0 0 0 0 0 0 0 0 0 0 0 0 0 0 0 0 0 0 0 0 0 0 0 0 0 0 0 0 0 0 0 0 0 0 0 0 0 0 0 0 38.6 64.9545 17.8182 9.27273 9.27273 0 67.4 67.4 0 0 0 0 0 0 0 0 0 0 0 0 0 0 0 0 0 0 0 0 0 0 0 0 0 0 0 0 0 0 0 0
0 0 0 0 0 0 0 0 0 0 0 0 0 0 0 0 0 0 0 0 0 0 0 0 0 0 0 0 0 0 0 0 0 0 0 0 0 0 0 0 0 0 0 0 0 0 0 0 0 0 0 0 0 0 0 0 0 0 0 0 0 0 0 32.6 0 0 0 0 0 0 0 18.8 0 0 0 0 0 0 0 0 0 0 0 0 0 0 0 0 0 0 0 0 0 0 0 0 0 0 0 0 0 0 0 0 0 0 0 0 0 0 0 0 0 0 0 0 0 0 0 0 0 0 0 0 0 0 0 0 0 32.0952 32.0952 27.8889 27.4848 27.4848 29 0 0 0 35 0 0 36.5 0 0 0 36.5 0 0 0 36 36 36 0 0 0 33.5 34 36.8333 36.8333 0 0 0 0 24 25.5 0 0 27.5 27.5 39.1667 30.5 38.6667 37.125 37.125 0 33.6667 0 0 35 0 29.3333 29.3333 0 0 31 33 0 32.5 33 0 0 31 32 0 0 0 32 33.0714 33.0714 33.0714 32 32 34.8571 35.3333 35.3333 29.7778 34.8 35.375 35.375 35.375 0 30.2381 32.0211 32.6667 30.6667 0 30.75 30.75 30.75 29.9792 34.5 28.3333 29.7143 29.7143 30.5952 29.358 31.1795 31.1795 31.1795 0 0 27.4222 27.4524 28 40 0 0 40 40 28.4 27.3 0 31.1667 0 0 32.1071 32.1071 30.6667 33 0 0 0 29.4 25.4 30.4286 25.4 0 31.3333 31 31 29 29 32 32 28.1071 0 23.5 23.5 23.5 20.0556 0 27.25 20.0556 19.5 20.375 27.1667 0 20 0 29 0 28.875 0 0 0 28.9167 28.875 0 0 0 0 15.25 15.25 15.25 25.2 21.8 25.5385 25.5385 19.9643 19.9643 19.9643 18.8333 18.8333 0 -1 30 33.2 33.2 31 27.6667 27.6667 29.5 29 30.25 29.6286 29.6286 29.8333 31.3333 0 28.3 0 0 0 29.6667 29.2857 0 0 0 32.1667 0 33.5 27.6667 27.6667 29 31.3333 31.3333 0 0 0 27.1667 27.5556 27.3333 0 0 0 30.8333 30.8333 32.6667 30.8667 33.1429 0 29.3333 29 30.3333 30.5 30.5 0 29.3333 30.3333 0 29 29 30.5 30.5 30.6 30.6 32.3333 32.3333 27.6667 32 0 28 0 0 28 28 28 28 0 0 0 33.5 34 34 0 0 28.1667 28.1667 31.3333 28 28 22.5 25.75 0 27.4667 27 13.25 20.5 13.25 0 0 14.5 14.5 13.4762 1.55 1.55 0.125 20.8333 20.8333 4.41667 0 0 16 19.619 7.94737 19.619 13.6667 -0.611111 25.5714 19 19 18.3714 18.3714 28.2 35.7857 31 31 28.25 -1.5 -1.5 24.8 35.4 26.25 26.6667 29.5455 1.8 25.4444 25.4444 1.8 1.8 1.8 0.666667 24.5 0 0 23.0909 23.0909 0 23.6667 0 26.1667 26.1667 31.5 31.6667 29.5 0 29 38.25 38.25 66.6667 0 0 40.4444 40.4444 29.7 23 0 0 29.7 21.4737 33 21.4737 17.3333 0 21.2857 21.2857 36.8 0 0 0 25 25 30.2143 29.5 29.5 29.5 30.2143 30.2143 30.25 0 0 0 36.8 36.8 38.6111 15.2 38 0 31.3333 31.3333 28.6667 40.6818 40.6818 45.1667 27.3333 33.8333 33.8333 33.8333 0 27 31.6667 31.6667 0 0 31 31 53 30.4 30.5 0 0 0 27.1071 31 0 0 0 0 0 30 30 0 27.7692 0 28.3333 0 0 0 0 0 25 33.1905 0 0 33 33 33 33 0 0 0 0 0 32.3333 32.3333 14.0769 14.0769 14.0769 0 0 0 0 0 0 0 0 20.6667 20.6667 12.875 0 0 0 0 0 0 0 0 0 38.8462 0 0 0 0 0 0 0 35 35 39.2857 39.2857 0 0 0 0 0 0 0 33.8485 0 0 38.6 38.6 64.9545 17.8182 9.27273 0 0 0 0 0 0 0 0 0 0 0 0 0 0 0 0 0 0 0 0 0 0 0 0 0 0 0 0 0 0 0 0 0 0 0
0 0 0 0 0 0 0 0 0 0 0 0 0 0 0 0 0 0 0 0 0 0 0 0 0 0 0 0 0 0 0 0 0 0 0 0 0 0 0 0 0 0 0 0 0 0 0 0 0 0 0 0 0 0 0 0 0 0 0 0 0 0 0 0 0 0 0 0 0 0 0 0 0 0 0 0 0 0 0 0 0 0 0 0 0 0 0 0 0 0 0 0 0 0 0 0 0 0 0 0 0 0 0 0 0 0 0 0 0 0 0 0 0 0 0 0 0 0 0 0 0 0 0 0 27.5 27.5 0 0 32.0952 32.0952 32.0952 0 27.8889 27.4848 29 28.2545 28.2545 28.2545 0 34.6667 0 0 37.5 0 35.3333 36.5 0 0 36 36 0 0 0 0 35.5 34.5 34.5 35.1667 35.1667 0 0 34.2083 34.2083 34.2083 34.5 34.5 0 0 39.1667 0 38.2857 40.5 0 0 0 0 0 34.6667 0 0 29.3333 29.3333 0 0 31 32 0 32 32 31.5 31.5 31 32 33.3333 0 31.8333 32 30.8571 33.0714 33.0714 33.4 32 0 30.0833 35.3333 34.8 34.8 35.5 35.5 35.375 30.2381 30.0769 32.0211 32.0211 30.6667 31.5 29.9792 29.9792 30.75 29.9792 29.9792 28.3333 28.3333 31.6 0 31.1795 29.358 31.1795 31.1795 0 27.4286 27.4222 27.4222 32 28 0 0 32.5 32.5 40 27.3 0 31.1667 35.7 36.6667 34.2333 0 32.1071 0 0 0 31 29.4 29.4 30.4286 25.4 30.8333 31.3333 31.3333 31 31.375 29 29 33 0 32 0 0 17.5 19.1667 14.5 26.5 21.8 21.8 30.5 0 0 0 0 0 0 0 28.9167 28.875 0 0 30.9636 30.9636 27 14 4 30.9 30.9 15.25 30.6 25.2 30.4286 0 -16 19.9643 30.175 21 18.8333 0 0 0 27.6667 30.6 33.2 27.6667 27.6667 33 32 30.9667 32.5 29.6286 29.6286 31.3333 0 31.8 32.75 0 0 33.5 0 31.5 29.2857 0 32.5 31.8333 31.8333 0 0 0 30.5 32 0 29 31.6667 30.3333 30.3333 0 0 30.1667 30.1667 0 30.8333 30.8667 30.8667 33.1429 33.1429 0 29 29.3333 29.8333 30.5 0 0 32.5 30.3333 0 29 30 0 0 0 0 32.3333 27.6667 0 0 0 31.5 28 0 38 0 34.9667 28 0 0 0 0 0 0 0 0 0 31.3333 31.3333 28 28 22.5 25.75 27.4667 27.4667 31.5 29.4286 22.7143 22.7143 30.5 0 14.5 24 13.4762 13.4762 1.55 0.125 0.125 20.8333 4.41667 0 16 16 19.619 30.4 13.6667 -0.611111 -0.611111 -21.5714 -21.5714 18.3714 18.3714 27.6667 28.2 0 31 31 24.8 -1.5 24.8 24.8 25.2 25.4444 0 25.4444 0 0 29.5455 30.6 1.8 1.8 23.4 24.5 24.5 0.666667 23.0909 23.0909 0 0 23.6667 0 31.5 31.5 29.5 29.5 44.5 29 29.0833 0 0 0 0 40.4444 0 0 0 29.3333 29.3333 29 29 21.4737 0 17.3333 38 21.2857 21.2857 36.8 0 0 0 25 27.6667 28.3333 29.5 29.5 29.5 27.7273 30.25 0 0 0 0 36.8 38.6111 15.2 15.2 0 0 31.3333 28.6667 40.6818 40.6818 40.6818 45.1667 27.3333 33.8333 33.8333 0 0 0 28.5 29.6667 0 0 31 32 30.4 30.4 0 32.3333 0 0 27.1071 0 0 0 0 0 0 0 0 27.7692 27.7692 32.6667 32.6667 32.6667 0 0 0 0 34.6667 33.1905 0 0 0 33 33 32.5 0 0 0 0 0 22.7308 -12.4286 0 14.0769 14.0769 14.0769 0 0 0 18 0 0 0.333333 20.6667 20.6667 0 0 0 0 0 0 0 0 0 36 34 0 0 0 0 0 0 36 0 39.2857 39.2857 39.2857 39.2857 0 0 0 54.6667 11.6667 11.6667 33.8485 0 0 38.6 64.9545 64.9545 0 0 0 0 0 0 0 0 0 0 0 0 0 0 0 0 0 0 0 0 0 0 0 0 0 0 0 0 0 0 0 0 0 0 0 0
0 0 0 0 0 0 0 0 0 0 0 0 0 0 0 0 0 0 0 0 0 0 0 0 0 0 0 0 0 0 0 0 0 0 0 0 0 0 0 0 0 0 0 0 0 0 0 0 0 0 0 0 0 0 0 0 0 0 0 0 0 0 0 0 0 0 0 0 0 0 0 0 0 0 0 0 0 0 0 0 0 0 0 0 0 0 0 0 0 0 0 0 0 0 0 0 0 0 0 0 0 0 0 0 0 0 0 0 0 0 0 0 0 0 0 0 0 0 0 0 0 0 33.75 33.75 33 0 0 0 32.0952 32.0952 32.0952 35 31.75 31.375 33.5 0 34 34 29.6667 29.6667 25.6667 32.0333 32.0333 35.3333 35.3333 34.5 38 36 11.3333 35.5 35.5 35.5 0 35.5 0 0 34 35.5 35.5 0 0 0 34.2083 35 34.5 34.5 0 33 29.3333 0 38 40 34.6667 34.6667 33.5 33.5 34.5 34.6667 27 0 24.6667 24.6667 26 32 32.4962 35.3199 17.4286 31 32.9231 33.5 33.5 33.5 34 33.3333 0 0 31.8333 30.8571 33.0714 33.0714 33.4 0 0 30.0833 31.9643 34.8 29.7778 0 0 35.375 30.2381 30.2381 30.0769 32.0211 32.6667 31.5 30.75 30.75 30.75 29.9792 29.9792 34.5 28.3333 29.7143 29.7143 29.358 29.358 29.358 31.1795 32 0 0 32 27.4524 27.4222 0 0 40 40 40 0 0 0 35.7 33.5 0 34.2333 34.2333 33 33 33 29.5 0 29.4 25.4 25.4 0 30.8333 31.3333 26.5 31.375 35.6667 35.6667 36 27.2 32 0 35 28.1071 17.625 0 26.5 26.5 21.8 14.3333 30.5 30.5 0 0 0 31.8214 31.8214 30.6667 28.9167 34.8333 34.8333 35.5 30.6667 30.6667 30.6667 28.1111 28.1111 20 30.9 30.6 30.6 30.4286 30.4286 25.5385 36.4286 20 0 0 31.5 31.5 0 27 32.75 32.625 32.625 30.625 30.625 31.9 32 30.9667 29.75 30.5 31.5 31.5 30.6667 31.8 32.75 32.3333 33.5 31.5 31.5 0 31.4667 32.65 32.5 31.8333 31.8333 30.5833 0 0 32 32 0 31.6667 31.6667 30.3333 30 30.5 0 30.1667 0 30.8333 32.6667 30.7 33.1429 33.1429 31.5 31 31 32.5 30 31 0 0 0 0 0 30 32.5 32.5 0 0 30.5 33 27.6667 0 0 33 31.75 31.75 0 0 0 31.5 31.5 0 0 27.4667 0 26 0 0 0 31.3333 31.3333 31.3333 31.5 29.875 25.75 25.75 34.75 27.4667 29.4286 22.7143 22.7143 9 9 0 14.5 14.5 13.4762 13.4762 1.55 0.125 0 4.41667 4.41667 0 0 30.4 30.4 19.619 33.1667 29.8 34 -21.5714 -21.5714 27.6667 18.3714 35.7857 35.7857 35.7857 28.7955 33.6 28.25 -1.5 -1.5 11 -1.5 0 32.5 32.5 25.3333 29.5455 29.5455 30.6 0 0 23.4 24.5 24.5 23.0909 0 0 0 0 0 0 31.5 31.6667 29.5 0 0 29 29.0833 0 0 31.2 27 51.4 0 27 0 29.3333 30 29 29 30 30 0 38 38.6111 36.8 0 0 0 0 26 0 27.7273 27.7273 27.7273 27.7273 27.7273 30.25 0 0 0 36.8 36.8 38.6111 15.2 15.2 0 31.3333 31.3333 28.6667 40.6818 40.6818 45.1667 27.3333 0 0 0 0 0 0 0 29.6667 0 30.6667 31 32 31.3333 32.3333 32.3333 0 0 0 32.1667 27.1071 31 0 0 0 0 0 0 27.7692 27.7692 32.6667 32.6667 0 0 0 0 0 33.1905 33.1905 0 0 0 33 33 33 0 0 0 0 22.7308 -4.09091 22.7308 22.7308 22.7308 0 0 0 0 0 0 0 0 0 0 0 0 0 0 27.4444 0 0 0 0 39.2857 35 0 0 0 0 0 0 34 33.8 29.3333 35 39.2857 39.2857 16.5 0 0 0 0 0 0 0 0 0 0 0 0 0 0 0 0 0 0 0 0 0 0 0 0 0 0 0 0 0 0 0 0 0 0 0 0 0 0 0 0 0 0 0 0 0 0 0
0 0 0 0 0 0 0 0 0 0 0 0 0 0 0 0 0 0 0 0 0 0 0 0 0 0 0 0 0 0 0 0 0 0 0 0 0 0 0 0 0 0 0 0 0 0 0 0 0 0 0 0 0 0 0 0 0 0 0 0 0 0 0 0 0 0 0 0 0 0 0 0 0 0 0 0 0 0 0 0 0 0 0 0 0 0 0 0 0 0 0 0 0 0 0 0 0 0 0 0 0 0 0 0 0 0 0 0 0 0 0 0 0 0 0 33.5 33.5 33.5 35.75 0 0 0 0 0 32 0 0 29.9167 32.0952 32.0952 32.0952 0 0 27.8889 27.8889 32.0952 28.2545 28.2545 29.6667 27.75 33.15 32.0333 32.0333 32.0333 0 34.5 36.3333 36 0 36.5 36.5 36.5 0 35 0 34.5 35 0 0 0 0 0 0 35 0 0 0 33 29.3333 0 37 33 0 0 33 33 0 33 27 36.1818 0 0 0 41.3043 35.3199 35.3199 30.7703 0 36.6667 33.2072 33.2072 33.5758 34 33.3333 0 22.5 4.83333 24.0303 24.0303 32 33.4 0 0 30.0833 31.9643 35.3333 34.8 29.7778 29.7778 35.5 0 30.2381 32.6667 32.6667 32.6667 30.6667 31.5 31.5 0 29.9792 29.9792 34.6667 34.6667 0 29.7143 25.5 29.358 29.358 0 32 0 37.125 34.9286 33.2273 33.2273 34.8333 40 0 0 0 31.1667 33.7143 35 35.7 33.5 35.7 0 29 34.2333 33 33 0 0 29.4 25.4 0 0 0 0 0 35.6667 31.375 31.375 33 33.5 32 0 22.7857 22.7857 17.625 17.625 26.5 26.5 25.2 25.2 30.6 30.6 0 30.9 30 28.1111 31.8214 30.9636 30.6667 35.5 35.5 34.8333 30.6667 21.8 31.8214 28.1111 28.1111 35 30.9 30.6 0 26.8333 30.4286 25.5385 32.25 33.5 32.6667 36.1667 35.2 0 0 0 32.75 32.625 32.625 32.625 30.625 30.625 31.9 30.9667 30.9667 33 33.3333 33.3333 31.5 31.8 31.8 32.75 32.3333 33.5 32.5 31.5 31.4667 32.65 34.3 31.8333 31.8333 30.5833 0 0 30.5 32 0 0 34 33.3333 33.3333 32.6667 32.5 0 0 0 30.8333 30.7 30.7 31.6667 0 0 31.2 31 30 30 0 0 0 31 0 0 0 0 0 0 0 34 34 0 0 0 33 33.2 31.75 31.5 0 31.5 31.5 34.9667 34.9667 0 0 33.5 0 0 0 33.1111 33.1111 33.1111 31.5 31.5 29.875 30.2 34.75 34.75 29.4286 29.4286 22.7143 9 9 0 0 14.5 13.4762 1.55 1.55 16.2 0.125 20.8333 4.41667 4.41667 0 0 0 0 30.4 33.1667 29.8 29.8 -21.5714 0.166667 5.6 0 35.7857 35.7857 35.7857 33.6 30.1667 30.1667 -1.5 0 33.75 33.75 0 0 29.5455 29.5455 29.5455 30.6 30.6 0 0 0 23.4 0 0 0 0 0 0 0 30.3333 30.3333 0 0 31 0 32.5 32.5 0 31.2 31.2 30 51.4 0 40.6818 30 30 30.3333 30.3333 32.1667 0 0 15.2 38.6111 38.6111 36.8 0 0 26 27.3333 27.3333 30.1667 27.7273 27.7273 27.7273 27.7273 0 30.25 0 35.2 0 0 38.6111 15.2 15.2 0 0 0 0 0 0 0 0 0 0 0 0 0 48.75 27 33 0 0 31 31 0 0 0 0 -20.2 0 27.1071 27.1071 0 0 0 0 0 0 30 0 34.2143 27.7692 32.6667 32.6667 27.7692 0 0 0 0 33.1905 33.1905 0 0 0 33 33 0 0 0 0 0 22.7308 22.7308 22.7308 22.7308 22.7308 0 0 0 0 0 0 0 0 34 0 0 12.875 27.4444 27.4444 0 0 0 0 39.2857 35 33.8 34 0 0 0 0 33.8333 33.8333 33.8 29.3333 0 0 0 0 0 0 0 0 0 0 0 0 0 0 0 0 0 0 0 0 0 0 0 0 0 0 0 0 0 0 0 0 0 0 0 0 0 0 0 0 0 0 0 0 0 0 0 0 0 0
