0 0 0 0 0 0 0 0 0 0 0 0 0 0 0 0 0 0 0 0 0 0 0 0 0 0 0 0 0 0 0 0 0 0 0 0 0 0 0 0 0 0 0 0 0 0 0 0 0 0 0 0 0 0 0 -51.5 -51.5 -51.5 -51 0 0 -52 -51.3333 -51.6667 -52 -50.5 -50.5 -50.5 -52 -52.1667 -52.1667 -53 -52 -52.5 -52.5 -53 -53 -53.6667 -53.5 -52 -52.5 -52.5 -53 -53 0 0 0 -53 -53.1667 -53.1667 -53 -52.5 -52.5 -53 -53 -53.5 -53.5 0 -54.5 0 0 -54.5 -53.5 0 0 -53.5 0 0 0 0 0 0 0 0 0 0 0 0 0 0 0 0 0 0 0 0 0 0 0 0 0 0 0 0 -35.6363 -35.6363 -35.6363 -48.3333 0 0 0 0 0 0 0 -35.6363 0 0 0 0 0 0 0 0 0 0 0 -38.2857 -38.2857 -38.2857 -38.2857 -9.5 -9.5 -9 0 0 -9.25 -9.25 -7.83333 -8.5 -7.07143 -7.07143 -7.07143 -7 -5 -6.33333 -6.33333 -6 -6 -6 0 0 0 -8 0 0 0 0 -8 -8.16667 -8.16667 -8 -8 -8 -8 -8 -8 -8 -8 0 0 0 -7.5 -7.5 -6.5 -6.1 -6.1 -6.1 -6.1 -8.5 -6.5 -6.5 -8 0 -7.1 -7.78571 -7.78571 -8 -8.5 -8.5 0 0 -11 0 0 -7.5 -7.5 -7.5 -7.33333 -7.33333 -8 0 -11.5 -11.5 -17 -12 -12 -12.3333 -12.3333 -11.8 0 -15 -12 -11.75 -11.75 -11.75 -15.3333 0 0 -15.4 -15.4 -15.5 -15 0 0 0 -15.5 -15.5 -15.5 -15.5 -15.5 -16.5 -18 -18 -18 -18.5 0 0 -18.5 -18.5 0 0 0 -21.25 -21.25 0 0 0 0 -23.6667 -23.6667 -21 0 0 0 0 0 0 0 0 0 -29 0 0 -30 -30 -31 0 0 -32 -33 0 -33.5 -33.5 -32.5 -34.6667 -34.6667 -34 -34.3333 -34.5 -34 -34.6667 -34.6667 0 0 -25.5 -35.3333 -22.5 -37 -37.5 -29.25 0 0 0 -30.35 -30.35 -27.1667 -33.6667 -30.25 0 0 0 0 0 -30.35 -31.7333 -31.7333 -33.5 0 0 0 0 -31 -31 -29.3333 -31 -30.5 -29 -30 0 0 0 -31 -29.5 -29.5 -30 -30 0 0 0 -29.5 -29.5 0 0 0 0 0 0 -30 0 -31 -31 0 0 0 0 -32 -32 -32 -31 0 0 0 -30.6667 0 -32 0 0 0 -33 -32.5 0 0 -33 0 -33 -34 0 0 0 -34 0 0 0 0 0 0 0 0 0 -53.1667 0 0 0 0 0 0 0 0 0 0 1.75 1.75 0 0 0 0 0 0 0 0 -58.6667 -58.6667 0 0 -60 0 0 -59 -61 -59.5 -59.5 -58 0 0 0 0 0 -59 -59 0 -60 0 0 -59 -59 -59 0 -38.6667 -58 -58 -58 -58 -57.5 -59 -57.5 -57.5 -57 -58 0 0 0 -48 -54.5 -54.5 -37 0 -53 -63.6 -63.6 0 -68 -75 0 -42 -69.5 -45.6667 -43 0 0 -44 -44 0 0 0 0 -55 -45.5 -41.8333 0 -43.5 -44 -42.6667 -42.6667 -42.6667 -42.6667 0 -40.5 0 0 -42 -42 0 -43 -42.5 -45 0 -43.5 0 0 -43 0 0 0 0 -44.5 -47 -44 0 0 0 0 0 -47 0 0 0 0 -53.5 -53.5 0 -54 0 0 0 0 0 0 0 0 -57.25 -59 0 -59.5 0 0 0 -60 -62 -61 -61.5 -61.5 -60 -60 -58.8667 0 -58.8667 -59 -57.9 -59 0 0 0 -58.5 0 -57.5 0 -57.5 0 0 0 0 -66 0 -58.3333 0 -59 0 0 -56 -59.4667 -56 0 0 0 0 -56.5 -56.8333 0 -56.7333 -60 -56.7333 -58 -57.5 -57.5 -56.5 -56.5 -57.6667 -56.1556 0 0 0 -50.6667 -60.9048 -60.9048 0 0 -57.5 0 -57.5 -59.1 -59.1071 -59.1071 -60.9048 -60.9048 -62.2667 -62.2667 -62.2667 -62.2667 -61.6786 -61.6786 -60.5909 0 -55 -45.75 -53.1964 -53.1964 -62 -56.4405 -56.4405
0 0 0 0 0 0 0 0 0 0 0 0 0 0 0 0 0 0 0 0 0 0 0 0 0 0 0 0 0 0 0 0 0 0 0 0 0 0 0 0 0 0 0 0 0 0 0 0 0 0 0 0 0 0 0 -51.5 -51.5 -51.5 -51 -51.5 -51.5 -51 -51.6667 -51.6667 -52 -52 -50.3333 -50.3333 -51 0 0 -52 -52 0 0 -53 -53.6667 -53.6667 -53.5 -51 -51.3333 -51.3333 -52 -52 -53.5 -53.5 -54 -53 -53 -53 -53 -52.5 -52.5 -53 -53 -53.5 -53.5 0 0 -54 -54 -54 -53.5 -53.5 -53.5 -53.5 0 0 0 0 0 0 0 0 0 0 0 0 0 0 0 0 0 0 0 0 0 0 0 0 0 0 0 0 -35.6363 0 0 0 -35.6363 0 0 0 0 0 0 0 0 0 0 0 0 0 0 0 0 0 0 0 0 0 -8.2 -9.5 0 -9.5 -9.5 -8 -9.8 -9.8 -8.33333 -7.83333 -9 -9 -7 0 -5 -6.33333 -5.91667 -5 -7 -7 -7 -7 -7 -6.5 -7.5 -7.5 0 -8.33333 -8 0 0 -8 -8 -8 -8 -8 -8 -8 -8 -8 -8 0 -7.83333 -7.83333 -7.5 -7.5 -8.5 0 0 -7.66667 -7.66667 -7.66667 0 -8 -8 -7.78571 -7.78571 0 -9 -8.5 0 0 -9.5 0 -10 0 0 0 -7.33333 -9 0 -18 -17 -17 0 0 -12 -12 -12 -13 -13 -15 0 0 0 -12 -23.5 0 -15 -15 -15 -14 -15 0 0 -15.2 -15.2 -17 -14 -17 -17 0 0 0 0 -17 0 0 0 0 -19.5 0 0 0 0 -21.5 -21.5 0 0 0 -23 -23.6667 -22.5 -22.5 0 -24 -26 0 0 0 0 0 0 0 -30.3333 -30.3333 0 0 0 0 -32.5 -32.5 0 0 0 0 -35.5 0 0 0 0 -34 -34 -34 -22.5 -21 -37.5 -25.5 -31.4 -37.5 0 -39.1 -39.1 -39 0 -30.35 0 -33.6667 -34.1667 -30.35 0 0 0 0 -27.1667 -33.5 -33.5 -30.35 -31.7333 0 0 -31 -31.5 0 -31.5 -31 -30.5 0 -29 -30 -30 -30 -30 -30 -30 -30 0 0 0 -30.5 -29.5 -29.5 0 -31 -30.5 -30.5 -31 -30.5 -30.5 -29.5 -29.5 0 0 0 -31 0 0 -31.5 -31.5 0 0 -31.5 -30.6667 -30.6667 0 -33.5 -33.5 -33 0 -33 -32 -33.5 -33 0 0 -33 -33.3333 -33.3333 0 0 -34.5 -34.5 -43.6667 -43.6667 0 0 0 0 0 0 0 0 0 0 0 0 0 0 0 0 0 0 0 0 0 0 0 0 -57.5 -57.5 0 0 -58.6667 -59 0 0 0 0 0 -59 -59 -37.5 0 0 0 0 0 -59 -59 0 -59.5 -59.5 0 -33.5 -33.5 -58 0 -38.6667 -38.6667 0 -59 0 0 0 0 0 0 -58 -57 -57.5 0 0 -40.5 -59.5 -59.5 0 0 0 -28 -46 0 -69.2857 -46.5 0 0 0 0 -44 -43 0 0 -45 -47 -47 0 0 -43 -46 0 -41.8333 0 0 -38 -41 -41 -42.6667 -42.6667 0 -41 0 -41.5 -41.5 0 0 0 0 0 0 0 0 0 0 0 -45 -48 0 0 0 0 -48 0 0 -47 -47 0 0 0 0 0 0 0 0 0 0 0 0 0 0 0 0 0 0 -58.5 -57.25 -59.5 -59.5 0 -60.3333 -59.5 -61 0 -58.5 0 -59 -59 -59 -58.8667 -58.8667 -58.8667 0 -57.5 -57.5 -58 -57.5 0 0 -57.5 -58 -57.5 -58.2857 -58.2667 -58.2857 -58.2667 -61 0 -57.5 -59.25 -59.25 -58 0 -59.4667 -59.4667 -58.75 -59.1136 -59.1136 -59.1136 -56.8333 -56.8333 -57.6667 -57.6667 -57.6667 -56.7333 0 -57.5143 -57.5143 -58 -58 -58 -54.5 -63.6667 -52.25 -52.25 -52.25 -56 -59.1 -60.9048 -57.5 -59.1071 -59.1 -59.1 -59.1 -66 -59.1071 -59.1071 -59.1071 -59.1 -60.9048 -57.6667 -53.1667 -59.381 -59.381 -58.6667 -64.5 -55.8 -55 -45.75 -45.75 -53.1964 -53.1964 -53.1964
0 0 0 0 0 0 0 0 0 0 0 0 0 0 0 0 0 0 0 0 0 0 0 0 0 0 0 0 0 0 0 0 0 0 0 0 0 0 0 0 0 0 0 0 0 0 0 0 0 0 0 0 0 0 0 -51 -51 -51 -51 -51.5 -51.5 -51 -51.5 -51.5 -52 -52 -50.3333 -52.1667 -52 -51.5 -51.5 -52 -52 -52.5 -52.5 -52 -52 -52 -52 -51 -51.3333 -52.6667 -53 -52 -52.5 -52.5 -53 -53 -53 -53 -53 -53.5 -53.5 -53 -53 -53.2 -53.2 -54 -54 -54 -54 -53 -53 -53.5 -53.5 -53.5 0 0 0 0 0 0 0 0 0 0 0 0 0 0 0 0 0 0 -35.6363 -35.6363 -35.6363 -35.6363 -35.6363 -35.6363 -35.6363 -35.6363 -35.6363 0 -35.6363 0 0 0 -35.6363 -35.6363 -35.6363 0 0 0 0 0 0 0 0 0 0 0 0 0 0 0 0 0 0 0 0 0 0 -9.5 -8.2 -8.2 -9.8 -9.8 -9.8 -9 -8.33333 -8.33333 0 -8.5 -8.66667 -5.91667 -5.91667 -7.5 -7.5 0 0 0 -7.5 -6 -8.16667 -8.16667 0 -7 0 0 0 -7 0 -8 -8.5 -8.5 -8.5 -7.5 -7.5 -7.5 -7.5 -6.33333 -7.83333 -7.83333 -7.85714 -7.85714 -7.85714 -8 -8 -5 0 0 0 -11 -7.78571 -7.78571 -7.78571 0 0 0 0 0 -9.5 -9.5 -9.33333 0 -8.5 -8.5 -7.5 -9 -9 -9.33333 -9.33333 0 0 -11.75 0 -12 -12 0 0 0 0 0 0 -12 0 -16.3333 -19.5 0 0 -14.5 -13.5 0 -15.2 -15.2 -15.2 0 -15.5 -17 0 -16 -17.5 -17.5 0 0 0 0 0 0 0 0 0 0 -20.5 -21.5 -21.5 0 0 -23.5 -23.5 -23.6667 -23.6667 -23.6667 0 0 -23.5 0 0 0 0 0 0 0 -30.3333 0 0 0 0 0 -32.5 -32 -19.5 0 -34.5 -34.5 0 0 0 0 0 0 0 0 0 0 -37 -37.5 -36.3333 -36.3333 0 -39.1 -39.1 -42.5 -39.6667 0 -39.5 -38.5 -32.3333 -32.9 -33.6667 -33.6667 0 0 -33.25 -33.25 -27.1667 -30.35 -33.5 0 0 -31 -31.5 0 -30.5 0 0 -31 -31 -29.5 -29.5 -30.5 -30 -29.5 0 -30 -29.5 0 0 -29.5 -29.5 -29.5 0 0 0 -30 0 -29.3333 0 -30 -30 0 0 0 -30 0 0 0 0 -31 -31 -32 -31 -33 0 0 0 -32 0 0 -33 0 -33 -33 -32.5 -32.5 -33.3333 -32.8333 -34.3333 0 0 0 0 -54.25 0 0 0 0 0 0 0 0 0 0 0 0 0 0 0 0 0 0 0 0 0 0 0 0 0 0 0 0 0 -61 0 -60.25 -60.25 -60 -60 -58 0 0 -58 -58 -58 -41 0 -60 0 -60 -59.5 -59.5 0 0 -60.5 0 0 0 -59 0 -59 0 -59.5 -59.5 0 0 -57.5 -57.5 -58 -57.5 -57 -36 -40.5 -62.0625 0 -57 0 0 -28 -36.5 0 -75.8636 -62 -59.3333 -59.3333 0 -43 -44 -48 -57.3333 -42 0 0 -46 -46 -46 -48 -44 0 0 0 0 -37.3333 0 -46 -41 0 -41 -41 -41.3333 -41.3333 -48 0 0 0 0 0 -44 -45 0 0 0 0 -46 -46 0 0 0 0 -48 0 0 -47 -51 -47.5 0 0 0 0 0 0 0 0 0 0 0 0 0 0 0 0 0 0 -58.5 -57.25 0 -59.5 -60.3333 -60.3333 -59.5 -61 0 -58.5 -54 -56.5 -56.5 -59 -59 -59 -57 -57 -58 -58 -58.5 -55.0667 -55.0667 -57.5 -58.5 -60 -58 -58.2857 -58.2857 -59 -58.2667 -58.25 -58.25 -57.5 -59.25 -59.3333 -59.25 0 -59.4667 -59.4667 -59.1136 -54.3333 -57.8667 -57.8667 -57.5 -57.5 -56.4286 0 -57.6667 -57.6667 -57.5143 -57.5143 -57.5143 -57 -57 -60 0 -61.6786 -61.6786 -51.5 -62.2667 -62.2667 -59.1 -57.6667 -53.6667 -59.1 -56.9333 -58.7778 -56.5 -56.5 -55 -56.5 -56.5 -58.7778 -58.7778 -57.6667 -53.1667 -59.381 -40.0333 -40.7429 -64.5 -55.8 -55.8 -45.75 -45.75 -53.1964 -53.1964
0 0 0 0 0 0 0 0 0 0 0 0 0 0 0 0 0 0 0 0 0 0 0 0 0 0 0 0 0 0 0 0 0 0 0 0 0 0 0 0 0 0 0 0 0 0 0 0 0 0 0 0 0 0 0 0 0 -51 -50.5 0 0 -51 -51.5 -51.5 -52 -52 -52.1667 -52.1667 -52 -51.5 -51.5 -51.5 -51.5 0 0 -53 -53 -53 -52.5 -52 -52.6667 -52.6667 -53 -52 -52.3333 -52.3333 -53 -53 -53 -52 -52 -52.5 -52.5 0 -53.2 -53.2 -53.2 -54 -54 -54 -54 -54 -53 -53 -53 -53 0 0 0 0 0 0 0 0 0 0 0 0 0 0 0 0 0 0 -35.6363 0 0 0 0 0 0 0 0 -35.6363 0 0 0 0 -35.6363 -35.6363 -35.6363 0 0 0 0 -35.6363 0 0 0 0 0 0 0 0 0 0 0 0 0 -9.5 -9.5 -9.5 -9.5 -8.2 -8.2 -7.5 -7.5 -9 -9 -9 -9 -9 0 -9 -9 -8 -8 -7.5 -7.5 0 0 0 -5 -5 0 0 -7 0 0 -8 -8 -7 0 -8 0 0 -7.5 -7.5 0 -8 -8 -8.16667 -8.16667 -7.85714 -7.85714 0 -7.85714 -8 -8 0 0 -7.5 -9.5 -7.5 -6.5 -8 -8 0 -8 0 -7.66667 -7.66667 0 -9.33333 -8 -8 -9 -9 -8.83333 -8.83333 -9 -9.33333 -8.91667 0 -16.3333 0 0 -12 -12 -12 0 -11 -11 0 0 -16.5 -8 0 0 -13 -13 0 -17 -14 0 -15.5 -15.5 0 0 0 0 -16 -16.5 -16.5 -18 -18 0 -19 -19.5 -19.5 0 -20.6667 0 -22.3333 -22.3333 0 0 0 0 -22.5 -22.5 -23.6667 -23.6667 -23.4667 0 0 0 0 0 0 0 -28.5 -28.5 0 0 0 0 0 -32 0 -32.6667 -32 -32.5 -19.5 0 0 -34 -34.5 0 0 0 0 0 0 0 -29 -28.3333 -37 -36.3333 -58.3636 -39.6667 -39.6667 0 -53 -19.0833 0 -38 0 -33.25 -28.3333 -28.3333 -37.125 -34 0 -32.9 -34.1667 -33.25 -32.6667 -34.1667 -32.5 -32.5 -33 -32.5 -31.5 -31 0 0 -30.5 0 0 0 -30.5 -30.5 -30.5 -30 0 -30 -30 -30 -29.5 -29.5 -29.5 -29.5 -29.5 -30.5 -30.5 -29.5 0 0 -30 0 -30.3333 -30.6667 0 0 0 -32 -31 -31 0 -31.5 -31.5 -32 -32 0 -32.5 -34 -32 -34 -33 0 -33 -31.5 -32.5 0 0 -32.8333 0 0 0 0 0 -35.5 -35.5 0 0 -36 0 0 0 0 0 0 0 0 0 0 0 0 0 0 0 0 0 0 0 0 0 0 0 0 0 0 -60.5 -60 0 0 -60.25 -59.5 -59.5 -58 -58 -59 -59 -59 0 0 0 -58 -59.5 -59 -59 -59 0 -59 0 0 -59.5 -59.5 -45 -58 -58.5 -58.5 -51.125 0 0 0 -58 0 -58 -56.5 0 -59.5 -59.5 -59 -59 -45 -67.1 -67.1 0 0 0 0 -59.3333 -60 -60.9667 -59.6 -60.3333 -60.3333 -62.6667 -57.95 -57.95 -57.6667 -65.625 -43 0 -65.625 -44 0 -42 -48.25 -37.3333 0 0 0 0 -41 -41 -41 -41.3333 -46 -43.5 -42 -42 0 0 0 0 0 0 -50 -50 -46 -46 -46 -46 0 0 0 0 0 -48.5 0 -49 0 0 0 0 0 0 0 0 0 0 0 0 0 -57 0 0 0 0 -57.5 0 -56.5 0 0 -58.5 0 -58.5 -59 -67.5 -57.5 -64.75 -64.75 -64.75 -56.5 -58.5 -58.5 -58.5 -58.5 -57 -58 -58 -58.5 -55.0667 -57.5 -57.5 -57.5 -61 -58 -60 -60 -61 -58.2857 -58.25 0 -58.25 -62 -59.3333 0 0 -63.5 -61.6 -54.3333 -61.6 -57.8667 -57.5 -56.4286 -55.3333 -56.4286 0 0 -57.5 -57.5 -57.5 -57.5 -59 -62 -57.6667 -54 -45.75 0 0 0 -58.6667 -58.6667 -53.6667 -40.0333 -59.6667 -56.9333 -46.65 -45.5 -47.5 -47.5 -47.5 -45.5 -58.7778 -46.65 -46.65 -57.1714 -61.75 -61.75 -61.75 -61.75 -58.6667 0 -58.6667 0 -53.1964
0 0 0 0 0 0 0 0 0 0 0 0 0 0 0 0 0 0 0 0 0 0 0 0 0 0 0 0 0 0 0 0 0 0 0 0 0 0 0 0 0 0 0 0 0 0 0 0 0 0 0 0 0 0 0 0 0 -50 -50 -50.5 -50.5 0 -52 -52 -52 -50 -50.5 -50.5 -51 -51.5 -51.5 -52 -51 -51.5 -51.5 0 -52.5 -52.5 -52 -52 -52.5 -52.5 0 -52 -52.3333 -52.6667 -52.5 -52.5 -52.5 -53 -53 0 0 -53 -53 -53.5 -53.5 -54 -54 -52.5 -52.5 -53 -53 -68.75 -68.75 -68.75 10.1667 10.1667 0 0 0 0 0 0 0 0 0 0 0 0 0 -35.6363 0 0 0 0 0 0 0 0 0 0 0 0 0 0 0 -35.6363 -35.6363 -35.6363 -37.4 0 0 0 0 0 0 0 0 0 0 0 0 0 0 0 0 0 0 0 0 0 0 -10.9643 0 -7.5 -7.5 -10.8571 -9 -8.75 -8.75 -8.75 0 -9 -9 -8.33333 -8.33333 -8 0 0 -8.2 -8.2 -5.5 -5.5 0 0 0 -7 0 -8 -8 -7.5 0 -8 -8 -8 -6.2 -6 0 -8 -8 -6 -8.16667 0 0 0 -7.85714 -7.93333 -7.93333 -6.5 -6.5 -7 -9.5 -8.5 -7.5 -7.5 -7.5 0 -8 0 0 0 -7.66667 0 -8 0 0 0 -9.5 0 -8.91667 -8.91667 -8.91667 0 -16.3333 -8 -13.9167 -13.9167 -13.9167 -14 -14 -14 -13.9167 -8 -8 -16.5 -11.4667 0 0 -16.4 -16.4 0 -15 -14 0 0 0 0 0 0 0 0 0 -18 -19 0 0 0 0 0 -20.6667 -20.6667 0 -22.3333 0 0 0 -24 0 -25 -23.4667 -23.4667 -23.4667 -23.4667 0 0 0 0 0 0 0 0 -28.5 0 0 0 0 0 -32 0 -32 -32.5 -32 -32 -33.5 -33.5 -34 -34 -34.5 0 0 -34.3333 0 0 -38 0 0 -43.25 -43.25 10.5 10.5 10.5 0 -38.625 0 12 -34.5 -39.1 -28.3333 0 0 -34.5 -34 -34 -32.9 -32.9 -33 -33 -34.25 -32.5 -32.5 -32 -33.25 -32.5 -31 -31 0 -30.5 -30.25 -30.25 -30.25 -31 -31 -30.5 -30 0 -29.5 0 -29.5 -29 -30.25 -30.3333 0 -53 -30 0 -29.5 -29.5 -31.5 0 -30.5 -30.6667 -30.6667 0 -31.5 -31.5 -32 -32 -32 0 0 0 0 0 -32.5 0 -34.5 -41.3333 0 -33 -33 0 0 -31.5 -32.5 0 0 0 0 0 0 -31 -39.5 0 0 0 0 -36 0 -41.5556 0 0 0 0 0 0 0 0 0 0 0 0 0 0 0 0 0 0 0 0 0 0 0 -58.5 -60 -59 -59.25 -59.25 -58.6667 0 -58.3333 -58.3333 -58.3333 -59.5 -59.5 0 -59 -57.1667 -57.1667 -58 -58 0 -59 -59 -59 -58.5 -57.75 -57.8333 -57.8333 -56 -58.5 -91.5 -91.5 0 -57 0 -58.3333 -58 -45.6 -57 0 0 0 -66.5 -66.5 -57.3333 -45 -64 -62.5 -59.5128 -57.25 -57.25 0 0 -57.5 0 -60.9667 -59.6 -59.6 -57.95 -55.2389 -57.95 -60 -65.625 0 -45 -26 -83 0 -42 -42 0 0 0 -45 -47.5 0 -49 0 0 -41 -45 -45 -42 -42 -42 -42 0 0 -45 -47 0 -45.5 -45.5 0 -46 -46.5 -47 -47 0 -48 0 0 0 0 0 0 0 -48.3333 0 0 0 0 0 0 0 0 0 -55.5 -58 -58 0 -58.5 -58.5 -54 -56.5 -56.5 -56.5 -58.5 -58.5 -58.5 0 -67.5 0 -58.6667 -58.6667 -58.6667 -56.5 -60 -55.4 -57.75 -57.75 -54.4 -63 -60.7143 -61.8333 0 -59.3333 -59.3333 -59.1667 -60 -63.1667 -62.1667 -62.1667 -57.8095 -59.8333 -59.8333 0 -57.3333 -51.5 -63.5 -59.3333 -54.3333 -57.6667 -53.0667 -61.6 0 -63.5 -54.3333 0 -57.5 0 0 0 0 -59.75 0 -59.75 0 0 -57.6667 -45.75 -45.75 -55.8 -55.8 -40.7429 -74.5 -61.75 -40.0333 -40.0333 -40.0333 -46.65 -57.1714 -51.1111 0 -51.1111 -55 -45.5 -57.1714 -57.1714 -67.4091 -67.4091 -57.1714 -61.75 -61.75 0 -61.75 -74.5 -60.3333 -62
0 0 0 0 0 0 0 0 0 0 0 0 0 0 0 0 0 0 0 0 0 0 0 0 0 0 0 0 0 0 0 0 0 0 0 0 0 0 0 0 0 0 0 0 0 0 0 0 0 0 0 0 0 0 0 -51 -51 -50 -50 -51.6667 -52 -51 -51 -51 0 -50 -50.5 -50.5 -51 -51.5 -51.5 -52 -51 -52.2 -52.2 -51.5 -51.5 -51.5 -52 -51 0 0 -53 -52 -52.6667 -52.6667 -52.5 -51.5 -51.5 0 -52.5 -52.5 -52.5 0 -53 0 0 -54 -52 -52.5 -52.5 -53 -53 -53.5 -53.5 -54 0 0 0 0 0 0 0 0 0 0 0 0 0 0 0 0 0 0 0 0 0 0 -35.6363 0 0 0 0 0 0 0 0 0 -37.4 -37.4 -37.4 0 0 0 0 0 0 0 0 0 0 0 0 0 0 0 0 0 0 -60.75 -60.75 -12 -12 -10.9643 -9 -10.8571 -10.8571 -10.8571 -10.8571 -10.5 -8.5 -8.5 0 -8.33333 -8.5 -8.5 -8.5 -8.5 0 -8.2 -8.2 -8.2 -6 -7.33333 0 0 0 0 0 -8.66667 -8.66667 -8.66667 0 -8 -8 -8 -7.5 -7.5 0 -9.33333 -9.33333 0 0 -6.66667 -9.5 -9.5 0 -7.93333 0 -9 -9 -9 0 0 0 0 0 0 0 0 0 0 -11.1667 -11.1667 -9.75 0 0 0 -9 -11.5 -9 0 0 0 -16.5 0 -11.4667 -10.8333 -10.8333 -11.5 -11.5 -12.25 -12.6667 -20 -20 -20.25 -11.4667 -20.25 -18.5 -13.5 -13.5 -13 -15 -15 0 0 0 0 0 0 0 -18.5 -18.5 0 0 0 0 -19 -19.5 -19.5 -18 0 0 0 -21.8571 -21.8571 -21.8571 -24 0 0 -23 -23.8333 -23.8333 -23.5 0 -29 0 0 0 -27.5 -27.5 0 -28 0 0 0 0 0 0 0 0 -32 0 -33.6667 -33.6667 -33.6667 -34 0 -34.3333 -33 0 7.5 0 0 0 8 0 0 0 -45.6 -8.36667 -8.36667 -1 -30.25 0 0 0 -43 -39.6667 -34.5 -34.5 0 0 -28.3333 -39.6667 -32.9 -32.1667 -32.1667 -33 -33 0 -33 -32 -32 -32.5 -32.5 0 -30.5 -31 -31 -30.25 -31.5 -31.5 -31 0 -30 -30 -30 -30.25 -30.25 -30.25 -31 -30 -30 -30 -31.5 -31 0 -30 -30.5 -30.5 0 0 -31 -31 -31 -31 0 0 -31.5 0 -32 0 -32 0 0 0 -34.5 0 -32.5 0 -33 0 0 0 -31 0 0 0 0 0 -39 0 -39 0 0 0 0 0 -36 0 0 0 0 0 0 0 0 0 0 0 0 0 0 0 0 0 -1 0 -1 0 0 0 -56 -60 -69.6667 -69.6667 -69.6667 -58.6667 0 -59.6667 -59.6667 -59.6667 -60 -59.5 -59.5 -59 -59 -57.1667 -46.5 -46.5 0 0 -21.5 -21.5 0 -58.5 -58.5 -58 -55.8333 -55.8333 -56.5 -66.5 -56.5 -56.5 -57 -64.5 -59.1667 -57.5 -57.5 -57 0 -56 -58 -57.5 -53.2966 -55.2389 -66.7333 -66.7333 -64 -59.5128 -57.25 -57.25 -58.6667 -60.75 -60 0 -55.5714 -55.4 -55.4 -60.3333 -62.6667 -56.9091 0 -45 0 -33 -29.3333 -51 -51 0 0 0 -45 -45 0 0 -37.3333 -47.5 -46 0 -41 0 -42 0 -51 -42 0 0 0 0 0 0 0 0 -46.5 -46.5 -46.5 -46.5 0 0 0 0 0 0 0 0 0 -58 0 -56.5 -56.5 -56.5 0 -53 -54.6 -54.6 -55.9167 -55.9167 -55.5 -55.9714 -55.9714 -56.9 -56.9 -54 -54 0 0 -56.5 0 0 -57.75 0 0 -55.8333 -55.8333 -56.0833 -56.0833 -57.75 -56.0833 -53.5 -53.5 -68.25 -68.25 -54.4 -56.3333 -63 -58.5 0 -63.1667 -63.1667 -63.1667 -63.1667 -54.5 -54.5 -56 -56 -47.5 -57.5 0 -51.5 -51.5 -63.5 -57.0952 -57.0952 -57.5 -59.5 -59.5 -53.0667 -55 0 0 -51.5 -51.5 -54.6667 -52.5 -54.6667 -53.6667 -54 -55 -53 -53.5 -20.7 -20.7 -34.8333 -34.8333 -40.7429 -27.7143 -27.7143 -40.7429 -29.6333 -29.6333 -57.1714 -57.1714 -57.1714 -51.1111 -51.1111 0 -51.1111 0 0 0 -67.4091 -67.4091 0 -58.4286 0 0 -60.3333 -60.3333
0 0 0 0 0 0 0 0 0 0 0 0 0 0 0 0 0 0 0 0 0 0 0 0 0 0 0 0 0 0 0 0 0 0 0 0 0 0 0 0 0 0 0 0 0 0 0 0 0 0 0 0 0 0 -49.5 -50.5 -50.5 -50.5 -51.6667 -51.6667 -52 -51 -51 -51 -50.5 -50.5 -50.5 0 0 0 0 0 -52.2 -52.2 -52.2 -51.5 -51.3333 -51.3333 -52 0 0 0 -52.3333 0 -52.5 -52.5 -52 -51.5 -51.5 -52 -52 -52.5 -52.5 -53 -52 -52.5 -52.5 -52.5 -53 -53 -53 -53 -53 -53.6667 0 -53.5 0 0 0 -86.5 0 0 0 0 0 0 0 0 0 0 0 0 0 0 0 0 0 0 -35.6363 0 0 0 -35.6363 -53.75 -35.6363 -41.8847 -41.8847 -41.8847 0 0 0 0 0 -53.75 -53.75 0 0 0 0 0 0 0 0 0 0 0 0 0 0 -77.6667 0 -8.83333 -8.83333 -8.83333 -9 -10.9643 -10.9643 -10.8571 -10.8571 -10.5 -9.25 -9.25 -9.25 -8.33333 -8.33333 0 0 0 0 -7.4 -7.4 -7.4 -6 -6 0 0 0 -7 -7.5 -7.5 -7.5 -7.5 0 -8 -8 -8 0 0 0 0 0 -5 -9.33333 -5 -9.5 -9.5 0 0 0 -8.5 -8.5 -6.5 -6.5 0 -6 0 0 0 -8 0 0 0 -8 -11.5 -8 0 0 0 -9 -9.33333 -9 0 0 -19.5 -16.5 -9.61905 -5 -12.6667 -12.6667 -12.25 0 0 -9.8 -20 -20 -9.61905 -20 -20.25 0 0 0 0 -14.5 -15.5 0 0 0 0 0 0 0 0 0 0 0 0 -19 0 0 0 0 -19 -22 0 -21.8571 -21.8571 -21.8571 0 0 -23 0 0 0 -26.5 -26.5 -29 0 -26.5 -27.4 -27.4 -27.5 -28.1667 -28.1667 0 -28.5 0 0 0 0 0 -32 -32 0 -32.3333 -32.3333 -32.3333 -33.5 -33.5 0 -33 0 7.5 0 0 -37 0 -33.5 0 -6.26667 0.25 -8.36667 -8.36667 0 -30.25 -38.625 0 10.5 0 -38.625 -36.5 -36.5 -55.9286 0 -28.3333 0 -28.3333 -32.1667 -32.1667 -32.1667 -32.1667 -33 -33.5 -16.6667 -33 -32 0 -31 -31 -31 0 -29.5 -29.5 -29.5 -31 0 -30.5 0 0 0 -31.5 -31.5 -32 -31.5 -31.5 -31.5 0 -30 -29.5 -30 0 -31.5 -31.5 -31.3333 -31 -31 -31 0 0 0 -42 0 0 0 -33 -33 0 0 0 -32.5 0 -32.5 -32.5 0 0 -33 -34 -33.6 -33 -37 -37 -34 -33.5 -39 0 -38.1 -47.5 0 0 0 -36 0 0 0 0 0 0 0 0 0 6.5 0 0 0 0 0 0 0 0 -1 -58.5 -58 0 -58.25 -60.4 -60.4 -57 0 -60.25 -54.25 -54.25 -54.25 -60.1429 -60.1429 -60.1429 0 -86 -55.0476 -55.0476 -55.0476 -55.0476 -57 -56 -56 -56 -57 -57 -57.5 -57 -56.5 -55.8333 -69.9333 -53.6667 -56.5 -57.5 -56.5 -56.5 -54.8667 -54.8667 -58.2083 0 -53.3 -38 -38 -38 -56 -57.5 -55.2389 -55.2389 -55.2389 -59 -59.5128 -59.5128 -57.25 -57.25 -57.25 -57.25 -60.75 -60 -60 -59.6 -55.4 -55.4 -56.9091 -60 -62.6667 0 -48 -51 -51 -71 0 -47.5 0 0 -45 0 -46 0 0 0 0 0 -47.5 -42 -42 -42 0 0 0 -44 0 -42.5 -47 0 0 0 0 -46.5 0 0 -47 0 0 0 0 0 0 0 0 0 0 -56.5 -55.4 -55.4 -55.4 -55.4 -54.6 -54.6 -55.9167 -54 0 -55.9714 -55.9714 -55.9714 -56.9 -56.9 -55 -55.6667 -55.6667 0 0 -57.75 -66.5 -66.5 -56.6667 -57.3333 -59 -64.25 -64.25 0 0 -49 -64.5 -68.25 -57.75 -68.25 -48.8667 -56.8333 -56.8333 -54 -53.5 -54 -60.8333 -61 -52 -53.5 -53.0857 -53.0857 -47.5 -57.0952 -57.6667 -57.0952 -54.5 -54.5 -57.0952 -57.0952 -50.8333 -50.8333 -51 -51.5 -51.5 -53.3333 -54 -62 -52.5 -53 -52.5 -53.6667 -53.6667 -53 0 0 -28.25 -28.25 -20.7 -20.7 -40.7429 -27.7143 -27.7143 0 -29.6333 -29.6333 -29.6333 -67.4091 -67.4091 -67.4091 -67.4091 -57.1714 -51.1111 -51.1111 -67.4091 0 -58.3478 -58.3478 0 0 0 -66.5556 -66.5556 0
0 0 0 0 0 0 0 0 0 0 0 0 0 0 0 0 0 0 0 0 0 0 0 0 0 0 0 0 0 0 0 0 0 0 0 0 0 0 0 0 0 0 0 0 0 0 0 0 0 0 0 0 0 0 -49 -49.5 -49.5 -50 -50.5 -50.5 -51 -51 -51 -51 -50.5 -50.3333 -50.3333 -51 -51 0 0 -52 -52 -52 -52 -51.5 -51.3333 -51.1667 -51 0 -51.5 -51.5 -52 -52 -52.5 -52.5 -52.5 -52.5 -52.5 -52 -52 0 0 -53 0 -52.5 -52.5 -52.5 0 -52.5 -52.5 0 -53.6667 -53.6667 0 -10.8333 0 0 -5.33333 0 0 0 0 0 0 0 0 0 0 0 0 0 0 0 0 0 0 0 0 0 0 0 0 0 0 0 0 0 0 0 0 0 0 -53.75 -53.75 0 0 0 0 0 0 0 0 0 0 0 0 0 0 0 -14.3333 -11 -11 -12.5 -12.5 -12 -12 -9 -9 -9 -9.25 -10.2 -10.2 0 -8.5 -8.5 -8.5 -8.5 0 0 0 0 0 -6 -9.5 -9.5 0 0 0 -7.5 -7.5 -9 0 -7.5 0 0 0 -8.16667 0 -8 -8 -6.75 -6.75 -8.75 -8.75 -8.75 -7 0 -8.5 -8.5 0 0 -10 -7 -8.5 -8.5 -6.5 -5 -6.5 -7.33333 -7.33333 -7.33333 -8 -8 -7 0 0 0 0 0 0 0 0 -12 -11 -9.61905 -9.8 -9.8 -9.8 0 0 0 -16 0 0 0 0 -3.83333 0 0 0 -15 -15.5 0 0 -15.5 -15.5 -16.1667 -16.1667 0 0 0 -16.6 -19 0 0 0 0 -19.5 -19.5 -21.5 0 0 0 -21.8571 0 -22 -24 -24 0 0 -25.5 -25.5 -25.5 -25.5 0 0 0 -28 -28 -28.3333 -28.1667 -28.1667 -28.5 -29 0 0 0 0 0 -32 -31 0 0 0 0 0 -33 -33 0 0 0 0 0 0 0 -53 -6.26667 -6.26667 -9.33333 -9.3 -9.3 -42.5 -38.625 -38.625 0 -34.5 -38.625 -39.125 -53 -53 -61.3333 -39.6667 -39.6667 -39.6667 -45.8333 -45.8333 0 -35.875 -35.875 -46 -37.2857 -16.6667 -33.5 -32 -28 0 0 0 0 -37.5 -37.5 -29.5 -29.5 0 -30 0 -31.5 -31.5 -31.5 -32 -32 0 -19.4167 -19.4167 -18.3333 -45.25 -30.5 -30.5 -30 0 0 -32 0 -23.3333 -43.1667 -32 -42 -39.5 0 -40 -13.5 0 0 0 -22.5 0 -31.5 0 -30 0 -34.5 -37 -35.5 0 -34 -33.6 -37 -37 -42.3333 -36 -33.5 -40 -41.5 -50 -41 -55 0 0 -60 0 0 0 0 0 0 0 0 0 0 6.5 6.5 0 0 0 0 0 0 -52.6667 -52.6667 -58.5 -58.5 0 -57 -57 -69.6667 -69.6667 -54.8 -54.8 -54.8 -60.1429 -60.1429 -54.25 -60.1429 -56.8333 -56.8333 -57 -55.0476 -55.0476 -55.0476 -55.7667 -54.3333 -56 -55.2 0 -57.5 -57 -57.5 -69.9333 -69.9333 -69.9333 -53.6667 -54.8333 -54.8333 -54.8333 -56 -56 -56 -54.8667 -58.2083 -58.2083 0 -53.3 -53.3 -57.5298 -54.1714 -57.5298 -53.2966 -55.2389 -55.2389 -55.2389 -59.5128 -59.5128 -57.25 -57.25 -57.25 -57.25 -57.25 -57.25 -60.9667 -59.6 -59.6 0 0 -64 0 -47.5 -47.5 -68 -69 0 -46 -51 0 0 -50 0 0 0 -45 0 0 0 0 -42 -44.6667 0 0 0 0 0 0 0 0 0 -49 -45.5 -45.5 0 0 0 0 0 -52.7143 0 0 -53.1 -52 0 0 0 -51 -56.5 -55.4 -58 -51.6905 -51.6905 0 -54.6 0 -54 -52.5 0 0 0 0 -56.5 -55 -52.5 -52.5 -57.9 0 -59.75 -57.75 -57.75 -56.6667 0 0 -52.2 -53.1111 -53.1111 -51.1429 -59.1 0 -54.5556 -54.5556 -54.5556 -48.8667 -48.8667 -53.5 -53.5 -53.5 -59.4 -59.4 -61 -61 -51 -53.5 -53.0857 -53.0857 0 0 0 0 -52.1 -52.1 -54.9 -54.9 0 -51 -51 -51.5 -51.5 -54 0 0 -49.5 -49.5 -62.1429 -44.25 -57.9231 -57.9231 -57.9231 -28.25 -28.25 0 -28.25 -16.125 -16.125 -43.5 0 0 -67.4091 -67.4091 -67.4091 -67.4091 -67.4091 -67.4091 0 -57.1714 0 0 -58.3478 -58.3478 -58.3478 0 -66.5556 -66.5556 -59.6667 -59.6667
0 0 0 0 0 0 0 0 0 0 0 0 0 0 0 0 0 0 0 0 0 0 0 0 0 0 0 0 0 0 0 0 0 0 0 0 0 0 0 0 0 0 0 0 0 0 0 0 0 0 0 0 0 0 0 0 0 0 -50.5 -50.5 -51 -51 -50.5 -50.5 -50.5 -50.3333 -50.6667 0 0 0 0 0 -52 -52 -52 -51 -51.1667 -51.1667 -51 -51 0 0 -53 -52 -52.5 -52.5 -52.5 -52.5 -52.5 -53 -52 0 0 -52 0 -52 -52 -52 -52 -52.5 -52.5 -53 -52.5 -52.5 -53 -10.8333 0 0 -0.583333 0 0 0 0 0 0 0 0 0 0 0 0 0 0 0 0 0 0 0 0 0 0 0 0 0 0 0 0 0 0 0 0 0 -12 0 0 0 -41.8847 0 0 -53.75 0 0 0 0 0 0 0 0 0 0 0 -9.89286 -9.89286 -11 -11 -11 -11 -9 -9 -9.66667 -10.2 -10.2 -10.2 -9.2 -9 -9 -9 -8.33333 0 -7.83333 -7.83333 -8 -8 -8.5 -9.5 -9.5 -9.25 -8 -7.5 -8 -8 -8 -7 0 0 0 -8.16667 -8.16667 0 -7.33333 -7.33333 -5.75 -5.75 -8.75 -6.5 -6.5 -7 0 0 0 0 0 -7 0 0 0 -6.5 -7 -8 -6.5 0 0 0 -8 -7 0 0 -9 -10 -9 -10 -10 -10 0 -20.25 0 -9.8 -3.83333 -3.83333 -12.5 -11.5 0 -15.5 -15.5 -12 -15.75 -6.33333 0 0 0 -15.75 -14 0 0 0 -17.5 -17.5 -15 -16.1667 0 0 -16.6 -16.6 0 0 0 0 -20.5 -20.5 -21 -21 0 -21.25 -21.5 0 0 0 0 0 0 0 0 0 -26 -25 0 0 0 -27.4 -27.4 -13 -28 0 -28 -28 0 0 0 0 0 -32 0 0 -32.5 -32.5 -32.5 0 -32.6667 0 0 0 0 0 -36 -36 0 -42.5833 0 0 0 -28.8333 -28.8333 -33.5 0 -24 0 -30.25 0 0 0 -33 -45 -38.6667 -38.6667 -30 -30 0 0 -42 -42 -35.875 -35.875 -35.875 -35.875 -43 -28 -31.25 -31.25 -31.25 0 0 -24.3333 -20.8 -45.5 -30 0 0 -42 -42 -42 -11.3333 -11.3333 0 0 0 -22.3333 -4 -4 -31 -30 0 0 -31.5 0 -23.3333 -30.5 -32 -32 -19 -28 -18.5 -29.5 -29.5 -29.5 -32.5 -34 -35 -33.6667 -33.6667 0 0 -34 -34 0 0 -34 -33.6 -33.6 -33.6 -34 -33.3333 -39.5 -34 0 -49 -35.8333 -41.5 0 0 0 0 0 0 0 0 0 0 0 0 0 6.5 6.5 6.5 0 0 -51 -51.5 0 -51.5 -52.6667 -54 -65 0 0 -60.4 -69.6667 -54.5 -54.5 -54.5 -60.4 -54.8 -54.8 -64.75 -64.75 -64.75 -60.1429 -59.1667 -69.75 -69.75 -56.5 -55.7667 -55.7667 -54.3333 -55.2 -55.2 -55.6667 -55.5 -55.5 -54.5 -54.5 -54.5 -69.9333 0 -53.6667 -54.8667 -54.8333 -57.5 -56 -56 -56 -58.2083 -58.2083 -52.45 -57.6389 -57.6389 -57.5298 -57.5298 -54.1714 -57.5 -57.5 -55.2389 -55.2389 -55.2389 -55.2389 -55.2389 -55.2389 -59.5128 -59.5128 -59.5128 -57.25 -67.1 -60.9667 -59.6 -55.4 -53 -38.5 0 0 -68 -54.5 -53 0 -50 -48.5 -48.5 -50 0 -54.5 0 0 0 -50.5833 -50.5833 -60 -60 -50 -42 0 0 -43 0 0 0 -52.8333 0 0 -52.125 0 0 0 -51 0 0 -51.5 -52.7143 -52.7143 -52.7143 -53.1 -53.1 -52.7143 -59 0 0 0 -55.8333 -52.5 -52.5 -51.6905 0 -55.6667 -52.5 -52.5 -52.5 0 0 0 -55 -56.5 -50.5 -51.4167 -55.6667 -52.5 0 -55.5 -49.5 -48.75 -51.35 0 -51.35 -52.2 -53.1111 -53.1111 -53.1111 -51.1429 -54.5556 -52.1667 -52.1667 -54.5556 -59.1 -48.8667 -54.5556 -48.8667 -59.4 -59.4 -61.7 -61 -61 -61 -61 -53.0857 -62.1667 -57.0952 0 -51.8 -51.8 -50 -51.2 -48.6667 -54.9 -50 -49.9333 -50.3333 -49.6667 -49.6667 -49.6667 -49.6667 -61 -62.1429 -62.1429 -62.1429 -62.1429 -44.25 -57.9231 0 0 -28.25 -28.25 0 -43.5 0 0 0 0 0 0 0 -58.3478 0 0 0 0 0 0 0 -58.3478 -58.3478 0 -66.5556 -66.5556 -45.5
0 0 0 0 0 0 0 0 0 0 0 0 0 0 0 0 0 0 0 0 0 0 0 0 0 0 0 0 0 0 0 0 0 0 0 0 0 0 0 0 0 0 0 0 0 0 0 0 0 0 0 0 0 0 0 -50.3333 -50.3333 -50 -50.5 -50.5 -51 -51 -50 -50 -50 -50.6667 -50.6667 0 -51 -51.3333 -51.3333 0 -51.5 -51 -51 -51 -51.5 -51.5 -51 -51 0 -51.6667 -52 -52.5 -52.5 -52.5 -51 -51.5 -51.5 -52 -52 -51.5 -51.5 -52 0 -52 -52 -52 -52 -52.5 -52.5 -52 -52.5 -52.5 -53 -53 0 0 -54 -52 -52.5 -52.5 -4 -14.25 0 0 0 0 0 0 0 0 0 0 0 0 0 0 0 -12 -4.83333 -4.83333 0 0 0 0 0 0 0 0 0 0 0 0 0 0 -41.8847 0 0 0 -53.75 0 0 0 0 0 0 0 0 0 0 -9.89286 -9.89286 -9.89286 -9.89286 -11 -11 -7.66667 -9 -10.4 -8.5 -8.5 -10 -9.2 -9 -9 -12 -8 -6.66667 0 0 -8 -8.5 0 -9.25 -9.25 -9.25 -8 0 0 0 0 -8.5 -7 0 0 -7.33333 0 -7 -7.33333 -7.66667 -9.66667 -8.83333 -8.83333 0 0 -7 -7 0 0 0 -8.5 -7 -8.66667 -7.83333 -7.83333 0 0 0 0 -8.5 -8.5 -9 -6 0 0 -8.66667 -9.5 0 0 -16.4 -16.4 -16.4 0 -6.33333 -6.33333 -3.83333 -3.83333 -3.83333 -11.5 -11.5 0 -13.25 -13.25 -12 -17 -17.5 -27 -15.75 -15.75 -15.75 0 -17 -16 -16.6667 -16.6667 -16.6667 -16.5 -16.5 -15 -47 -16.6 -16.6 0 0 -16 0 0 0 0 0 -21 -21 -21 -21.5 -21.5 0 -22 0 0 0 0 0 -25 -25 0 0 -26.5 -27.4 -26.6667 -27 0 -28 0 -27 0 0 0 0 0 0 0 -30.5 0 0 0 0 -32.6667 0 -23.8333 7 -14.8333 -14.8333 -36 -26.6667 0 -37 -37 -16 0 0 0 0 0 -39 -30.25 -26 0 0 0 -53.6875 -32.75 -43 -38.6667 -12.3 -12.3 0 -37.5 -37.5 -28.8333 -43.8 -42 -42 -35.875 -16.6667 8.77778 -14.4 -14.4 -14.4 0 0 0 -22.75 -20.8 -20.8 0 0 -29 -31.5 -31.5 -11.3333 0 0 -30.5 0 0 -32 -31 -9.75 -30.5 -30.5 -22.5 -32 -31.5 -31.5 -29.5 0 -31.5 -31.5 -37 -35 0 -33 -33 -33 0 0 -33.6667 -33.6667 -33.6667 0 -48 -46.5 -34.5 0 0 -32.75 -35.1667 -35.1667 -34 -33.3333 -33.3333 0 0 0 0 0 0 0 0 0 0 0 0 0 0 0 0 0 0 -51 1.75 0 0 0 0 -51 -51.5 -51.5 -51.5 -56.9762 -51.4667 -54 -54 -54 -54.5 -57.5 -57.5 -55.5 -55.5 -53.2667 -54.8 -54.8 0 -64.75 -59.1667 -59.1667 -69.75 -59.1667 -69.75 -56.5 -55.7667 -55.7667 -55.7667 -54.3333 -55.2 -55.2 -55.6667 -55.5 -54.5 -54.425 -64.4596 -64.4596 -49.8 -76.75 -53 -53.2083 -65.8727 -53.965 -53.965 -42 -52.45 -53.965 -52.45 -52.45 -57.6389 -57.6389 -57.5298 -54.1714 -57.5 -57.5 -53.2966 -53.2966 -53.2966 -55.2389 -55.2389 -55.2389 -55.2389 -59.5128 -59.5128 -59.5128 -67.1 -67.1 0 -54.5 -37 -66.5 -63.6 -79.5 -77.5 -77.5 0 -56.5 -60.9667 0 0 0 0 -46.3333 -63.5 -57.95 -47.5 0 -48 0 -50 -55 0 0 0 -52.3333 -52 -52.5 -52.8333 -52.8333 0 0 -48.3333 -51 0 0 0 -51.5 0 -52 -52 -52.7143 -52.7143 -53.1 -53.1 -52 0 -55.8929 0 -55.8333 -55.8333 -55.8333 -52.5 -51.6905 -51.6905 -51.6905 0 -52.5 0 0 -55 0 -51.4167 -50.5 -50.5 -51.4167 -51.4167 -51.1429 -51.1429 -51.1667 -49.5 -48.75 -48.75 -51.35 -51.35 -57.6667 -52.2 -52.2 -45.3864 -53.1111 -51.1429 -48.6667 -52.1667 0 -59.1 -49.0417 -49.0417 -49.0417 -50.5 -50.5 -49.5 -48.5 -53 -52.4 -50.1 -50.1 -50.3333 -49 -51 -51 -51.8 -51.8 -51.2 -51.2 -48.6667 -50 -49.9333 -50.3333 -49.9333 -50.3333 -49.6667 -49.6667 -62.1429 -62.1429 -48.6667 -55.5 -54.875 -54.875 -58 -55.1429 0 -57.9231 -57.9231 -67.4091 -67.4091 0 -58.3478 -58.3478 -58.3478 -58.3478 -58.3478 -58.3478 -27.7143 -27.7143 0 0 0 0 0 -65 -58.3478 -58.3478 -58.3478 -49 -42.3
0 0 0 0 0 0 0 0 0 0 0 0 0 0 0 0 0 0 0 0 0 0 0 0 0 0 0 0 0 0 0 0 0 0 0 0 0 0 0 0 0 0 0 0 0 0 0 0 0 0 0 0 0 0 0 -50.3333 -50.1667 -50 -50.5 -50.5 -50.5 0 -50.5 -50.5 -50.5 -50.5 -50.5 0 -51 -51.3333 -50.6667 0 -51 -51 -51 -51 -51.5 -51.5 -51.5 -51 -51.6667 -51.6667 -52 0 0 0 -52 -51 -51 0 -52 -51.5 -51.5 -52 -52 -52 -52 0 0 0 -52.5 -52 -52.5 -52.5 -52 -52 -53.5 -53.5 -54 -52 -65.4 -65.4 -56.3333 -14.25 0 0 0 0 0 0 0 0 0 0 0 0 0 0 0 0 0 0 1 0 0 0 0 0 0 0 0 -46.5 -38.9048 -37.4 -37.4 0 0 0 0 0 0 0 0 0 0 0 0 0 0 0 13.1333 13.1333 -9.89286 0 0 -5.75 -5.75 -7.66667 -8.5 -7.66667 -6.85 -6.85 -6.85 -9.2 -9 -9 -9.2 -6.66667 -6.66667 0 0 0 0 -8.5 -8.5 -8.5 -8.5 -8 0 -7.33333 -7.33333 -9 0 0 0 0 -7.5 -7.5 -8 -7.66667 -7.66667 -7.5 -7.5 -9.66667 -9.66667 -9.66667 0 -6.33333 -6 0 0 0 -8.66667 -8.66667 -8.5 -8.5 0 -8 0 0 -9.66667 -9.66667 0 -8 -9.5 -8.66667 -8.66667 0 0 0 -18.5 0 0 0 -8.66667 0 -12 -12 -13.25 -11.5 -12.1 0 0 0 -14 0 0 0 0 0 0 0 0 0 0 0 0 -16 0 0 0 -18.5 -18.5 0 0 0 -18.5 -17.5 -17.5 -20.8333 -20.8333 -21 -20.5 -20.5 -21.5 -21.5 -22 -22 0 0 0 0 0 -24 -26 -25 0 -26.5 -26.6667 -26.6667 -27 -27.5 -27.5 0 0 0 0 0 0 0 -31 -31 -30.5 0 0 0 0 0 -33.5 0 -17.3333 0 0 -26.5 -26.6667 0 0 -37 -23.3333 -37.5 -37.5 0 0 0 -39 0 -26 -40 -22 -22 0 0 -19 -1.66667 -11 0 -49.5357 -10.25 -10.25 -26.8611 -27.5 -27.5 -27.5 -37 -41.1 -30 -28.5 -21.1667 -21.1667 -9 4 0 -29 -22.75 -22.75 -30 0 0 -31 -31 0 0 -31.5 -30.5 -31.4 -19.8 -32.1667 -30.5 -24.8 -31.5 -31.5 0 0 0 0 -29.5 -36 -35 -34.75 -32 0 -33 0 0 0 -34 -34 -33.6667 0 -34.5 0 0 -33 0 -32.25 -32.5 -32.75 -32.75 -32.75 0 0 -34 -33.3333 0 0 0 0 0 0 0 0 0 0 0 0 0 0 0 0 0 -46 0 0 0 -51.5 0 0 -52.6 -50.9444 -51.5 -50.1333 -56.9762 -51.4667 -51.4667 -54 -58.6667 -54 -50.9697 -58.6667 -55.5 -55.5 -53.2667 -53.2667 -54.8 0 -64.75 -64.75 -59.1667 -63 -57.5536 -61.75 -68.6667 -50.7009 -50.7009 -56.5652 -56.5652 -50.4126 -50.4126 -54.425 -54.425 -54.425 -54.425 -64.4596 -64.4596 -64.4596 -76.75 -53 -53.2083 -53.2083 -65.8727 -53.965 -53.965 -53.965 -53.965 -52.45 -52.45 -57.6389 -57.6389 -57.5298 -57.5298 -57.5298 -57.5298 -53.2966 -53.2966 -57.5 -53.2966 -53.2966 -55.2389 -66.7333 -66.7333 -66.7333 -52.9167 -52.9167 -52.9167 -57 -54.5 -53.5 -54.7 -54.7 -74 -78.0667 -48.5 0 0 -63.5 -56.5 -69.3333 -46.3333 -60 0 -53.3333 0 0 0 0 -48 -50.5 -50.5 0 0 -50.2 -50.2 -50.2 -52.5 0 0 -51 -48.3333 -48.3333 0 0 0 -49.5286 -49.5286 0 0 -49.5286 -49.5286 0 -52.381 -52.875 -52 -55.8929 -55.8929 -55.8929 -55.8333 -57.25 -55.8333 -52.5 -52.5 -51.6905 -51.7 0 -51.5 -48.75 -51.1429 -51.1429 0 -51.4167 -51.4167 -50.5 -51.4167 -51.4167 -51.1429 -51.1429 -51.1667 -49.5 -50 -43.25 -42.9048 -39.7619 -45.3864 -45.3864 0 -45.3864 -47.8333 -47.8333 -47.8333 -63 -47.8333 -49.25 -49.0417 -51 -49.0417 -50.5 -50.5 -49.5 -48.5 -48.5 -50.1 -50.1 -50.3333 -50.3333 -49 -51 -51 -51.8 -48.6667 -51.2 -63.5 -48.6667 0 0 -50 0 -57.9231 0 -74 0 -55.5 0 -54.875 -44.25 -44.25 -57.9231 -51.5 0 0 -57.9231 -57.9231 -57.9231 0 0 -58.3478 -58.3478 -58.3478 0 -54.6 -54.6 -47.1667 -40 0 0 -60.5 -60.5 -66.5556 -45.5 -42.3 -43.6667 -42.3
0 0 0 0 0 0 0 0 0 0 0 0 0 0 0 0 0 0 0 0 0 0 0 0 0 0 0 0 0 0 0 0 0 0 0 0 0 0 0 0 0 0 0 0 0 0 0 0 0 0 0 0 0 0 0 -50.1667 -50.1667 -50 -50.5 -50.5 -50.5 -50 0 0 -51 -50.5 -50.5 -50 -50.3333 -50.6667 -50.6667 0 -51.5 -51.5 -50 -50 -50.5 -50.5 -51 -51 -51.5 -51.5 -51.5 0 0 -51 -51 -51 -51 -51 0 -52 -52 -52 0 0 0 0 -51.5 -51.5 0 -52.3333 0 0 -53 -53 -45.1 -45.1 0 -57.6591 -65.4 -65.4 -53 0 0 0 0 0 0 0 0 0 0 0 0 -39.3333 0 0 0 -27.3 -46.5 -46.5 0 0 0 0 0 0 0 -35.6363 -35.6363 0 0 0 0 -35.6363 0 -35.6363 -35.6363 -35.6363 0 0 0 0 0 0 0 0 0 0 0 0 -88 0 0 -5.66667 -5.66667 -5.75 -8.5 -5.75 -6.9 -6.9 -6.85 -6.85 -8.5 -8.5 -9.2 -5.73214 -5.73214 -5.73214 -5.73214 -5.5 -7.75 -7.75 -8 -8 -8 -8 -7.5 -7.33333 -7.8 -7.8 -8.5 -7.83333 -7.83333 -8 -8.16667 -8.16667 -8 -7.5 -7.5 -7.5 -7.5 0 -9.66667 -9.66667 -7 -6.33333 -9.33333 0 0 0 0 -8.5 -8.5 -8.5 -9 -9 -10 -10 -10 -9.66667 -10 0 0 -7.5 -7.5 0 0 -9 -10.25 0 0 0 0 -17 -12 -12 -13.25 -12.1 -12.1 0 -16.5 -16.5 -18 -18 0 0 0 0 -17 0 0 -17.5 -15.3333 -15.3333 0 0 0 0 0 -18 -18 -18 0 0 0 0 0 -20.8333 -20.5 -20.5 0 -20.5 0 0 -22 -22 -22 0 0 0 0 -24 -24 0 0 -25 0 0 -27 0 0 -28 0 -30.5 -30.5 -31 0 -30 0 -31 -30.5 0 0 0 0 -12 -23.9722 -33 -17.3333 -15.35 -15.35 0 0 0 0 -37 -37 0 0 0 0 0 -39.5 -40 -39.5 -40 0 0 -42.5 -24.8333 -19.0833 -19.0833 0 -34 0 -37.5333 -37.5333 -26.8611 -42.7333 -27.5 -42.7333 0 -29.3333 -8.44444 -30.3333 -30.3333 -30.3333 0 0 -31 -19.3333 -19.3333 -37.1667 -29.5 -29.5 -24.5 -24.5 0 -20 -23 -32 -28.25 -34 -33 -31 -31 -33.5 -31.5 -31.5 0 0 0 0 0 -36 -39 -32 -31.5 -32 0 0 0 -33.5 0 0 0 0 -34 0 0 0 0 -32.25 0 -33 -33 -33 0 0 -32.5 0 0 0 0 0 0 0 0 0 0 0 0 0 0 0 0 0 0 0 -49 -51.5 -51.5 -51.5 -51 -50.9444 -52.6 0 -50.9444 -50.1333 -50.1333 -56.9762 -51.4667 -63 -54 -54 -50.9697 -50.9697 -58.6667 -55.5 -55.5 -53.2667 -53.2667 -54.8 -52.2679 -35 -58.5 -63 -57.5536 -57.5536 -56.5652 -50.7009 -50.7009 -50.7009 -56.5652 -56.5652 -50.4126 -50.4126 -50.4126 -50.4126 -58.9714 -54.425 -64.4596 -64.4596 -64.4596 -49.8 -53.2083 -46 -53.2083 -65.8727 -53.965 -53.965 -53.965 -57.6389 -52.45 -52.45 -57.6389 -57.6389 -57.6389 -57.6389 -57.5298 -57.5298 -54.1714 -57.5298 -54.1714 -53.2966 -53.2966 -54 -55.2389 -53.5 -53.5 -52 -52.9167 -54.5 -54.5 -54.5 -53.5 -54.7 -54.7 -55 -58.3333 -52 -52 -53 -53 0 -46.3333 -52 -52 0 -53.3333 -53.3333 0 0 0 0 0 0 -50.5833 -52 -50.2 -50.2 -50 -52.5 0 0 0 -51 0 0 -49.5 0 0 -49 -49.5286 -54.1667 -49.5286 -49.5286 -52.381 -52.381 -52.875 -52.875 -52.875 -52.875 -52.85 -52.1429 -52.1429 -50.8333 -59.3 -59.3 -51.7 -51.7 -52.5 -51.1429 -43.25 -48.75 -46.75 -48.75 -51.4167 -50.5 -50.5 -51.4167 -51.4167 -51.4167 -51.1667 -51.1667 -51.1667 -50 -50 -51.1667 -45.3864 -39.7619 -45.3864 -72 -72 -45.3864 -45.3864 -47.8333 -47.8333 -47.8333 -48.6667 -49.25 -49.0417 -49.0417 -50.5 -50.5 -49.5 -49.5 -48.5 -50.1 -48.5 -53.1429 -53.1429 -49.3333 -49.8333 -46 -49.8333 0 -74 -51.2 -58.5 -48.6667 0 0 0 0 0 0 -44.746 -48.5 -44.746 -40.9167 0 -51.5 -54.875 0 -54.875 -54.875 -57.9231 -55.1429 -57.9231 0 -58.3478 -58.3478 -58.3478 -54.6 0 -54.6 -27.7143 -27.7143 -47.1667 -40 -29.6333 -44 -46.1667 -45.5 -45.5 -46.1667 -42.3
0 0 0 0 0 0 0 0 0 0 0 0 0 0 0 0 0 0 0 0 0 0 0 0 0 0 0 0 0 0 0 0 0 0 0 0 0 0 0 0 0 0 0 0 0 0 0 0 0 0 0 0 0 0 0 -50 -50 -50 -50.5 -50.5 -51 -51 -50 -50 0 -50.5 -50.5 0 -50 -50.5 -50.5 -51 -51.5 -51.5 -51.5 -51 -50.5 -50.5 -51 -51 -51.5 -51.5 -52 -52.5 -52.5 -51 -51 -51.5 -51.5 -52 -51 -51.5 -51.5 -52 -51.5 -51.5 -51.5 -52 -51.5 -51.5 -52 -52 -52.5 -52.5 -52 -52 -52 -52 0 -52 -80.25 -80.25 -53 0 -20 -20 0 0 0 0 0 0 0 0 0 -39.3333 0 0 0 0 0 0 0 0 0 0 0 0 0 -35.6363 -35.6363 -39.3333 0 0 0 0 0 -35.6363 -35.6363 -37.4 0 0 0 -37.4 0 0 0 0 0 0 0 0 0 0 0 -5.66667 -12.3333 -12.3333 -8 -5.66667 -5.66667 -8.5 -6.9 -6.9 -6.9 -6.9 -5.73214 -5.73214 -5.73214 -6.08333 -6.08333 0 -5.5 -7 -6.75 -6.75 -6.75 -7.33333 -7.8 -7.8 -7.8 0 -8.8 -8.5 -8.5 -8.5 0 -8.66667 -7.5 -7.5 -8 -7.5 -7.9 0 -10.5 -10.5 -6 -9 -7.66667 0 0 0 -8 -8 -8.5 -8.5 -9 -8.56667 0 -10.5 -10.5 -10 -12.3333 0 0 -8.5 -8.5 -12.5 0 -9 -10.25 -10.25 0 -17.5 0 -8.5 -8.5 -8.5 0 -12.1 -12.1 0 -14 -14 -18 -18 0 -16 0 0 -17 0 0 -17.5 -15.3333 0 0 0 0 0 0 0 0 -20 -19 -19 0 0 0 0 0 0 0 0 -21 -21 -21 0 -22 -24 -24.5 -24.5 0 0 -25 -24 -24 0 0 0 0 0 0 0 0 0 0 0 -30 0 5.66667 0 -30.5 -30.5 0 0.666667 2.25 0 -25.4 -36 0 0 -15.35 -35.8333 -35.8333 -36 0 -37 -37 -37 -37 0 0 0 -39.5 -39 -39 -18.5 -18.5 -40.3333 -38 -40.6667 0 0 -41.6667 -33.5 -33.8 -30.3333 -30.3333 0 -42.7333 0 -39.125 0 -40.75 -16.4828 -21.1667 -21.1667 -30 0 0 0 -19.3333 -29.6667 0 -29 -29 -30 -30 0 -37 0 -34 -32 -34 -33 -30.5 -30.5 -31.5 -31.5 -34.5 -32 0 -31 -31 -35.3333 -32 -32 -49 0 0 0 0 0 -34 0 -34 -34 -34 -34 -34 0 0 0 -32 0 0 -36.5 -36.5 -37 -32.5 -35.8333 0 0 0 0 0 0 0 0 0 0 0 0 0 0 0 0 0 0 0 0 0 -50.1333 -51 -50.1333 -50.1333 -50.9444 -50.9444 0 -52.6 -50.9444 -50.1333 -50.1333 -54.5 -54.5 -50.5 -50.9697 -50.9697 -47.2424 -58.6667 -58.6667 -53.55 -49.6636 -49.6636 -52.2679 -52.2679 -52.2679 -58.5 -57.5536 -58.9714 -50.4126 -50.4126 0 -56.5652 -56.5652 -56.5652 -56.5652 -56.5652 -56.5652 -50.4126 -50.4126 -50.4126 -58.9714 -64.4596 -64.4596 -64.4596 -64.4596 -65.8727 -65.8727 -53.2083 -65.8727 -65.8727 -65.8727 -65.8727 -65.8727 -65.8727 -53.965 -53.965 -52.45 -57.6389 -57.5298 -57.5298 -57.5298 -62.1667 -50 -50 -50.5 -52.5 -52.5 -54 -53 -53.5 -50.8333 -51.6667 -51.6667 -51.6667 -54.5 -51 -54.7 -54.7 -51.5 -51 -52 -52 -52.75 -53 0 -52 -51.3333 -51.3333 -51.5 -50.5 -50.5 -51.6667 -51.6667 -47.5 -45.6667 -51.5 -51.5 -51.5 0 0 -49 -50.5 -51.3333 -51.3333 -51.3333 0 0 0 0 -52.875 -52.875 -52.381 -49.5286 -49.5286 -49.5286 -49.5286 -49.5286 -49.5286 -52.381 -52.381 -48.0333 -52.125 -52.125 -52.125 -52.85 -52.1429 -52.1429 -60.1667 -59.3 -51.7 -48.75 -42.9048 -46.6 -46.6 -46.75 -46.75 -46.75 -49.1111 -46.75 -49.1111 -47.8 -49.1111 -49.1111 -51.1667 -49.1111 -49.1111 -51.1667 -50 -42.9048 -42.9048 -39.7619 -39.7619 -48.5 -49 -45.3864 -45.3864 -45.3864 -47.8333 -47.8333 -48.6667 -49.25 -49.25 -49.0417 -49.8 -50 -48.6667 -50 -50 -50 -50 -53.1429 -53.1429 -53.1429 -49.8333 -49.8333 -49.8333 -49.8333 -46.5 0 0 -50.3333 0 0 -61.25 -55.3333 0 0 0 -40.9167 -40.9167 -40.9167 -51.5 -40.9167 0 -54.875 -54.875 -49.3636 0 -54.6667 0 0 -60.5 0 -49 -28.25 -16.125 3.53333 -27.5 -35 -27.7143 -24.75 -40.6667 -37 -32.5 -45.5 -37.7857 -37.7857
0 0 0 0 0 0 0 0 0 0 0 0 0 0 0 0 0 0 0 0 0 0 0 0 0 0 0 0 0 0 0 0 0 0 0 0 0 0 0 0 0 0 0 0 0 0 0 0 0 0 0 0 0 0 -49 -49.5 -49.5 -50 -50.5 -50.5 -51 -51 -50 -50 -49 -49.5 -49.5 -50 -50 -50.5 -50.5 -51 -51.5 -51.5 -51.5 -51 -50.5 -50.5 -50.5 -50 -50.5 -50.5 -50.5 -52.5 -52.5 -51 -51 -51.5 -51.5 -89 0 -52.5 -52.5 -52 -51.5 -51.5 -51.5 -51 0 0 -52 -52 -52.5 -52.5 -53 -52 -52 -52 -52 -52 -52 -52 -79 0 -20 -35.6 -35.6 0 0 0 0 0 0 0 0 0 0 0 0 0 0 0 0 0 0 0 0 -53.75 0 -35.6363 -35.6363 0 0 0 0 0 0 0 0 0 -37.4 -12 -12 -37.4 0 0 0 0 0 0 0 0 0 -76.6667 -3 -12.3333 -12.3333 -12.3333 -9.41667 -9.41667 -9.41667 -5.66667 -8.5 -9 0 0 -6 -8.75 -5.73214 -6.08333 -8.66667 -6 -6 -5.5 0 0 -6.75 -6 0 0 0 0 -8.8 -8.8 -8.8 -6.5 -7.33333 -7.33333 0 0 0 -7.9 -7.9 -7.9 -7.9 -9 -6 -8.5 -9.33333 0 0 0 -7.5 -7.5 0 0 -8 -8.56667 -8.56667 -8.5 -8.5 0 0 0 -9.6 -12.3333 -12.3333 -10.3333 -11 -9 -10.25 0 0 0 0 -18 -14 -14 -12 -13 -13 -16 -14 -13.8095 -17.5 0 0 0 -16.5 -16.5 0 0 0 -17.5 0 0 -17.25 -17.25 -17.25 0 -15 -15 -15 -21 -19.3333 -18 -17 0 0 0 -19.3 -18.5 0 -21.5 -21.5 -23 -23 0 0 -24 -24.5 -24.5 0 -25 -25 0 0 0 0 0 -29 -29 0 0 0 0 0 -24.2 -42 0 0 -30.75 -30.75 -30.75 0 0 -23.4167 0 0 -24 0 0 -37 -35.8333 -36.5 0 0 -35.8333 -35.8333 0 0 0 0 0 0 -39 0 0 0 -38.3333 -38.3333 0 -22 -33.6667 -40.1667 -33.8 -33.8 -33.8 0 0 0 0 0 -39.125 -51 -35.75 -30 -30 -31 0 0 -30.3333 -29.6667 -29.6667 -29 -29 0 -34 -34 -34 0 0 0 -32.5 -40 -33 -31.3333 -31.3333 0 0 0 0 0 0 0 0 0 -32 -32 -32 -32 -32.5 -32.5 -33.5 -33.5 -33 -35 -34 -34 -34 0 0 0 0 0 -32 -32 -32 -39 0 0 -35.8333 0 0 0 0 0 0 0 0 0 0 0 0 0 0 0 0 0 0 -54 -51.4667 -51.4667 -56.9762 -53.75 -56.9762 -50.1333 -50.1333 -47.9808 -52.6 -52.6 -50.6667 -49.8273 -49.8273 -49.8273 -49.8273 -53.1111 -49.8273 -49.8273 -47.6667 -52.75 -58.6667 -49.6636 -49.6636 -49.6636 -61.75 -52.2679 -52.2679 -52.2679 -58.5 -58.9714 -72.5 -50.4126 -50.4126 -50.4126 -50.4126 -56.5652 -50.7009 -56.5652 -56.5652 -50.4126 -56.5652 -50.4126 -50.4126 -50.4126 -54.425 -64.4596 -64.4596 -64.4596 -49.8 -49.8 -57.5 -57.5 -66.75 -53 -53 -67 -54.6667 -54.6667 -54.6667 -57.5 -51.4 -51 -63.0351 -63.8 -83 -50 -50 0 -50.5 -50.5 -50.5 -51 -51 -50.8333 -51.6667 -50 -50 -50.6 -50.5 -51 -51 -51.5 -51 -51 -51 -59.3333 -51.8 -51.8 -51.8 -52 -51.3333 -51.5 0 -50.5 -51.6667 -46.6667 -47.5 -53 -53.5 -53.5 -50.1667 -50.1667 0 -49 -50.5 -50.5 -51.3333 -51.3333 0 0 0 -52.875 0 0 0 -52.381 -49.5286 -54.1667 -54.1667 -48.6667 -48.6667 -48.0333 -48.6667 -48.0333 -48.0333 -52.125 -52.125 -52.85 -52.1429 -52.1429 -50.8333 -50.8333 -39.7619 -46.6 -39.7619 -42.9048 -42.9048 -43.25 -48.75 -46.75 -46.75 -46.75 -49.1111 -47.8 -47.8 -49.1111 -47.8 -49.1111 -48.2 -48.2 -50 -43.25 -42.9048 -47.7 -47.7 -49.8333 -48.6667 -48.6667 -50.4 -50.4 -48 -48 -48 -48 -50 -50 -50 -49.8 -48.6667 -49.8 -49.8 -48.6667 -50 -50 -53.1429 -49.3333 -53.1429 -46 -49.8333 -49.8333 0 0 0 0 0 0 -74 -73.5 0 0 0 0 -54.6667 -60.5 -55.5333 0 -44 -54.875 -44.746 -55.5333 -55.5333 -44.746 -54.875 0 -43.5 -43.5 -11 3 3.53333 3.53333 -22.5 0 0 -24.75 -40.6667 -40.6667 -40.6667 -44.6667 -44.6667
0 0 0 0 0 0 0 0 0 0 0 0 0 0 0 0 0 0 0 0 0 0 0 0 0 0 0 0 0 0 0 0 0 0 0 0 0 0 0 0 0 0 0 0 0 0 0 0 0 0 0 0 0 0 -49 -49 -49 -49 0 0 -51 -50 -50 -50 -50 -49.8333 -49.8333 -50 -50 -50.5 -50.5 -51 -49.5 -49.5 -50 -50 -50.5 -50.5 -50.3333 -50.3333 -51.5 -51.5 -50.5 -50.5 -50.5 -51 0 -51.5 -51.5 -89 0 -51.5 -51.5 -50.5 -50 -50.5 -50.5 -51.3333 -51.5 -51.5 -52 -52 -52.5 -52.5 -53 -53 -51.5 -51.5 -52 -52.3333 -52.25 -52.25 -52.25 0 -35.6 -35.6 -35.6 0 0 0 0 0 0 0 0 0 0 0 0 0 0 0 0 0 0 0 0 0 0 0 0 0 0 0 0 0 0 0 0 0 -35.6363 0 0 0 0 0 0 0 0 0 0 0 0 -76.6667 0 -10.9615 -10.9615 -12.3333 -9.41667 0 0 -10 -10 -9.5 -9.5 -9.5 0 0 0 -8.66667 -8.66667 0 0 -4.5 -4.5 0 0 -6.5 -6 -6 -6 0 0 -8.8 -6.66667 -6.5 -7.33333 0 -8.5 -8.5 -8.5 -7.5 0 0 0 -9 -6 -6 -6 -6.25 -6.25 0 -7 0 -4.8 -4.8 -8.25 -8.25 -8.56667 0 0 0 -8.5 -8.5 0 -12 -12 -8 -10.6667 0 0 0 -12 -18 0 -17.5 -13.8095 -13.8095 -13 -12.5 -12.5 -13 -13.8095 -13.8095 -15.1667 0 0 0 -17 -17 -17 -17 -17.5 -18.5 -18.5 -18.5 -17.25 -19.8333 -19.8333 0 0 0 0 -21.5 -19.3333 -19.3333 -17 0 0 -19.3 -19.3 -19.3 -18.5 -21.5 -21.5 0 0 0 0 0 -24.5 -24.5 0 0 -26 0 0 0 0 0 0 0 -28 0 -4 -30.5 -30.5 -7 0 -16.5 -16.5 -30.75 -27.5 -27.5 0 0 0 0 -34.5 -34.5 0 0 0 0 -36 0 0 -35.8333 0 0 0 -38.5 0 0 -40 -39 0 -45 -45 -38.3333 0 0 0 -42.3333 -40.8333 0 -37.5333 -37.5333 -37.5333 -40.1667 0 0 -42.3333 -31 -37 -31.5 -29.5 -29.5 0 0 0 -30.5 -30 -31.5 0 -30 0 0 0 -32 -32 0 0 0 0 -31.3333 -31.3333 0 -32.5 -32.5 0 -32 -33 -33 -32 -32 0 -32 0 0 -33 -33 -33 -33 -33 -33 -35 0 -34 0 0 0 0 0 -31.75 -31.75 -31.75 -39 0 -39 0 0 0 0 0 0 0 0 0 0 0 0 0 0 0 0 0 0 0 0 0 -58.6667 -54 0 -53.1111 -56.9762 -53.1111 -49.8273 -49.8273 -47.9808 -50.6667 -50.6667 0 0 -47.9808 -49.8273 -49.8273 -49.8273 -49.8273 -53.1111 -49.5333 -62.75 -62.75 -48.5 -58.85 -58.85 -51.1569 -51.1569 -51.1569 -51.1569 -52.2679 -52.2679 -50.4126 -50.4126 -57.5536 -57.5536 -57.5536 -56.5652 -56.5652 -56.5652 -50.7009 -50.7009 -56.5652 -47.875 -47.875 -47.875 -58.9714 -58.9714 -54.425 -70.2 -70.2 -45.7 -45.7 -45.7 -49 -49.5 -49.5 -82.2857 -67 -50.5 -50.5 -50.5 -42.1667 -63.8 -63.8 -63.8 -83 -75.6667 -50 -50 -49 -50.5 -50.5 0 -51 -49 -49 -50 -50 -50.6 -50.6 -50.5 -51 -50 -50 -78.0667 -75.3333 -59.3333 -59.3333 -51.8 -56.3333 -51.8 -56.5 -56.5 0 -49 -49 -37.6667 -47.5 -47.5 -47.5 -47.5 -50.1667 0 -52.125 0 -49 -50.5 -51.3333 0 0 0 -48.8333 -48.8333 -48.3333 -48.3333 -48.3333 -48.0333 -48.6667 -50.5 -50.5 -48.6667 -48.6667 -43.0667 -48.6667 -48.0333 -46 -52.125 -52.125 -52.85 -44.1667 -44.1667 -52.1429 -52 -39.7619 -45 -57.25 -57.25 -46.6 -48.5 -48.75 -48.75 -46.75 -46.75 -50 -47.8 -59 0 0 -48.5 0 -48.2 -49.8333 -49.5 -49.6429 -49.6429 -47.7 -47.7 -49.6429 -49.8333 -49.8333 -48.6667 -50.4 -50.4 -48 -48 -51.5 -51.5 -50 -49.8 -53.2917 -53 0 -54.5 -54.1111 -50 -55.5 -55.65 -57 0 -50.05 -64 -60 -61.25 0 0 0 -73.5 -55 0 0 0 0 0 0 0 -43.5 -44.746 -39.75 -55.5333 0 -54.5 -44.746 -44.746 -43.5 -43.5 -43.5 -43.5 -43.5 -43.5 3.53333 3.53333 -22.5 0 -24.75 -24.75 -40.6667 -28.5 -40.6667 -44.6667
0 0 0 0 0 0 0 0 0 0 0 0 0 0 0 0 0 0 0 0 0 0 0 0 0 0 0 0 0 0 0 0 0 0 0 0 0 0 0 0 0 0 0 0 0 0 0 0 0 0 0 0 0 -48 -48 -48.5 -48.5 -49 -50 -50 -50 -50 0 0 -50 -49.8333 -49.6667 -50 -49 -49.5 -49.5 -49.6667 0 0 -51 -50 -50.5 -50.5 -50.3333 -50 -50.3333 -50.3333 -49 0 0 0 0 -50.5 -50.5 -51 -51 -51.5 -51.5 -51 0 0 -51 -51 -51.5 -51.5 -52 -51 0 0 -53 -53 -50.8333 -50.8333 0 0 -52.3333 -52.3333 -52.25 0 -47.125 -47.125 -47.125 0 0 -51.6667 0 0 0 0 0 0 0 0 0 0 0 0 0 0 0 0 0 0 0 0 0 0 -4.83333 0 0 0 0 0 0 0 0 0 0 0 0 0 0 0 0 0 0 0 0 0 -84 -13 -13 -13 0 0 -6.83333 0 0 -13 -9.5 -9.5 -9 -7.5 -7.5 0 0 0 0 0 0 0 -5.66667 -6 -5.66667 -5.66667 0 0 0 -6.66667 -6.66667 -7.5 -8 -8 -8.5 -8.5 -8.5 -6.7 -6.7 0 0 -6 -6 -6 -6.33333 -6.33333 0 -6.25 -7 0 -4.8 -4.8 -4.8 -8.56667 0 0 0 -9 -9 0 0 -9 -9 0 -9 0 0 0 -12 0 -13.1667 -13.1667 -13.8095 -13.8095 -12.75 -13.5 -13.5 -13.5 0 0 -15.1667 0 -28 0 0 0 -17.5 0 0 0 0 0 0 -19.8333 0 0 0 0 0 -20.5 -21.5 0 0 0 0 -19.3 0 0 0 0 0 0 0 0 0 -24 -24.5 -24.5 0 0 -24.6667 0 0 0 0 -2.5 -29.1667 -29.1667 -32 0 -10.6667 -10.6667 -31 -31 0 -22.6667 -22.9167 0 0 0 0 0 0 0 -34 0 -35.5 -35.5 -37 0 -37.3333 0 -36.6667 -36.6667 0 -37.6667 0 0 0 0 -21 -38.5 -40 -41.6667 -41.6667 -38 0 -41.3333 -41 -41 -40.8333 -40.8333 0 0 -39.125 -34.75 -41 -41 -42.3333 -30.5 -33 -35.5 -24.8333 -24.8333 0 0 0 0 -31.5 0 0 0 -34.5 -34.5 0 -42 -42 -30 -30 -29 -32 0 -31.3333 -31.5 -31.5 -31.5 -31.5 0 0 -35 -33 -34 -33 -33 0 -29.5 -36 -36 -36 0 0 -33 0 0 -34 -34 0 0 0 0 0 0 -31.75 0 0 0 0 0 0 -62.6667 0 0 -46.75 -49.5 -49.5 -49.5 0 0 0 0 0 0 0 0 0 0 0 0 0 0 -50.9697 -50.5 -50.5 -53.1111 -53.1111 -49.8273 -49.8273 -47.9808 -47.9808 -47.9808 -47.9808 -49.7 -49.8273 -49.8273 -47.9808 -49.4231 -51.1569 -45.8333 -48.0641 -47.2424 -51.1569 -51.1569 -52.9167 -51.1569 0 -49.8 -64.4596 -64.4596 -52.2679 -58.9714 -58.5 -57.5536 -57.5536 -50.4126 -56.5652 -56.5652 -50.7009 -70.3333 -61.1667 -56.5652 -56.5652 -47.875 -47.875 -47.875 -66.3 -66.3 -64.5 -70.2 -45.7 -50.1667 -50.1667 -49 -49 -49.5 -82.2857 -82.2857 -50.5 -50.5 -50.5 -42.1667 -63.8 -61.4286 -61.4286 -76.9524 -76.9524 -71.8333 -51 -49.25 -49.25 -73.75 -73.75 -49.5 -49.5 -49.5 -45.254 -45.254 -50.6 -50.6 -47.5 -71 -71 -71 -78.0667 -47.4727 0 -53.5 -47.4727 -47.4727 -47.4727 -47.4727 -50.5833 -50.5833 -48.9 -48.9 0 -37.6667 -37.6667 0 0 0 0 0 -52.125 -52.125 -50.5 -50.5 0 0 0 -48.8333 -48.8333 -48.8333 -48.3333 -48.3333 -48.0333 -48.0333 -48.6667 -50.5 -50.5 -43.0667 -43.0667 -43.0667 -46 0 -46 -44.7143 -51.25 -48 -44.1667 -44.1667 -44.1667 0 -56 -57.25 -57.25 -48 -46.6 -48.5 0 -45.75 0 -47.5 -47.5 -47.5 0 -48.5 -48.5 -48.5 -48.2 -49.8333 -49.8333 -49.6429 -49.6429 -49.6429 -49.6429 -47.7 -47.6667 -45.5 -45.5 -50.4 -46.4 -48 -48.5 -48 -48.5227 -63.8333 -48.5227 -53.2917 0 -54.1667 -54.1667 -47.9583 -47.9583 -50.5 -53 -55.65 -59.25 -55.65 -58 -57.5 -49.8333 0 0 0 0 -41.5 0 0 -58.5 0 0 0 0 0 0 0 -48.5 -48.5 0 -44.746 -44.746 -47.4 -47.4 -43.5 -38.4 -47.2381 -47.2381 -11 -41.1667 -43.5333 -43.5333 -28.5 0 -25.375 -25.375 -64.6667
0 0 0 0 0 0 0 0 0 0 0 0 0 0 0 0 0 0 0 0 0 0 0 0 0 0 0 0 0 0 0 0 0 0 0 0 0 0 0 0 0 0 0 0 0 0 0 0 0 0 0 0 0 -48 -48 -48.5 -48.5 -49 -49.5 -49.5 -50 -48 0 0 -49 -49.6667 -49.6667 -50 -50 -49.3333 -49.3333 -49.3333 0 0 -50 -50 -49.5 -49.5 -50 -50 -50.3333 -50.6667 -50.5 -49.5 -49.5 -50 -50 0 0 -51 -51 -51.5 -51.5 -51 -50.5 -50.5 -51 -50 -51.5 -51.5 -52 -51.3333 -51.5 -51.5 -52 0 -50.8333 -50.6667 -51 -51 -50.5 -50.5 0 -51.6667 0 0 -47.125 0 -51.6667 -51.6667 -51 0 0 0 0 0 0 0 0 0 0 0 0 0 0 0 0 0 0 0 0 0 0 0 0 0 0 0 0 0 0 0 0 0 0 0 0 0 0 0 0 0 0 -88 0 0 0 0 0 -6.83333 -6.83333 0 0 -9 -7.5 -7.5 -9.66667 -7.75 -7.75 -7.5 -7.5 -6 -6 0 -6.95 -6.95 0 0 -8 -8 0 0 -9 -9 -9 -7.5 -8 -8.66667 -5 -5 -8.5 -8 -8 -7 -7 -7 -6 -7.5 -6.33333 -6.2 -6.2 -6.25 -7 -6 -6.9 -6.9 -6.9 -10 -7 0 0 -9 0 0 0 0 -9.83333 -9 -8 0 -11.5 -11.5 0 0 -15.1667 -13.1667 -15.1667 -15.1667 -13 -13.25 -13.25 -13.25 -13.5 -13.5 0 0 -16 -16 0 0 0 -18 -18 -18 -15.1667 -15.1667 -15.1667 -17 0 0 0 0 -17.6667 -18 -20.8333 -20.8333 0 0 -20 0 0 0 0 -22 -22 -22 -21.5 -21.5 -24 0 -24.5 -24.5 0 -24 -25.25 0 0 0 0 0 -29 0 -29 -29 -10.6667 -30 -30 -28 -32 -22.9167 0 0 0 0 -33 -33 0 -34 -34 0 0 0 -37 -34.6667 -34.3333 -34.6667 -34.6667 -36.6667 -37.6667 -37.6667 0 0 -38 0 -39 0 -32.6 -29.5 -29.5 -40 -37.3333 -41.3333 0 -41.5 -41.5 0 0 0 -48 -34.75 -44 -42.3333 -41 -34 -37 0 0 0 0 0 -30 -28.75 0 -28.75 -29 0 -31.5 -31.5 -42 -42 -33 -33 0 0 -32 -31.5 -31.5 -28.75 -28.75 -28.75 0 0 -31.5 -33 -32 0 0 -34 -29.5 0 0 0 0 0 0 0 0 -34 -34 -34 0 0 0 0 0 0 0 0 0 0 0 0 0 -62.6667 0 0 -46.75 -46.75 -49.5 -49.5 -49.5 -49.5 -49.5 0 0 0 0 0 0 0 0 0 -58.6667 0 -50.9697 -50.9697 -50.9697 -50.5 -53.1111 -53.1111 -49.8273 -49.8273 -49.8273 -47.9808 -47.9808 0 -45.9 -47.9808 -52.9079 -49.4231 -45.8333 -49.8273 -48.0641 -53.1111 -49.8273 -47.2424 -47.2424 -44.3611 -44.3611 -49.8 -53.55 -49.6636 -49.6636 -47.4 -52.9167 -52.9167 -57.5536 -57.5536 -57.5536 -55.125 -55.125 -55.125 -55 -65.25 -65.25 -65.25 -56.6 -56.6 -48.5 -50 -50 -71.5 -97 -59.75 -51.6667 -50.1667 -50.1667 -96.5 -49.5 -69.2 -69.2 -70.7 -50.5 -43.6667 -42.1667 -44.6667 -69 -61.4286 -76.9524 0 -71.8333 -51 -51 -49.25 -73.75 -73.75 -64.2 -64.2 -45.254 -45.254 -45.254 -45.254 -73.1667 -75.8636 -75.8636 -49.2 -49.2 0 -49.2 0 0 0 -47.4727 -47.4727 -47.4727 -50.5833 -50.5833 -50.5833 0 -39 0 -65.8 0 -46 -46 -46.5 -47.25 -52.125 -52.125 0 0 0 0 0 -54 0 -48.8333 -45.3333 -52.125 -48.0333 -48.0333 -48.6667 -43.0667 -43.0667 -46 -46 -49 -43.0667 -45 -46 -44.7143 -44.7143 -48 -44.1667 -56.1333 -51.5 -56.1333 0 -53.0714 -53.0714 -48 -48 -48.5 0 0 0 0 0 -59 -48 -46 -46 -53.8 -53.8 -48.2 -49.8333 -49.5 -46.6667 -48.3333 -48.3333 -63.5333 -48.5429 -47.6667 -46.4 -46.4 -48.5 -48.5 -48.5 -48.5 -55.8 -75.5 -48.5227 -48.5227 -48.5227 -47.9583 -47.9583 -54.1111 -47.9583 -47.9583 -47.9583 -50.05 -59 -59.25 -25 -58 -57.8333 -35.3333 0 -43 -55 -55 -55 0 0 0 -47 -47 0 0 0 -47.3333 -42.5 -42.5 0 -46 0 -47.4 -47.4 0 -38.4 -43 -43 -74 0 -54.5 -55.5333 -41.1667 -41.1667 -41.1667 0
0 0 0 0 0 0 0 0 0 0 0 0 0 0 0 0 0 0 0 0 0 0 0 0 0 0 0 0 0 0 0 0 0 0 0 0 0 0 0 0 0 0 0 0 0 0 0 0 0 0 0 0 0 0 -48 -48.5 -48.5 -48 0 0 0 -49.5 -49.5 -49.5 -49 -49.5 -49.5 -50 -50 -49.3333 -49.1667 -49 -49.5 -49.5 -50 -50 -50.5 -50.5 -50 -50 -50.6667 -50.6667 -50.5 -50.5 -50.5 -50.5 -50.5 -50.5 -50.5 -51 -51 -50 -50 -50 -50.5 -50.5 -49 -50.5 -51.5 -51.5 -50.5 0 -50.75 -50.75 -50.2 -50 -50.6667 -50.6667 -51 -50 0 0 -52 -51 -51.5 -51.5 -50.5 -50.5 -50.5 -50.5 -51 0 0 0 0 0 0 0 0 0 0 0 0 0 0 0 0 0 0 0 0 0 0 0 0 0 0 0 0 0 0 0 0 0 0 0 0 0 0 0 0 0 0 0 -12 -10.4 -10.4 -10.4 -12 -9.5 -9.5 0 0 0 -7.5 -7.5 -7 -7 -7 -7 0 -8 -7 -6.95 -6.95 -6.95 0 0 0 0 0 0 -8.5 0 0 -8 -8.66667 -8.66667 -8.33333 -8.33333 -8.21429 -8.21429 -7.5 -6.5 -6.5 -7.5 -7.5 0 -6.2 -6.2 -6.2 0 -6.5 0 -5.25 -5.25 -8.5 -6.9 -7 0 0 -8 0 0 -10.4 -10.4 0 -9.83333 -8.5 -8.5 0 0 -12.5 0 -15.1667 -12.75 -12.75 -12.75 -13.5 -11.5 -12.5 -12.5 -13 -13 -15.3333 -23 -16 -16 0 -17 0 -18 0 -18 -15.4 -15.4 -15.5 -15.1667 0 0 -17 -17 -17.6667 -18 0 0 0 0 -20 -20.1667 -20.1667 0 0 -21.5 -21.5 0 0 0 0 0 0 0 0 -24 -25.25 -25.25 0 0 0 0 0 0.75 -29.6667 -7.33333 -30 -30 0 0 -32 -31 -31 0 0 0 -33 -33 0 -34 -35 -35 0 0 0 0 -37.5 -34.3333 0 -39.5 -37 -37 0 0 -24 0 -38.5 0 0 0 -33 -40.5 -40.5 0 0 0 0 0 -41.5 -41.5 -48 -33.3333 -42.3333 -42.3333 -42.3333 -34 0 0 0 -40 0 0 -31.5 0 0 -28.75 -28.75 0 -32.5 -32.5 -33 -42 0 -31.6667 -31 0 0 -31 0 -28.75 0 0 0 0 0 0 0 0 0 0 0 0 -37 0 -35.5 0 -33 0 -34 -34 -34 0 0 -46.5 0 -47.6667 -47.6667 0 0 0 0 0 0 0 0 0 -47.8571 -62.6667 0 0 -46.75 -47.7143 -47.7143 0 0 0 0 0 -52 0 0 0 0 -53.2667 -57.5 0 -58.6667 -50.9697 -50.9697 -52.75 -49.4231 -49.4231 -49.4231 -49.4231 -49.4231 -49.8273 -47.9808 -47.9808 -49.7 -49.7 -46.5794 -45.9 -46.5794 -46.5794 -46.5794 -48.0641 -51.1569 -57.5536 -47.2424 -47.2424 -44.3611 -53.55 -51.375 -53.55 -53.55 -67.5 -51.5 -49.6636 -52.2679 -49.875 -49.875 -49.875 -49.875 -55.125 -53.9206 -53.9206 -53.9206 -55 -65.25 -56.6 -56.6 -48.5 -50 -50 -71.5 -48 -59.75 -59.75 -73.25 -73.25 -96.5 -75.5 -69.2 -69.2 -70.7 -43.6667 -44.6667 -79.3333 -64.2222 -63.2297 -63.2297 -77.3333 -77.3333 -69 -47 -43 -47.5 -47.5 -47.5 -64.2 -62.0625 -57 -73.1667 -45.254 -45.254 -45.254 -49 -49 -82.875 -49.2 0 -46.5333 -49.2 -48.5 0 -47.4727 -47.4727 -50.5833 -47.4727 -50.5833 -50.5833 -56.5 -52 0 -65.8 0 0 -47 -46.5 -47.25 -47.25 -52.125 -52.125 0 0 0 0 0 0 0 0 -44.7143 -44.7143 -45 -44.5 0 -43.0667 -43.0667 -46 -46.75 -43.0667 -46 -46 -44.7143 0 -53.2667 -53.2667 -53.2667 -56.1333 -56.1333 -48.1667 -53.0714 -53.0714 -53.0714 -48 -48.5 0 0 -48.6667 -46.6667 -47.5 -64 0 -46 -46 -53.8 -65 -59.6667 -46.6667 -46.6667 -46.6667 -59.3571 -49.875 -48.3333 -48.5429 -48.5429 -68 0 -46.4 -46.4 0 -61.25 -44.5 -44 -48.5227 -48.5227 -48.5227 -50.05 -53.2917 -54.1111 -50.05 -47.9583 -54.1111 -41.375 -44.5 -54.1111 -55.5 -55.5 -35.3333 -35.3333 -57.8333 -56.25 -56.25 -55 -56.25 0 -55 0 -49.8571 -47 0 0 -47.3333 -47.3333 -42.5 -42.5 -38.1667 0 -46 -42.9762 -40.5357 -52 0 -38.4 -38.4 -43 -46.5 -47.2381 -47.2381 -43.5333 -43.5333 -43.5333
0 0 0 0 0 0 0 0 0 0 0 0 0 0 0 0 0 0 0 0 0 0 0 0 0 0 0 0 0 0 0 0 0 0 0 0 0 0 0 0 0 0 0 0 0 0 0 0 0 0 0 0 0 -48 0 -49 -49 -48 0 -49.6667 -48.5 -48 -48.5 -48.5 -49 -49 -49 -49 -49 -49.1667 -49.1667 -49 -49.5 -49.5 -49 0 -50.5 -50.5 -51 -50 -50.5 -50.5 -50.5 -50.5 -50.5 -50.6667 -50 -50.5 -50.5 -50.5833 -52 -48 -48 -50.6 -51 -51 -49 -50.5 -50.5 -50.5 -50.5 -51 -50 -50 -50 -50 -49.5 -49.5 -50 -50 0 -50.6667 -51 -77.5 -51.5 -51.5 -51.5 -51 -51.5 -51.5 -51 0 0 0 0 0 0 0 0 0 0 0 0 0 0 0 0 0 0 0 0 0 0 0 0 0 0 0 0 0 0 0 0 0 0 0 0 0 0 0 0 0 0 -11 0 -11.5 -11.5 -12 -10.25 -12 -12 -12 0 0 -8 -8 -7 -7 -7 -7 -7.5 -7.5 -7.5 0 0 0 0 -7.66667 -9.5 -9.5 0 -9 -9 0 0 -8 -8 -8 -8.33333 -8.66667 -7.5 0 0 -7.16667 -7.16667 0 -7 -6.5 0 0 -6 0 -6.5 0 0 -7.5 -7.5 -8 -7 -7 -7 -8 0 0 -10.4 -10.4 -9.83333 -12 -12 0 -11.5 -11.5 -12 0 0 -12.75 -13 -13 0 -12.5 -12.5 -15.1667 -15.1667 -18.3333 -17.3333 0 -16 0 0 -17 -20.5 -18 -17.5 -17 -17 -15.4 -15.5 -15.5 -15.5 -17 -17 -16.5 0 -16.5 0 -19.6667 -19.6667 -19.6667 -21.5 0 0 0 0 0 0 -22.5 0 -24 -24 -24 -24.5 -24.5 -25 0 -25.25 -24.6667 0 -17.5 -17.5 -14.5833 0 0 0 -30 -28 -28 0 0 0 0 0 0 0 0 0 -34 -34 -35 -35 -35.3333 -35.3333 0 0 -37.5 -38.5 -36.5 0 -34.3333 0 0 0 0 0 0 0 0 -39.5 -39.5 0 -27 0 0 0 -41.25 -39.6667 -43 -43 0 -45 -45 -43.5 -43.5 0 0 0 -49 -49 -47.6667 -47.5 -32 -32 -32 -31 -31 0 0 0 0 0 0 -33 0 -33.5 -33.5 -33.5 0 0 0 -36.25 -35.5 0 0 0 -35 -35 0 0 -36 -34 -37 0 0 0 0 0 0 -34 -34 -34 0 -46.5 -46.5 -46.5 0 0 -47.6667 -47.6667 0 0 0 0 0 0 0 0 0 -47.8571 -58.6667 -47.7143 0 0 -47.7143 -47.7143 0 0 0 0 0 -52 0 0 -53.2667 -53.2667 -57.5 -58.6667 -58.6667 -52.75 -40.1667 -45.8333 -45.8333 -45.8333 -49.4231 -49.4231 -49.7 -49.4231 -49 -49.7 -49.7 -46.5794 -46.5794 -46.5794 -45.9 -46.5794 -48.0641 -48.0641 -48.0641 -49.5333 -47.2424 -47.2424 -50.2222 -50.2222 -51.375 -59.5 -59.5 -42.4222 -64.6667 -64.6667 -51.4 -51.4 -49 -44.6286 -44.6286 -57.75 -44.6286 -53.9206 -53.9206 -55 -71.1667 -55.6429 -56.4333 -56.4333 -56.4333 -31.4 -31.4 -48 -59.75 -45.6 -49.3611 -49.3611 -94.5 -54.5 -84.6923 -38.75 -61.8393 -61.8393 -61.8393 -79.3333 -64.2222 -64.2222 -63.2297 -63.2297 -77.3333 -77.3333 -56 -62.9167 -47.5 -62.9167 -62.9167 -62.9167 -79 -64.2 -64.2 -67.75 -51 0 -73.1667 -75.8636 -76.3333 -44.3 -46.5333 -46.5333 -45 -47 -48.5 -48.25 -52.5 -50.5 -56.3333 -50.5833 0 -47 0 -65.8 -65.8 -65.8 0 0 -46.5 -47.25 -43 -43 -43 0 0 0 0 0 0 0 0 -44.7143 0 0 -44.5 0 -46.1 -46.1 -46.75 -46.75 -47.5 -46.1 -41.8333 -41.8333 0 0 -53.2667 -53.2667 -56.1333 -56.1333 -48.1667 0 -49 -53.0714 -48 -50.5 -50.5 -56.8 -46.6667 -46.125 -46.125 -48 -48 -73.3333 -73.3333 -53.8 -59.6667 -59.6667 -46.125 -46.125 -46.125 -41.5 -49.875 -63.5333 -63.5333 -59.1 -47 -48.5429 -48.5429 0 -59.1 -76.6667 -74.3333 -51.1 -48.5227 -48.5227 -48.5227 -53.2917 -53.2917 -53.2917 -43.3333 0 -54.1111 -54.1111 -54.1111 -44.5 0 0 -55.5 -48.6667 -57.8333 -56.25 0 0 0 0 0 0 0 0 -43 0 -42.8571 -42.8571 -44.2424 -44.2424 -44.2424 -44.2424 -42.9762 -42.9762 -42.9762 -44.3333 0 -38.4 0 -43 -38.6667 -47.2381 -47.2381 -41.1667 -41.1667
0 0 0 0 0 0 0 0 0 0 0 0 0 0 0 0 0 0 0 0 0 0 0 0 0 0 0 0 0 0 0 0 0 0 0 0 0 0 0 0 0 0 0 0 0 0 0 0 0 0 0 0 0 -48 -48 -48.5 -48.5 -49 -49.6667 -49.6667 -48.5 -48 -48.3333 -48.3333 -49 -48.5 -48.5 -49 -49 -49 -49 -49 -49.5 -49.5 -50 -48.5 -49.5 -49.5 -50 -49.5 -49.5 -49.5 0 -50.5 -50.5 -50.6667 -50 -50.5 -50.5 -50.5833 -50.5833 -52 -52 -48 -50.6 -50.6 -51 -51 -50.5 -50.5 -51 -51 -50 -50 -50 -50 -50.5 -50.5 -50 -50 -50.6667 -50.6667 -51 -51 -51.5 -51.5 -50 -50 -50.5 -50.5 -51 -51 0 0 0 0 0 0 0 0 0 0 0 0 0 0 0 0 0 0 0 0 0 0 0 0 0 0 0 0 0 0 0 0 0 0 0 0 0 0 0 0 0 -11.1667 -11.1667 -11.1667 -11.1667 -11.5 -11.5 -11 -11 -10.25 -9.5 -9.66667 -8 -8 -6.66667 -6.66667 -6.5 -6.5 0 -7.5 -7.83333 -6.75 -6.75 -7.83333 -7.66667 -7.66667 -7.8 -7.8 -7.8 -10.6 -8 -9 -9 -8.5 0 0 -8.66667 -8.66667 -7.5 0 -7 0 0 0 -8 -5.66667 -6.5 -6.5 -7 -7 -6.5 -7.33333 -7.33333 0 0 0 0 -7.5 -7.5 -8.5 0 0 -10.4 -11.2 -11.2 -12 -12 -12.2 -12.2 -12.2 0 0 -8.5 -15.3333 -15.3333 -13 -12.6667 -16.5 -16.5 0 0 -15 -18 0 0 -17 -17 -17 -17.5 -16.5 -17 -17 -17 0 -15.4 -15.4 -15.5 0 -16.5 -16.5 -16.5 -18 -21 0 -18.5 -18.5 0 -21.5 0 0 0 0 0 0 0 -24 -24 0 0 -25 0 -22 -24 -24.6667 0 0 0 0 -27.5556 0 0 0 -30.5 -30.5 0 0 -32 0 0 -32.5 -32.5 -33 -33 -34 0 0 0 -35.3333 0 0 -30 -35.5 -38 -36 -37 -37 -37 -41 0 0 -36.5 -39 -39 0 -40.1667 -40.1667 -30.3333 -27 0 -40.5 0 -41.25 -41.25 0 0 -38.5 -32.5 -44 0 -42 -41 0 -39 -22 -22 0 0 0 0 -32 0 0 0 0 0 0 -33.5 -34.1333 0 0 0 0 0 -34 -36.25 -36.25 -36.25 -36.0833 0 0 -37.5 -37.5 0 -33.5 -33.5 0 0 0 0 -45 -44.5 0 0 0 -34 0 -34 0 -45.8333 -46.5 -46.5 -46.5 0 0 -47.6667 -47.6667 -44.5333 -46.5909 -46.5909 -41.8571 -41.8571 -41.8571 -41.8571 0 0 0 -47.8571 -47.8571 -47.8571 0 -47.7143 -47.7143 0 0 0 0 0 0 0 -54.8 -53.2667 -49.6636 -44.3611 -40.1667 0 -40.1667 -49.7 -49.7 -49.7 0 -47.2424 0 -47.6667 -45.8333 -48.0641 -48.0641 -46.5794 -46.5794 -46.5794 -46.5794 -45.9 -46.5794 -46.5794 -48.0641 -48.0641 -49.5333 -47.6667 -50.2222 -50.2222 -50.2222 -45.1167 -49.6667 -42.4222 -42.4222 -64.6667 -36.2 -45.1778 -45.1778 -45.1778 -49 -49 -44.6286 -43.9 -48.8444 -60.2222 -49.5 -71.1667 -55.6429 -55.6429 -56.4333 -80.6667 -44.2917 -46.4167 -46.4167 -45.6 -45.6 -49.3611 -49.3611 -94.5 -54.5 -84.6923 -38.75 -61.8393 -38.75 -61.8393 0 -64.2222 -63.2297 -63.2297 -63.2297 -63.2297 -77.3333 0 -69 -69.6 -88.6667 -41.5 -86 -43.625 -44.2143 -41.3333 -44.25 -44 0 0 -44.3 -44.3 -44.3 0 -45 -45 -47 -45 -48.5 -52.5 -50.5 -47.5 -56.2857 -43.75 -56.3333 -56.5 -61.5 0 0 0 -42.5 -42.5 0 0 0 0 0 0 0 0 0 -43.75 0 0 0 -45.5 0 -44.5 -44.5 0 -46.1 -45.5 -46.75 -46.1 -46.1 -41.8333 -41.8333 -48.25 -48.25 -47 -50.75 -45.5 -45.5 -45.5 0 0 -49 -50.5 -49 -50.5 -50.5 -48.6667 -48.6667 -63.5 -40 -63.5 -49.2092 0 -57 -49.2092 -49.2092 -54.7857 -49.2092 -59 0 -51.1 -59.3571 -48.5429 -63.5333 -48.5429 -40.6 -63.5333 -68 -63.5333 -51.5 -86.3333 -55.8 0 -55.8 -59 -59 0 0 0 0 -53.2917 -53.2917 -54.5 -54.1111 -44.5 -42 -42 -42.5 0 0 0 0 0 0 -45 -44.25 -44.25 0 0 -40.1 -40.1 0 -42.8571 -42.8571 -44.2424 -44.2424 -42.9762 -42.9762 -42.9762 -42.9762 0 -44.3333 -44.3333 -44.3333 0 0 -74 -68.5
0 0 0 0 0 0 0 0 0 0 0 0 0 0 0 0 0 0 0 0 0 0 0 0 0 0 0 0 0 0 0 0 0 0 0 0 0 0 0 0 0 0 0 0 0 0 0 0 0 0 0 0 0 -48 -47 -47.5 -47.5 -48 -48.1667 -48.1667 0 -48 -48.3333 -48.6667 -49 -49.5 -49.5 -50 -49 -49 -49 -49 -48.1667 -48.1667 -50 -48.5 -48.4667 -48.4667 -48.4667 0 0 -50 -49 0 0 -50 -50 -50.5 -50.5 -49.6667 -48.5 -49.25 -49.25 -49 -49.5 -49.5 -49.5 -49.5 0 0 -51 -51 -49.8333 -49.8333 -50 -49 -49.5 -49.5 -50 -50 -50.5 -50.5 -51 -51 -51.5 -51.5 -50.6667 -50.5 -50 -50 0 -50.5 0 0 0 0 0 0 0 0 0 0 0 0 0 0 0 0 0 0 0 0 0 0 0 0 0 0 0 0 0 0 0 0 0 0 0 0 0 0 0 0 0 -11.1667 -11.1667 -10.1667 -10.5 -10.5 -10.5 -11.25 -11.25 -11.25 -9.5 0 -8.5 -8.5 -6.66667 -6.66667 -6.33333 -6.33333 0 0 -9 -8.5 -8.5 -7.33333 -10.6667 -8 -7.8 -7.8 -8 0 0 -8.5 -8.5 -8.5 0 -8 -8 -8 -8 0 -7 -7.5 -7.5 -6.8 0 -7.5 -7.5 -7.5 0 -7.16667 -7.16667 -7.33333 -8.66667 -7 -7 0 0 0 0 0 -11 -8 -11.2 -11.2 -11.2 -8.75 0 -11.3333 -12.2 -12.2 -12.6667 0 0 0 0 -14 -12.6667 -15 0 0 0 -14 -23 0 0 -17.5 -17.5 -17.5 -17.5 -16.3333 -16.3333 -17.5 -17.5 0 -17 -17 -17 -18.5 -18.5 -19.5 -16.5 0 -21 0 0 0 -21 0 -21.5 0 0 0 0 0 -24 -23 0 -24.5 -24.5 -44 -25 0 0 -25.5 0 0 0 0 -27 0 0 -30 -30 -30 -30 0 -32 0 0 0 0 0 0 0 0 0 0 0 0 0 0 -39.5 -35.5 0 -39.5 0 0 0 0 -39 -36.5 -41 0 0 -34 -34 -42 0 -38.9583 -40 -39.6667 -41.25 -40.6667 -45.25 -45.25 -38.5 -43 0 -42.5 -42.5 0 0 -51.8333 -51.8333 0 0 0 -44.5 -44.5 0 -33 0 0 0 0 0 0 0 0 0 -34.1333 -34.1333 0 0 0 0 0 -36.0833 0 -35.8 -37.5 -37.5 0 0 -41.8333 -41.7582 -42.55 -42.55 -42.55 -42.55 -45 -44.5 -44.5 -37 0 -40.75 -34 0 -45.8333 -45.8333 -46.5 -41.5556 -41.5556 -48 -50.5 -47 -44.5333 -44.5333 -44.5333 -46.5909 -46.5909 -42.6667 -46.5909 -41.8571 0 0 0 0 0 -47.8571 0 0 -55 0 0 -57.5536 -59.1667 -51.1569 -51.1569 -62.75 -47.4 -48.5 -48.5 -40.1667 -40.1667 -40.1667 0 0 -44.3611 -44.3611 -44.3611 -47.2424 -47.6667 -47.6667 -49.5333 -48.0641 -48.0641 -45.3333 -45.6 -45.6 -43 -43 -45.4 -45.6 -45.3333 -45.3333 -46.05 -42.3333 -50.2222 -49.8286 -49.8286 -45.1167 -45.1167 -49.6667 -55.4286 -47.3333 -36.2 -36.2 -45.1778 -45.1778 -45.1778 -53.5 -41.3333 -45.25 -45.25 -48.8444 -49.5 -33.4643 -33.4643 -31.1429 -44.2917 -44.2917 -44.2917 -46.4167 -53.1 -53.1 -69.2 -45.6 -49.3611 -49.3611 -38.75 -84.6923 -38.75 -38.75 -61.8393 -70.6364 -70.6364 -70.6364 -79.3333 -64.2222 -75.4048 -75.4048 -75.4048 0 -69.6 -38 -43.625 -43.625 -43.5 -43.625 -44.2143 -44.2143 -44.25 -44.25 0 0 0 0 -44.3 -44.3 -45 -45 -47 -42.9667 -43.9 -42.5 0 -41.5 -88.5 -43.75 -43.75 0 0 -49.6667 -65.8 -95.5 -42.5 -42.5 -42 -42.5 -42 0 0 0 0 0 -43.75 -43.75 0 0 0 0 -45.5 -41.8333 -41.8333 -46.1 -46.1 -46.1 -46.1 -44.8 -45.8333 -48.25 -45.8333 -45.8333 -46.3333 -54 -50.75 -50.75 -48.6 -45.5 0 -41.9286 -35.4318 0 0 -49 -50.5 -62.1667 -62.1667 -43.25 -51.1 -49.2092 -49.8 -33.8333 -33.8333 -54.7857 -54.7857 -54.7857 -49.2092 0 -49.2092 0 0 -71 -51.5 -59.1 -49.875 -63.5333 -68 -57 0 0 -53.8 0 0 -42 0 -42 0 -55 0 0 0 -43.3333 -44.5 0 0 -42 -42.5 0 -44 0 -44.6667 -44.6667 -44.6667 -44.25 -38.5 -44.25 0 0 -41 -48 -42.8571 -42.8571 -42.8571 -44.2424 -44.2424 -61.7333 0 -58 -42.9762 -42.9762 -40.5357 -40.5357 -61.7333 -66.25 -44.3333 -47.2381
0 0 0 0 0 0 0 0 0 0 0 0 0 0 0 0 0 0 0 0 0 0 0 0 0 0 0 0 0 0 0 0 0 0 0 0 0 0 0 0 0 0 0 0 0 0 0 0 0 0 0 0 0 -48 -48 -47.5 -47.5 -48 -48 -48 -48 -47.5 -48.6667 -48.6667 -49 -49 -49 -49 -49 -49 -49 0 -48.1667 -48.1667 0 -49 -48.4667 -48.4667 0 0 0 -49 -49 -49.5 -49.5 -50 -50 -50 -50 -49.6667 -48.5 -48.5 -48.5 -49 -48.5 -48.5 -49 -49 -49.5 -49.5 -50 -49 -49.8333 -48.6667 -49 -49 -49.5 -49.5 -50 -50 -50.5 -50.5 -51 -51 -51.5 -51.5 -50 -50.6667 -50.5 -50.5 -50 -49.5 -71.3 -71.3 0 0 0 0 0 0 0 0 0 0 0 0 0 0 0 0 0 0 0 0 0 0 0 0 0 0 0 0 0 0 0 0 0 0 0 0 0 0 0 -70.9167 -10.1667 -10.1667 -12.5 1.2 -10.6667 0 0 -11.25 -9 -9 0 0 -6.66667 -6.66667 -6.33333 -7.16667 0 0 -9 0 0 -8 -10.1667 -7.66667 -10.6667 -10.6667 -8 0 0 0 0 -9.5 -8.5 -7.5 -7.5 -7.5 -7 0 -7 -6.8 -6.8 -8 -7 -9.5 -9.5 -9.5 -8 -8.5 -7.16667 -8.66667 -8.66667 -7 -5.75 0 -5 -6.5 -6.5 -8 -11 0 -10.5 -10.5 -8.75 -8.75 -11.3333 -10 0 0 0 -4.5 -4.5 -17.3333 -17.3333 0 -12 -15 -13.6 -13.6 -13.6 -15.5 -16.75 0 0 0 0 -16.5 -16.5 -16.3333 0 0 0 -19 -18.5 -18.5 -18.5 -16.5 -16.5 0 -19.5 0 0 -21 0 0 -21 0 -21.5 -21.5 0 0 0 0 -23 -24 -24 -24 -24 -37 -15 1 0 -30.3333 0 0 0 0 -28.3333 -29 0 0 0 0 -31 -31 -31 0 0 0 0 0 0 0 0 0 -35 -36.5 -36.5 0 0 0 -37.6667 0 0 -40.5 -40.5 -39.5 0 -39 -39 0 -38 -28 -40.5 -40.5 -48.3333 -38.9583 -35.2308 0 0 -40.6667 -40.6667 -41.5 -41.5 -47.5 0 -42 0 -43 -43.5 0 0 0 0 -44.95 -44.95 -45.8333 0 -45 0 0 0 0 0 0 -45 0 -37.5 0 0 0 -34 -33.3333 -35 -35 -36.0833 -36.0833 -49.25 -42.5 0 0 -42 -42 0 -41.8333 -41.8333 -41.8333 -42.55 -42.55 -42.55 -45 -45 -44.5 -35.5 -48.8333 -48.8333 0 -38.1111 -45.5 -45.5 -38.1111 -41.5556 -41.5556 -44.8333 -44.8333 -44.5333 -44.5333 -44.5333 -44.5333 -46.5909 -46.5909 -46.5909 -42.6667 -42.6667 0 0 -41.8571 0 0 -55 -53 0 0 -51.1569 -51.1569 -51.1569 -51.1569 -52.9079 -52.9079 0 0 -47.4 0 -49.7 -49 -51.5 -49.6636 0 -46 -44.3611 -44.3611 0 -47.2424 -47.6667 -49.5333 -48.0641 -42 -45.3333 -45.6 -45.75 -43 -43 -45.6 -45.6 -45.3333 -45.3333 -46.05 -46.05 -43.9048 -49.8286 -49.8286 -45.1167 -45.1167 -40.5 -40.5 -44.5 -36.2 -36.2 -45.1778 -47.2222 -33.6667 -53.5 -45.25 -45.25 -27.3333 -48.7667 -48.7667 -33.4643 -33.4643 -31.1429 -31.1429 -42.4 -52.75 -52.75 -52.75 -67 -58.9 -58.9 -65.2857 -43.5 -38.75 -65.6667 -44 -51 -43.5 -43.5 -70.6364 -44 -75.6333 -74.6 -74.6 -75.4048 -75.4048 -69.6 -45.75 -45.75 -45.75 -43.625 -42.5 -43.625 -43.625 -44.2143 -44.2143 -44.25 0 -44 -48 0 -44.3 -44.3 0 -39.5 -42.9667 -42.9667 -43.9 -42.5 -43.9 -41.5 -88.5 -43.75 0 0 0 0 -41.3333 -95.5 -42.5 -42.5 -42 -42 -43.5 0 0 0 -53.0714 0 -41 -43.75 0 0 -43.5 0 0 -48.25 0 0 0 -43.1667 -44.8 -44.8 -44.8 -45.8333 -45.8333 -46.4545 -41.9744 -40.6 -38.9286 -38.9286 0 0 0 -46 0 -55.6667 -33.6 -35.4318 -40.5 -62.1667 -33.5 -43.25 -44.8333 -43.25 -33.8333 -51.1 -32.8571 0 -49.2092 -49.2092 -49.2092 -49.2092 -49.2092 -46.125 -69.9 -59.3571 -49.875 -49.875 -69.7778 -59.3571 -63.5333 -63.5333 -68 0 0 0 0 0 -41.5 -41 0 0 0 0 0 -43.3333 -42 -42 0 0 0 0 0 -39 -34.5556 -39 -39 -36.4 -38.5 -61.7333 -52 0 -44 -37.0714 -37.0714 -37.0714 -48 -43.6667 -44.2424 -44.2424 -44.2424 -40.5357 -37.4 0 0 -42.9762 -42.9762 -44.3333 -42.9762
0 0 0 0 0 0 0 0 0 0 0 0 0 0 0 0 0 0 0 0 0 0 0 0 0 0 0 0 0 0 0 0 0 0 0 0 0 0 0 0 0 0 0 0 0 0 0 0 0 0 0 0 0 -48 -47.8333 -47.5 -47.5 -48 -47 -47 -47 -47.5 -47.5 -48 -48.5 -49 -49 -48.5 -48.5 -47.5 -47.5 -48 -48.5 -48.5 -49 -48 -48.5 -48.5 0 0 -49.1667 -49 -48.6667 -48.5 -48.5 0 -49.6 -49.6 -49.6 -49.4 -49 -49 -48 -48 0 0 -48.5 0 -49.5 -49.5 -50 -49 -48.6667 -48.6667 -49 -48 -48.3333 -48.3333 -50 -50 -50.5 -50.5 -50.5 -49.5 -48.5 -48.5 -50 -50.6667 -49.1667 -49.1667 -49.5 -49.5 -50 -50 -71.3 -50.5 0 0 0 0 0 0 0 0 0 0 0 0 0 0 0 0 0 0 0 0 0 0 0 0 0 0 0 0 0 0 0 0 0 0 0 0 0 0 0 0 -12.5 1.2 -10.5 -10.6667 -10.6667 -9.5 -13.5 -13.3333 -13.3333 -13.3333 0 -7.75 -7.16667 -7.16667 0 -7.5 -8 -8.5 -8.5 -8.5 -8.5 -10.1667 -7.33333 -7.33333 -7.5 0 0 -9.33333 -9.33333 -10 -9 -8 0 0 -8 -7 -8 -6.8 -6.8 -9 -7.5 -7.5 -8.5 -8.5 -8.5 -9.5 -9.5 -5.75 -5.75 -7 -5.75 -7.66667 0 0 0 -10.5 -10.5 0 0 0 0 -8.75 -11.3333 0 0 0 -12 -18 -16.75 -13.2 -13.2 -13.8 -13.8 0 -13.6 -13.8 -13.8 -15 -18 0 0 0 0 0 0 0 0 -16.8333 -16.8333 -17.6667 -17.6667 -17.6667 0 0 0 0 -18.5 0 0 -19.6667 -20.5 -20.5 0 -20 -20 -20 0 0 -22.5 -22.5 -23 -7.5 -13.5 -5 -5 0 0 -24 -30.3333 -19 -15.5 -15.5 0 -28 -28.3333 -28.3333 -29 0 0 0 -30.3333 -30.5 -30.5 0 0 0 0 -33.5 -33.5 0 0 -35 0 -36.5 -36.5 -10 0 0 0 0 -37.4 0 0 0 -40 0 -39 0 -38 -40.5 -40.5 -24.1667 -24.1667 0 -40.5 -39 -41 0 0 0 0 0 -43 0 -43 -43 -43.5 -43 0 0 -42.8 0 -42.8 -44.95 -45.8333 0 -34 -33 -34.5 -34.5 -35 -37.5 -45 0 -62 0 -46.7 -48.5 0 -34 -34 -33.3333 -35 0 -49.25 -42.6 0 0 0 0 0 0 0 -41.8333 -41.8333 -41.8333 -42.55 -42.55 -40.6222 0 -38.1111 0 -25.5 -42.6667 -39.2667 -38.1111 -38.1111 -38.1111 -44.75 -46.3333 -41.5556 -44.8333 -44.8333 -53.1667 -44.5333 -44.5333 -44.5333 -44.5333 -46.5909 0 0 -46.5909 -46.5909 0 0 0 -29.3333 -55 -47.8571 -58.85 -51.1569 0 0 0 0 0 0 -35 -35 -52.2679 -52.2679 -52.2679 0 -49.6636 -33.5 -42.4222 0 0 -51.375 -50.2222 -50.2222 -42.3333 -46.05 -42 -44.6933 -44.6933 -44.6933 -40.4 -42.625 0 -45.75 -42.625 -45.3333 -44.6933 -43.9048 -44.6933 -43.9048 -44.6933 -49.8286 -45.1167 -45.1167 -47.15 -40.5 -40.5 -42.5545 -47.2222 -47.2222 -47.2222 -42.5545 -43.5455 -45.25 -27.3333 -44.2917 -35.9 -48.7667 -31.1429 -33.4643 -31.1429 -42.4 -42.4 -52.75 -52.75 -52.75 -50.2909 -63.3333 -59.6905 -59.6905 -59.6905 -44 -34.3333 -34.3333 -53.6667 -62.6571 -43.5 -70.6364 -70.6364 -75.6333 -74.6 -74.6 -75.4048 -69.6 -62.6923 -69.6 -90 -69.6 -67.2 -42.5 -42.5 -43.625 -44.2143 -44.2143 -44.25 -41.3333 -41.3333 -41.5 -42 -87.25 -87.25 -87.25 -39.5 -42.9667 -42.9667 -43.9 -39.6 -40.4 -40.4 0 0 0 0 0 0 0 0 -41.5 -41.5 -76.5333 -42 -43.5 0 0 0 0 0 0 0 0 0 -43.5 0 0 0 0 0 -45.8333 -45.8333 -44.8 -46.4545 -41.5 -46.4545 -63 0 -41.9744 -40.6 -54.5 -38.9286 -46.9 0 0 -45.5 -45.5 -33.6 -33.6 -59.1 -49.875 -52 -52 -63.6667 -43.25 -44.8333 -51.1 -46.125 -49.2092 -49.2092 -74.1 -54.7857 -54.7857 -49.2092 -49.2092 -46.125 -69.9 -63.6667 -63.6667 0 -49.875 -49.875 -63.5333 -59.1 -38 -39 -65 0 0 0 -41.5 -40.5 -39.5 -41 0 0 -41 -41 -40 -42 -42 -42 0 0 0 0 0 -39 -36.3333 0 0 0 -44 -44 -44 -34.1429 -37.0714 -37.0714 -43.6667 -43.6667 -43.6667 -37.4 -37.4 -37.4 0 0 0 -42.9762 -47.4 -55.5333
0 0 0 0 0 0 0 0 0 0 0 0 0 0 0 0 0 0 0 0 0 0 0 0 0 0 0 0 0 0 0 0 0 0 0 0 0 0 0 0 0 0 0 0 0 0 0 0 0 0 0 -46.5 -46.5 -48 -47.8333 -47.8333 0 -48 -48 -48 -47.5 -47.5 -47.5 -48 -48 -48.5 -48.5 -48.5 -48.5 0 0 -48 -48.5 -48.5 -49 -49 -48.5 -48.5 -49 -49.1667 -49.1667 -47.3333 -47 -47.8333 -47.8333 -50 0 -47 -47 -47 0 0 -48 -48 -48.5 -48.5 -49 -49 -49.5 -49.5 -48.5 -48 -48.5 -48.5 -49 -48 -48.3333 -48.6667 -49 -48.5 -49 -49 -49 -49.5 -48.5 -48.5 -49 -49.5 -49.5 -49 -49 -49 -49.5 -49.5 -50 0 0 0 0 0 0 0 0 0 0 0 0 0 0 0 0 0 0 0 0 0 0 0 0 0 0 0 0 0 0 0 0 0 0 0 0 0 0 0 0 0 0 0 -10.5 -10.5 -10.5 -10.5 -16 -16 -16 -7.5 -9 -8 -7 -7 0 0 -8.3 -7.5 -7.5 -7.5 -7.5 0 -9.5 -9.5 -7.5 -10.5 0 -9.33333 -9.5 -9.5 0 -8 -8.5 -8.5 -8 -8 -9 -9 -9 -9 -8.33333 -8.33333 0 0 0 0 -8 -10.5 -10.5 -10 -10 -7.66667 0 0 0 -10.3333 -10.3333 -10.5 -9.8 -9.8 -10.5 -9 0 0 0 0 -16.75 -16.75 -13.2 -13.2 -13.2 0 0 -11 -13.6 -13.8 -13.2 -12.6667 0 0 -18 -18 -18 0 0 0 0 -16.8333 -17.125 -19 0 -18.5 0 0 0 -20 0 0 -19.6667 -19.6667 -20 -20 -20.5 -20 0 0 0 0 -22 -23 -23 -7.5 0 0 0 0 0 0 0 0 0 0 0 -28 -29.5 -29 0 0 0 -31 0 0 -31 -33 0 0 0 0 -34 -34 0 0 0 0 -28.5 0 0 -34.8333 -34.8333 -37.4 0 0 0 -22.5 -22.5 0 -37.2 0 -38 0 0 -42.2 -41.5 -41.5 0 -41 -40.5 -40.5 0 0 -42.8333 -42.8333 -43 0 0 -44 0 0 0 0 0 0 -42.8 -42.8 -44.95 0 -46.6667 -33 -45.5 -45.5 0 -45.5 -45.5 0 -42 -44.6667 0 0 -46.7 0 0 0 0 0 -42.6 -42.6 0 0 -42.5 0 0 -41.8333 -41.8333 0 0 -40.6222 -42.55 -41.7582 -40.6222 -40.6222 -41.9091 0 -41.9091 0 -39.2667 -39.2667 -39.2667 -39.2667 -44.75 -35.5 -39.2667 -39.2667 -41.5556 -44.8333 -44.8333 -50.5 -44.5333 -44.5333 -44.5333 0 -39.6429 -39.6429 0 0 -41.8571 0 -42.5 -42.5 0 0 0 0 0 0 0 0 0 0 0 0 0 0 0 -51.4 0 -33.5 -42.4222 0 0 0 0 -50.2222 -42.3333 -46.05 -43.9048 -43.9048 -44.6933 -44.6933 -42.625 -42.625 -44.2 -44.2 -42.625 -42.625 -44.6933 -44.6933 -44.6933 -44.6933 -44.6933 -44.6933 -49.8286 -49.8286 -42.5545 -40.5 -46 -42.5545 -47.2222 -42.5545 -37.8667 -42.5545 -29.9206 -29.9206 -27.3333 -27.3333 -27.3333 -31.1429 -42.4 -42.4 -42.4 -42.4 -42.4 -42.4 -52.75 -52.75 -50.2909 -52.5 -59.6905 -59.6905 -54.3333 -54.3333 -54.3333 -53.6667 -62.6571 -62.8947 -62.6571 -41.2 -79.8571 -41.2 -28.8333 0 -62.6923 0 -48 -48 -42.75 -42.75 -67.2 -42.6667 -42.6667 -43.5 -77.5 -71.5 -71.5 -41.3333 -41.3333 -41.5 -62.5 -42 -87.25 -69 0 -41 -39.6 -39.6 -39.6 -40.4 -40.4 0 0 0 -42.25 -90 0 0 0 -92.6667 -76.5333 -76.5333 -42 0 -68.25 0 0 0 -43 -43 -43 0 -45.5 -38.9286 0 0 -43 -40.6 -41.9744 -45.8333 -45.8333 -40.5833 -40.5833 -48 -41.5 -41.5 -41.5 -41.9744 -41.9744 -54.5 -46.9 -38.9286 -54.5 -38.9286 -36.5 0 0 -42.65 -40.6 -40.6 -35.4318 -71.5 -37.5 0 -62.1667 -62.1667 -44.8333 -35 -49.8 -54.7857 -54.7857 -54.7857 -54.7857 -74.1 -67 0 -39.5 -42 0 0 0 0 -39.5 -39 -66.75 -66.75 -39.6667 -39.6667 -95 0 0 0 0 0 0 0 0 0 0 0 0 -39.9231 -39.9231 -39.9231 -38.8 -38.8 -40 -44.75 -21.7273 -21.7273 -34.5556 -34.5556 0 0 0 -37.0714 -31.8077 -31.8077 0 -43.6667 -35.6 -37.4 -35.6 -35.6 -35.9 -29.6 -25 0
0 0 0 0 0 0 0 0 0 0 0 0 0 0 0 0 0 0 0 0 0 0 0 0 0 0 0 0 0 0 0 0 0 0 0 0 0 0 0 0 0 0 0 0 0 0 0 0 0 0 0 -46.5 -46.5 -47 0 0 0 -48 -46.5 -46.5 -47 -47.5 -47.5 -47.5 -47 0 0 0 -47.7333 0 0 -48 -49.3333 -49.3333 -49 -49 -47 -47 -48 -48 -48 -47.3333 -47 -47.8333 -47.8333 -48 -48 -48.5 -48.5 -47 -47.5 -47.5 -48 -47 -48.5 -48.5 -49 -48.5 -48.5 -48.5 -48.5 0 -48.5 -48.5 -49 -48.6667 -48.6667 -48.6667 -49 -48 -48.5 -48.5 -48 -48.5 -48.5 -48.5 -48.5 -49 -49 -49 -49 -49.1667 -49.1667 -48.5 -48.5 -48.5 -48.5 -48.5 0 0 0 0 0 0 0 0 0 0 0 0 0 0 0 0 0 0 0 0 0 0 0 0 0 0 0 0 0 0 0 0 0 0 0 0 0 0 0 0 -10.5 -10.5 -10.5 -10.5833 -8.66667 -7.1 -7.1 -10.375 -7.5 -9 -8.5 -8.5 -7.5 0 -8.3 -8.3 -8.3 -9.375 -9.375 -7.7 0 0 -10.5 0 0 -9.5 -9.5 -8.83333 -8.5 -8 0 0 -8.5 -8 -8 -6.5 -6.5 -8 -8.33333 0 -8 -8 -8 -7.5 -10.6667 -8 -8 -8 -7.66667 -7.5 0 -7.66667 0 -10.3333 0 -11 -9.8 -9.8 -9.8 -10.5 -12 0 0 0 0 0 -14 -13.2 -13.2 -15 -15 0 -16.6667 -13.2 -13.2 0 0 0 -17.5 -17.5 -17.5 -17.5 0 0 0 -17.125 -17.125 -17.125 -19 -18.5 -17.5 0 0 -19 -17.3333 0 -20 -20 -20 0 -10.6 -22 -4.625 0 0 0 0 -32.2 -4 -7.5 0 0 0 0 -27 0 -28 -27 0 0 0 -28 0 -29.5 -29.5 0 0 0 0 -31.5 0 0 0 0 0 0 0 0 0 0 -32.9286 -32.9286 -42.5 -30.5 -32 -34.8333 -36 -27.5 0 0 0 -40.6667 -40 -42.5 -42.5 -40.5 -40.5 0 -41 0 -41.5 0 0 0 0 0 0 0 -42.8333 0 0 0 -43.5 -44 0 -42 0 0 0 -44.95 -42.8 -43.1667 -44.8333 -46.6667 -46.6667 -48 -45.5 -45.5 0 0 -49.25 -49.25 -35 -44.6667 -44.6667 0 -46.7 -46.7 -46.7 -34 0 -36 -42.6 -42.6 -41.7083 -43 -37.2143 -37.2143 -39.5333 -39.5333 -39.5333 -39.5333 -39 -42.6667 -41.7582 -41.7582 -41.7582 -40.6222 -41.9091 -40.6222 -41.9091 -41.9091 -41.9091 -41.9091 -41.9091 -44.75 -44.75 -39.2667 -39.2667 -38.1111 -38.1111 -41.5556 -41.5556 -47.5 -53.1667 -43.5 -43.5 -39.6429 -39.6429 -39.6429 0 0 0 -43 0 0 -42.5 -42.5 0 0 0 0 0 0 0 0 0 0 0 -40.5 -51.4 0 0 0 -36.2 0 0 -45.1167 -45.1167 -49.8286 -36.9333 -39.25 -33.3333 -33.3333 -43.9048 -44.6933 -44.6933 -42.625 -42.625 -44.2 -44.2 -42.625 -42.625 -44.6933 -44.6933 -44.6933 -44.6933 -44.6933 -45.4909 -39.5 -49.8286 -47.15 0 -42.5545 -42.5545 -39.5905 -37.8667 -37.8667 -37.8667 -29.9206 -29.9206 -29.9206 -27.3333 -27.3333 -48.7667 -31.1429 -27.3333 -42.4 -42.4 -42.4 -42.4 -52.75 -52.75 -52.75 -63.3333 -67.25 -59.6905 -22.6842 0 0 -36.1667 -77 -51 -62.6571 -62.6571 -41.2 -41.2 -28.8333 -28.8333 -28.8333 0 -48 -48 -90 -42.75 -67.2 -42.6667 -39.6667 -94.2727 -77.5 -38.6667 0 0 -91.8333 -70.4 -39.5 -39.5 -69.6667 0 0 -41 -41 -41 0 -39.6 -40.4 -72 0 0 -42.25 -90 0 0 0 0 -92.6667 -76.5333 -41.3333 -42 0 0 0 0 0 -35.4318 -33.6 -35.4318 -37.6667 0 0 -42.5 -54.5 -40.6 -44.3333 -41.5 -44.3333 -41.5 -46.4545 -46.4545 -41.5 -41.5 -40.5833 -41.9744 -41.9744 -41.9744 -40.6 -40.6 -46.9 -46.9 -46.9 0 0 -42.65 -45.8 -35.4318 -40.5714 -40.5714 -40.5714 -35.4318 -62.1667 0 -55.5 -35 -44.4 -51 0 -73.3333 0 0 0 -32.8 -39.5 -42 -42 0 0 0 0 -39.5 -39.6667 -38.7333 0 -38.7333 -95 0 -75 0 0 0 -37.5 0 -39.3333 -34.5 -39.6 0 -42.6111 -42.6111 -39.9231 -39.9231 0 -38.8 -38.8 -38.8 -41.0714 -21.7273 -21.7273 -21.7273 0 0 0 0 0 -31.8077 0 -31.8077 0 -43.6667 -23 0 0 0 0
0 0 0 0 0 0 0 0 0 0 0 0 0 0 0 0 0 0 0 0 0 0 0 0 0 0 0 0 0 0 0 0 0 0 0 0 0 0 0 0 0 0 0 0 0 0 0 0 0 0 0 -46.5 -46.5 -47 -47.5 -47.5 -48 -46.5 -46.5 -46.5 -46.3333 -46.3333 -46.3333 0 -48.5 -48 -48 -48 -47.7333 -47.7333 -47 -48 -49.3333 -47.1667 -48 -47.5 0 0 -48 -46.6667 -46.6667 -48 -47 -47.8333 -47.8333 -48 -47 -48.5 -48.5 -48.3333 -47.5 -47.5 0 -48 -48 -48 -49 -48.5 -47.25 -47.25 -47 -47.5 -48 -48 -49 -48.75 -49.5 -49.5 -49.25 -48 -49.25 -48.5 -48.5 -48.5 -48.5 -48.5 -48 -47.5833 -47.5833 -47.5833 -49 -49.1667 -49.1667 -48.5 0 -48 -48 -48 0 0 0 0 0 0 0 0 0 0 0 0 0 0 0 0 0 0 0 0 0 0 0 0 0 0 0 0 0 0 0 0 0 0 0 0 0 0 0 0 -10.5 -10.5833 -10.5833 -10.5833 -9.5 -9.33333 -9.33333 -10.375 -9.33333 -7 -6.5 -6.5 0 -9.375 -9.375 -8.3 -9.375 0 0 -12 -7.7 -7.7 0 0 0 0 -8.83333 -8.83333 -8 -8.33333 -8.33333 -9 -8.5 -8 -8.5 -8.5 -8 0 0 0 -8.8 -8.8 -8.8 -10.6667 -9.66667 -9.66667 -9.66667 -8.83333 -8.83333 -8.5 -7.66667 -7.66667 0 0 0 0 -11 -11 -11 -9.83333 -13 0 0 0 -18 -12.6667 -12.6667 -14.5 -14.5 -18 -18 -17 -17 -8.66667 -8.66667 0 0 0 -17 -17.5 -17.5 -17.5 0 0 0 -17.125 -17.125 -17.125 -19 -19 0 0 0 -18.3333 0 -9 -17.3333 0 0 0 -10.6 -10.6 -10.6 -4 0 0 -11 0 0 0 0 0 0 0 -27 0 -28.6667 0 0 0 0 -28.5 0 0 0 0 0 0 -31.5 -30.5 -30.5 0 0 0 0 0 0 -34.5 -39 0 -32 -32 -38 0 -38.5 -38 -36 -40.5 -27.5 -27.5 0 0 0 0 0 -40.5 -41 -41 -41.3333 -41.3333 -41.5 -41.5 -41.8333 0 -42 -41.5 0 0 -43 0 0 -44 -43.5 0 -43 -42.5 -42.5 0 -42.9 0 -42.8333 0 -43.1667 -44.8333 -41 -41.5 -41.5 0 -45 0 -41 -41 -35 -40.127 -34.2 -42.6 -42.6 -42.6 -42.5 0 -34 -34 -42.4583 -42.4583 -42.4583 -41.7083 -43 -37.2143 -37.2143 -37.2143 -39.5333 -39.5333 -39.5333 -42.6667 -42.6667 -41.7582 -41.7582 -41.7582 -40.6222 -40.6222 -40.6222 -41.1667 -41.1667 -41.1667 -41.9091 -41.9091 -41.9091 -41.4333 -39.2667 -40 -38.1111 -41 -40 -46.3333 0 0 -42 -43.5 -43.5 -43.5 -43.5 -39.6429 -39.6429 0 0 -43 0 0 0 0 0 0 0 0 0 0 0 0 0 -49 0 0 0 -45.1778 -36.2 -36.2 -44.5 -44.5 -45.1167 -51.1667 -36.9333 -36.9333 -49.8286 -36.9333 -36.9333 -43.9048 -44.6933 -44.6933 -42.625 -42.625 -42.5 -42.5 -42.625 -42.625 -42.625 -42.625 -40.5923 -45.4909 -45.4909 -45.4909 -45.4909 -54.5 -80 -47.15 -47.15 -39.5905 -39.5905 -37.8667 -37.8667 -37.8667 -37.8667 -29.9206 -29.9206 -58.5 -30.95 -27.3333 -27.3333 -27.3333 -44.2917 -42.4 -55.3333 -42.4 -42.4 -50.2909 -50.2909 -52.75 -50.2909 -40.3333 -63.3333 -63 -19.6667 -54.3333 -54.3333 -34.3333 -53.6667 -62.6571 -62.6571 -41.2 -79.8571 -64 0 -97 -73.5 -59.2 -59.2 -91.0714 -90.9 -39.7 -39.7 -38.6667 -38.6667 0 0 -95 -91.8333 -70.4 -70.4 -39.5 -69.6667 -69.6667 0 0 0 -39.3333 -41 -41 0 0 0 -42.25 -42.3333 -42.3333 -70.6667 0 0 0 -92.6667 -76.5333 0 -41.3333 0 0 0 0 -41.9286 -35.4318 0 -45.8 0 -36.5 0 -38.9286 -41.9744 -40.6 -41.9744 -40.6 -44.3333 -43.5 -46.4545 -41.5 -40 -38 -41.5 -41.5 -41.9744 -41.9744 -41.9744 -40.6 0 -32.0833 -42.65 0 0 -37 0 -40.5714 -40.5714 -39 -40.5714 -40.5714 0 -65.5833 -96 -35 0 -44.4 0 -39 -38 -38 -32.8 -32.8 -37.6667 0 0 -82.5 -34.3333 -41 -41 -38.7333 0 -39.5 -92.6667 0 0 0 0 0 0 0 -42.5 -42.5 0 0 0 -42.6111 -42.6111 -42.6111 -42.6111 -39.9231 0 -38.8 -39.9231 -38.8 -21.7273 -34.5556 -21.7273 0 0 0 -31.1905 -31.1905 0 -37.0714 0 0 -31.8077 -32.875 0 -23 0 -35.9
0 0 0 0 0 0 0 0 0 0 0 0 0 0 0 0 0 0 0 0 0 0 0 0 0 0 0 0 0 0 0 0 0 0 0 0 0 0 0 0 0 0 0 0 0 0 0 0 0 0 0 0 0 -47 0 0 -46.5 -47.6667 -46.5 -46.5 -46.3333 -46.3333 -46.6667 -47 -47 -47 -47 -47 -46.5 -46.5 -46.5 -47 -47.1667 -47.1667 -48 -47 -47 -47 -47 -47.8333 -47.8333 -46.6667 -47 -47.5 -47.5 -48 -47 -48 -48 -47 -46.8333 -46.8333 0 -47 -47.5 -47.5 -48 -48 -47.25 -47.25 -47 -47 -45.5 -45.5 0 -47 -48.5 -48.5 -49 -49.25 -49.25 -48.5 -48 -48 -48 -48 0 -48 -48 -47.5833 -49 -49.1667 -49.1667 -48.5 -48 0 0 -48 0 0 0 0 0 0 0 0 0 0 0 0 0 0 0 0 0 0 0 0 0 0 0 0 0 0 0 0 0 0 0 0 0 0 0 0 0 0 0 0 0 0 0 0 -9.5 -10.375 -10.375 -10.375 -10.375 0 0 0 -7 -7.3 -9.375 -9.375 -9.375 0 0 -9.4 -9.4 -9.4 -7.7 -13 -13 -13 -9.16667 -9.16667 -8 -8.33333 -7.66667 -9 -9 -8.5 -8.45 -8.45 -9 -8 -8 -8 -8.8 -8.8 -11 -7 -7 -7.5 -7.5 -10.6667 -10.6667 -9 -7.5 -7.5 0 0 -8.33333 -8.33333 0 0 -9.83333 -10.6667 0 0 0 0 -18 -8.66667 -8.66667 -15.5 -15.5 -14.5 -14.5 -14.5 0 -23 -23 0 0 0 0 0 -18 -18 0 -15 0 0 0 -17.125 -19 -18 0 0 0 -18.3333 -23 -7 -17.3333 -20.5 -20.5 -6.25 -10.6 -13.6667 0 -22 -21.5 -21.5 0 -22 0 0 0 0 0 0 0 -28 -28.6667 0 0 0 0 0 0 0 -29.75 -29.5 -29.5 -33 0 -31.5 -31.5 0 0 0 0 0 -36 -30.3333 0 -32 0 0 0 -8 -40.5 -40.5 -40.5 -40 0 0 0 -40.5 0 0 -42 -42 0 -41.3333 -41.3333 -41.3333 -42 -51.8333 -41.8333 -41.8333 0 -41.5 0 0 -43 -43 0 -43.2857 0 0 -44 -40.9333 -40.9333 -38.75 -38.75 -42.75 -42.9 0 -42.9 -42.8333 -41 -43.5 -43.5 -41.5 -45 -44.1667 -30 -41 -35.5 -40.127 -40.127 -40.127 -34.2 -34.2 -34.2 -41 0 0 0 -42.4583 -42.4583 0 -37.6 -37 0 0 -48 -37.2143 -39.5333 -39.5333 0 -42.6667 -41.3333 -41.7582 -37 -41.7582 -41.7582 -41.1667 -41.1667 0 -41.1667 -41.1667 -41.4333 -41.4333 -41.4333 -40 -40 -39.5 -39.5 -39.5 -44 0 0 0 0 -41.1667 -41.1667 0 -39.5 -45.75 0 0 0 0 0 0 0 0 0 0 0 0 0 0 0 -44.6286 0 0 0 0 -45.1778 -36.2 -36.2 -36.2 -51.1667 -51.1667 -45.1167 -45.1167 -49.8286 -49.8286 -49.8286 -33.3333 -39.5 -39.5 -44.6933 -40.5923 -38.9444 -40.5923 -40.5923 -40.5923 -40.5923 -31.75 -40.5923 -40.5923 -40.5923 -45.4909 -43 -41.0909 -49.125 -49.125 -49.125 -49.125 -39.5905 -39.5905 -37.8667 -37.8667 -37.8667 -29.9206 -29.9206 -53.6667 -29.9206 -36.1667 -33.5 -46.4167 -52.75 -42.4 -44.3 -51 -51 -55.3333 -42.4 -40.3333 -42.4 -40.3333 -52.5 -40.8333 -60.5 -19.6667 -61.5 -61.5 -76.4 -38.5 -83 -36.1667 -64 -86.7 -64 -82.5 -97 -97 -37.8889 -88.1 -88.1 -90.9 -39.7 -39.7 0 -71 0 0 -39 -40 0 0 -76 -39.9 -39.9 -39.9 -39.9 -39.3333 -39.3333 -41 -41 -41 0 0 -42 -42.25 -43 0 0 0 0 -33.8333 -33.8333 0 0 0 0 0 -49 0 -37.6667 0 -37.6667 -37.6667 -34.7778 0 0 -32.0833 -80.6667 -32.0833 -40.6 -41.3333 -45 -45 -46.4545 -46.4545 -46.4545 -41.5 -41.5 -43.5 -90.7222 -46.4545 -45.5714 -41.3333 -80.6667 0 -60.5 -38.2 -38.2 -38.2 -51 -32.2 0 -79.75 0 -38 -36.5 0 -66.5 -36.5 -36.5 0 0 0 0 -35.5 -35.5 -39 -37.6667 -37.6667 -40 0 -43.5 0 -41 -41 0 -38 -39.6667 0 0 -95 0 0 0 0 0 0 -37.5 -42.6111 0 -42.6111 -40.1667 -40.1667 -42.6111 -39.9231 -40.1667 -39.9231 -39.9231 0 -38.8 -21.7273 -21.7273 -21.7273 0 -33.5714 0 0 0 0 0 -31.8077 -31.8077 -43.6667 0 0
0 0 0 0 0 0 0 0 0 0 0 0 0 0 0 0 0 0 0 0 0 0 0 0 0 0 0 0 0 0 0 0 0 0 0 0 0 0 0 0 0 0 0 0 0 0 0 0 0 0 0 -45.8333 -45.8333 -46 -46.5 -46.5 0 -46.5 -47.6667 -47.6667 -46 -46.6667 -46.6667 -47 -46 -46.3333 -46.3333 -47.5 -46.5 -46.5 -47 -47 -47.5 -47.5 -48 -47 -47 -47 0 -47 -47 -47.5 -47.5 0 0 -47.5 0 -48 -48 -47.1333 -47.1333 -47.1333 -47 -46.5 -47 -47 -47.5 -46.5 -46.5 -46.5 -47 -46.3333 -46.3333 -46.3333 -47 -47 -47.5 -47.5 -47.5 -47.5 -47.5 -48 -48 -48 -46.6667 -47 -47 -48 -48 -47.75 -48 -47 -47 -48 -48 0 0 -48 -48 -47.5 -47.5 -21 -48 -48 -14.3333 -14.3333 0 0 0 0 0 0 0 0 0 0 0 0 0 0 0 0 0 0 0 0 0 0 0 0 0 0 0 0 0 0 -11.0667 -15.4444 0 -90.25 -90.25 -12.5 0 -10.375 -10.375 -10.5833 -9.6 0 0 0 -9.57143 -9.57143 -7.3 -7.3 -7.3 0 0 -13.3333 -13.3333 -7 -8.25 0 -8 -8 -8 -8 0 -7.66667 -7.66667 -9 -8 -8.45 -8.45 -8.45 -8.5 -9 -8.25 0 0 -9.5 -11 -7.86667 -8.5 0 0 0 -7.66667 -7.66667 0 0 -13 -9.5 -8.33333 -10 -10 0 -10.6667 -10.6667 -11 0 0 0 0 -8.66667 -8.66667 -14.5 -14.5 -16 -16 -16 -16 -16 -13.0833 -17 0 0 0 0 0 0 0 0 0 0 -17.3333 -18.8333 0 -18 0 -18.5 -18.5 -17.3333 -20.6667 0 0 0 0 -6.25 0 -13.6667 -21.5 -21.5 0 0 -18 -22 0 0 0 0 0 0 0 0 -28 -29.5 -29.5 -28 0 0 -29.75 -29.75 -29.75 -33 -33 0 0 0 0 0 0 0 0 -30 -36 0 0 -36.6667 0 0 0 -40 -40.5 -40.5 0 -40 -41 -41 -41 -41 0 -41 0 -41.5 0 0 -40 -41.3333 -38.7 0 0 0 0 -42.5 -42.5 -42.5 0 0 -43.2857 -43.2857 -43.2857 -41 -41 -38 -38 -38 -40.9333 -42.75 -42.9 -42.9 -42.9 -39.4615 -42.8333 0 0 0 -40.7833 -40.7833 -41.4722 -41.4722 -38.65 -40.127 -40.127 -40.127 -40.127 -40.127 -41 -41 -42.6 -42.5 -34.2 0 0 0 -34.2 -37.5833 -36.8571 -36.8571 -41.7083 -43 -36.8 -37.2143 -38.3 -39.6 -41.3333 -38.2 -39.6 -42.6667 -41.3333 -41.7582 -41.7582 -38.5 -41.1667 -40.5 -40.5 -41.4333 -41.4333 -41.4333 -40 0 -40.5 -40.5 -39.5 -44 -44 -44 0 -43 -41.1667 0 -39.5 -45.75 -45.75 0 0 0 0 0 0 0 0 0 0 0 0 0 0 0 -44.6286 -49 -57.75 -49 -49 -55.3333 -55.3333 -56.6667 -36.2 -47.3333 -47.3333 -44.5 -45.1167 -39.5 -45.1167 -45.1167 -49.125 -49.8286 -44.6933 -45.4909 -45.4909 -40.5923 -40.5923 -40.5923 -31.75 -38.9444 -40.5923 -31.75 -40.2222 -31.75 -41.0909 -36.9011 -44.6 -39.5 -49.125 -36.9011 -32.25 -32.25 -39.5905 -39.5905 0 0 -37.8667 0 -50.5 -50.5 -33.5 -50.5 -33.5 -33.5 -24.5 -21 -21 0 -59 -42.4 -49.8333 -55.3333 -49.8333 -66.6667 -62 -40.8333 -21.3333 -4.8 -58.2 -49.1667 -49.1667 -36.1667 -79.1429 -58.5 -58.5 -61.5 -61.5 -75.25 -75.25 -89 -89 -41.2 -41.2 -39.7 -39 0 -40 0 0 0 -40 -40 -40.5 -76 -39.9 0 0 0 0 -73.2857 -64.303 -41 -41 -34.1667 -82.5 -39 -40 -39 -43 0 0 0 0 0 0 0 -41.3333 0 0 -55 -37.6667 -37.6667 0 0 0 -43.5 0 0 0 0 0 0 -41.3333 0 0 -46.4545 0 0 0 0 -67.3333 -90.7222 0 0 0 0 -49 0 0 -39.5 0 0 -32.2 0 0 0 -38 -38 -38 -77.7 -77.7 0 0 -32.8 -32.8 -32.8 0 -32.8 -41.5 -32.8 -75 0 -40 0 -82.5 -43.5 0 0 -92.6667 -92.6667 -39.6667 0 -39 0 -36.6667 0 -33.75 0 0 -41.6 -35.0476 -29.641 -42.6111 -42.6111 -42.6111 -42.6111 -37.1818 -42.6111 -42.6111 -39.9231 -38.8 -38.8 -38.8 -21.7273 0 0 0 -57 0 0 0 -31.8077 -31.8077 -31.8077 0 0
0 0 0 0 0 0 0 0 0 0 0 0 0 0 0 0 0 0 0 0 0 0 0 0 0 0 0 0 0 0 0 0 0 0 0 0 0 0 0 0 0 0 0 0 0 0 0 0 0 0 0 -45.8333 -45.8333 -46 -46.3333 -46.3333 -46.5 -45 -45.5 -45.5 -46 -45.5 -45.5 -46 -46 -46.3333 -45.6667 -46 0 0 -46.75 0 -46.5 -46.5 -47 -47 -47 -47 -45.75 -45.8333 -45.8333 -46.5 -46.5 -47 -47 -46 0 -46.5 -46.5 -47.1333 -47.1333 -46.6667 -47 -47 -47 -47 -47.5 -47 -46 -46 -46.5 -46.3333 -46.3333 -46.5 -46.55 -46.5 -46.5 -47.5 -47 -47 -47 -47 -47 -46.6667 -46.6667 -46.3333 -46 -46.5 -46.5 -46.6667 -46.5 0 0 -46.5 -46 0 0 -48 0 -47 -47 -47 -47 -47 -30 -30 -14.3333 0 0 0 0 0 0 0 0 0 0 0 0 0 0 0 0 0 0 0 0 0 0 0 0 0 0 0 -4.5 -4.5 -15.5 -11.0667 -11.0667 -11.0667 -12.5 0 -9.5 -10.5833 -10.5833 -10.5833 -10.5 -10.5 -11 -11 -9.57143 -9.57143 -8.5 -8.5 -8.5 0 0 -13.3333 -9.57143 -9.33333 -9.33333 0 0 0 0 0 0 0 0 -9 -9.6 0 -9.3 -9.3 0 -9.3 -9 0 0 -11 -7.86667 -7.86667 -8.5 0 0 0 0 0 0 0 0 -9 -10 -10 -11.25 -11 -10 -10 0 0 0 0 0 0 -14.5 -14.5 -16 -13 -15 -12.8 -12.8 -12.8 -20 0 -16 0 0 -17.6667 -18 8.75 0 0 -17.3333 -17.3333 -18.8333 -18.8333 -16 0 0 -18.8333 -18.8333 -17.3333 0 0 0 0 0 -15 0 -21.5 -21.5 -22.3333 -22.3333 -23 -22 0 0 0 0 0 0 0 0 -28 -28.3333 0 0 -30.5 -31 -31 0 -28.75 -28.75 -28.75 -30.3333 -30.3333 0 0 0 0 0 0 0 -30 -34 0 -37 -38 -38.5 -38.5 0 -39 -40 -40 -43 0 -41 -42.1667 -41.5 -40.6667 0 -41.2 -41.2 -41 0 0 -41.3333 -38.7 -42.5 -41.5 0 0 -42.3571 -42.3571 -42.3571 -41.7333 -41.7333 -44 -44 -43.2857 -43.2857 -43.1667 -43.1667 -37.2 -37.2 -37.2 -37.2 -41.8 -42.75 -42.75 -39.4615 -39.4615 -39.4615 -39.4615 -39.4615 0 0 -40.7833 -40.7833 -41.4722 -37.9333 -37.9333 -40.127 -38.65 -38.95 -38.95 -38.65 -52 -42.6 -42.5 -42.5 -42.6667 -39.5 0 0 0 0 -42.4583 -42.4583 -36.8571 -43 -36.8 -33.3333 -46.5 -39.5333 -38.3 -38.3 -39.6 -39 -38.2 -38.2 -38.2 -38.5 -38.5 -38.5 -40.5 -41.4333 -37 -41.4333 -41.4333 -39.5 -39.4 -39.4 -40 -39.25 -39.25 -39.25 -43 -42 0 0 0 0 0 -38.5 -39.5 -40 -39.5 -39.5 -39.5 0 0 0 0 0 0 -44 -53.9206 -53.9206 0 -44.6286 -45.25 -45.25 0 0 0 0 0 0 -44.5 0 -33.75 -33.75 -47.15 0 0 -49.125 -39.5 -39.5 -39.5 0 -41.0909 -41.0909 -31.75 -31.75 -36.6 -36.6 -31.75 -45.4909 -41.0909 -36.9011 -41.0909 -45.4909 -36.9011 -32.25 -32.25 -32.25 -49.125 -39.5905 -39.5905 -49.3611 -59.6905 -45.6 -50.5 -50.5 -50.5 -36 -33.5 -33.5 -24.5 -21 -27.75 -39.2857 -59 -49.8333 -46.1111 -49.8333 -49.8333 -49.8333 -67 -43.2857 -4.8 -64.3333 -58.2 -58.2 -38.5 -71.6667 -78.5 -33.7778 -33.7778 -70.3929 -70.3929 -88.9 -72.8333 -73.75 -89 -41.2 -50.9286 -41.5 -76 -37.9 0 -71 0 -39 -71.75 -52.6 0 0 -79.75 0 0 0 -64.303 0 -64.303 0 -67.3333 -79.75 -34.1667 -34.1667 -82.5 -40 -43 -42.3333 0 -49.2092 0 0 0 0 -33.8333 -33.8333 -48 0 0 0 -40.5 -35.4318 -35.4318 -41.9286 -35.4318 -44 -33.6 0 -41.6 -32.0833 0 0 0 0 0 0 0 0 0 0 0 0 0 0 -49 0 0 0 -39.5 -32.2 -32.2 0 0 0 -57.6667 -57.6667 0 -77.7 0 -77.7 -32.8 -32.8 0 0 0 -35.5 -53.5 -75 -75 0 -45.3 0 -34 0 0 -28.5 -90 -42.3333 0 0 -37.6667 -42.3333 -27.5 -36.6667 -36.6667 -36.6667 0 -41.6 -41.6 0 -42.6111 0 -37.1818 0 -37.1818 -37.1818 -42.6111 -42.6111 0 -38.8 -38.8 0 0 -41.0714 -34.5556 -34.5556 -31 0 0 0 -31.8077 -31.8077 0
0 0 0 0 0 0 0 0 0 0 0 0 0 0 0 0 0 0 0 0 0 0 0 0 0 0 0 0 0 0 0 0 0 0 0 0 0 0 0 0 0 0 0 0 0 0 0 0 0 0 -45 -45.5 -45.5 -46 -46.3333 -46.6667 -45.1667 -45 -45.5 -45.5 -46 -46.5 -46.5 -47 -46 -45.6667 -45.6667 -45.4 -46.3333 -46.3333 0 -46 -45.5 -45.5 -45.5 -45.6 -45.75 -45.75 -45.75 -45.8333 -46.3333 -45.5 -45 -45.5 -45.5 -46 -46 -45.8333 -45.8333 -46 -46.6667 -46.6667 -46.3333 -46 0 0 -47 -46.5 -47 -47 -46.5 -46 -46.5 -46.5 -46.55 -46.55 -46.55 -46.5 -47.5 -45.5 -45.5 -45.5 -46 -46.5 -46.5 -46.3333 -46 -46 -46 -46.6667 -47.5 -46.5 -46.5 0 -45.8667 -45.8667 -45.8667 -47 0 -47.2727 -47.2727 -46.25 -48 -46.2 -46.2 -46.2 -45.5 0 0 0 0 0 0 0 0 0 0 0 0 0 0 0 0 0 0 0 0 0 0 0 0 0 0 0 -4.5 -4.5 -12 -11.0667 -15.4444 -15.4444 0 0 -10.5833 -10.5833 -10.5833 -9.5 -10.5 -10.5 -9.6 -9.6 -11.5 -11.5 -9.57143 -9.57143 -9.57143 -9.91667 -9.91667 -9.57143 -9.57143 -9.33333 0 0 -7 -7 -7 -9 0 0 0 -9.6 -9.6 -8.66667 0 0 -9.3 -9.3 -9.5 0 0 0 -11 -11 -8.5 -9.5 -9.5 -9.5 -9.5 -7.66667 0 0 -10.5 -10.5 -11.25 -11.25 -11.25 -10 0 -11 0 0 0 0 -13.0833 -13.0833 -16 -16 -16 -14.3333 -14.3333 -18 -22.4 -22.4 -22.4 -2.6 0 0 -17.6667 -17.6667 -18 0 0 -18.6667 -19 -19 -19 -18.8333 -18.8333 -18.8333 -18.8333 -18.8333 -20.6667 0 -21.5 0 0 -19.5 -19.5 0 0 0 0 -22.3333 0 -23 0 0 0 0 0 0 0 0 0 -28.3333 0 0 0 -15.5 -25.5 -25.5 -34 -28.75 0 0 -30.3333 -30.75 0 -32 -33.5 -27.5 0 0 0 0 -39 0 0 0 0 0 -39.8333 -38.9 -42 -41 -41 -40.5 -42.1667 -42.1667 0 -43 0 0 0 0 -41 -41 -41 0 -42.5 -37.5 -38.9773 -38.9773 -38.9773 -42.3571 -42.3571 -42.3571 -41.7333 -41.7333 -41.7333 -44 -43.2857 -40.7273 -40.7273 -40.7273 -37.2 -37.2 -37.2 0 -43.8 -43.8 -39.4615 -39.4615 -41.8 -41.8 -39.4615 -43.3333 -43.3333 0 -42.5 -40.7833 -41.4722 -37.9333 -40.127 -40.127 -40.127 -37.9333 -38.65 -38.65 -34.2 -34.2 -37.5 -37.5 -25.5 0 0 -39.5 -39.5 -39.5 -42.4583 0 -37.5833 -36.8571 -39.5 -42.5 -36.8 -38.3 -38.3 0 -39.6 -39.6 -39 -38.2 0 -40.2 -40.2 -40.25 -40 -40 -37 -39.75 -39 -39.5 -39.4 -39.4 -39.4 -40 -39.25 0 0 0 -36 0 0 0 0 -38.5 -38.5 -40 -39.5 0 0 0 0 0 0 0 0 -55 -53.9206 -53.9206 0 0 0 -45.25 -41.3333 -53.5 -33.6667 0 -42.5545 -42.5545 -40.5 -33.75 -40.5 -33.75 -39.5905 -39.5905 -32.25 -26 -26 -39.5 -30 -36.9011 -41.0909 -41.0909 -40.2222 -31.75 -36.6 -36.6 -38.8571 -40.2222 -40.2222 -40.2222 -36.9011 -41.0909 -36.9011 -41.1 0 -38.1667 -32.25 -39.5905 0 -36.5 0 0 0 0 -50.5 -29.5 -29.5 -33.5 -24.5 -27.75 -27.75 -39.2857 -59 -59 -59 -49.8333 -13 -35.5 -43.2857 -43.2857 -56.1226 -56.2857 -28.3333 -32.4571 -52.6667 -28.3333 -71.6667 -58.5 -58.5 -58.5 -70.3929 -88.9 -62.5 0 0 -46.0357 -46.0357 -46.0357 -72 -37.9 -39 0 0 0 -52.6 -52.6 -84 -41 -34.1667 -64.303 -64.303 -64.303 -64.303 0 0 0 -64.303 -34.1667 0 -34.1667 0 0 0 0 0 -32.8571 0 0 -33.8333 0 -12.5 -63.5 -33.5 0 0 0 0 0 0 -41.9286 0 0 0 0 -38.2 0 0 0 -95.8333 -95.8333 0 0 -92.2857 0 0 0 0 -40.6 0 0 -49 0 0 0 0 -39.5 0 0 0 -38.2143 -38.2143 0 -77.7 -57.6667 0 0 0 0 0 0 -35.5 -37.25 -53.5 -53.5 -45.3 -67.7333 -75 0 0 0 -31.2727 -31.2727 -41.5 -31.2727 -31.2727 -31.2727 -92.3333 0 0 -41.4 -41.4 -41.4 -36.6667 -36.6667 -29.641 -35.0476 -35.0476 -41.6 -35.0476 -42.5 -37.1818 -37.1818 -37.1818 -39.9231 -39.9231 -61 0 -38.8 0 -38.8 -32.3333 0 0 0 0 -31.1905 -32.875 -31.8077
0 0 0 0 0 0 0 0 0 0 0 0 0 0 0 0 0 0 0 0 0 0 0 0 0 0 0 0 0 0 0 0 0 0 0 0 0 0 0 0 0 0 0 0 0 0 0 0 0 0 -45 -45.5 -45.5 0 -46.6667 -46.6667 -45.1667 -45.1667 -45.3333 -45.3333 -46 -46.5 -46.5 -47 -45 -45.4 -45.4 -45.4 -46.3333 -46.1667 -45 -45 -45.8333 -45.8333 -45.5 0 -45.5 -45.5 -46.3333 -46.3333 -46.3333 -45.5 -45 -45.25 -45.25 -45 -44.5 -44.5 -45 -45 -46.1667 -46.1667 -46.3333 -46 -45.5 -45.5 -46 -45 -45.5 -45.5 -46 -46 -46 -46 -46.5 -46.55 -46.3333 0 -46.5 -45.5 -45.5 -45.5 -46 0 0 -46.5 -46.3333 -46 -46 -46 -45.5 -45.5 -45.5 -46 -46 -45.8667 -45.8667 -46.1667 0 -47.2727 -47.2727 -47.2727 -46.25 -46.25 -46.25 -46.2 -46.2 0 0 0 0 0 0 0 0 0 0 0 0 0 0 0 0 0 0 0 0 0 0 0 0 0 0 0 -93.6667 -93.6667 -12 0 -12.5 -12.5 0 0 -11.1429 -11.1429 -11.1429 -11.1429 -10 -9.6 -9.6 -11.1667 -10.8333 -10.8333 -11.5 -11.5 -9.91667 -9.91667 -9.57143 -9.57143 -9.57143 -9.42857 0 0 0 0 0 -7 -6.5 0 0 -9.6 -9.6 -8.66667 0 -9 -9 -10 0 -9 -9 -9 -8.5 0 -11 -11 -11.5 -10.3333 -10.3333 -7.75 0 0 -10.5 0 -12 -9.5 -9.5 -10 0 0 0 0 0 -17 -13.0833 -20 -12.8 -12.8 -12 -14.3333 0 -27.3333 -27.3333 -27.3333 0 -14.2 0 0 -18.5 -18.5 -18 0 0 -19 -19.5 -19.5 0 -18.5 0 0 -18.8333 -18.8333 -20.6667 -19 -19 -19 -11.3333 0 0 0 0 0 -23 0 0 -23.5 0 0 0 0 -25.5 -25.5 0 0 0 -28.3333 0 0 0 -19 0 0 -34 0 -34.5 -34.5 0 -30.75 0 -33.5 0 0 0 0 0 0 0 0 0 0 0 0 0 -39.8333 -38.9 -38.9 -41 0 0 -41 0 0 -41.2 -41.8 -41.8 0 -40.5 -40.5 -42.5 -42.5 -38.9773 -37.5 -37.5 -38.9448 -38.9448 -38.9448 -38.9448 -38.9448 -42.3571 0 0 -38 -44 -40.8 0 0 -40.7273 -40.7273 -37.2 -37.2 0 -43.8 -43.8 -41.8 -41.8 -43.8 -41.8 -43.3333 -39.4615 -40.7833 -40.7833 -40.7833 -40.7833 -40.7833 -41.4722 -40.127 -41.4722 -41.4722 -37.9333 -38.6667 -38.95 -37.6 -37.6 -37.6 -38.875 -38.875 -37 -37.25 -37.25 -37.25 -39.5 0 -37.5833 -36.8571 -36.8571 -39.5 -36.8 -36.8 -36.5 -37.2 -37.2 -37.2 -38.5 -38.5 -38 0 -40.2 -40.2 -40.25 -40.25 -40 0 -38.1 -40.7083 -40.2857 -40 -40 -40 -38.3333 0 0 0 0 0 0 0 0 0 0 -38.5 -40 0 0 0 0 0 0 0 0 0 0 0 0 -48.8444 -48.8444 -30.95 -43.9 -41.3333 -53.5 -33.6667 -33.6667 -42.5545 -37.8667 -40.5 -26.2143 -37.8667 -26.2143 -39.5905 -39.5905 -39.5905 -32.25 -53.6667 -53.6667 -27.3333 -41.1 -30 -41.0909 -41.0909 -31.75 -33.6 -33.6 -36.6 -31.75 -31.75 -31.75 0 0 -42.25 -42.25 -40.5 -34.5 -34.5 0 0 -36.5 0 0 0 -29.2571 -46 -46 -46 -18.1667 -38.5 -38.5 -43.5 -37 -59 -41.25 -41.25 -13 -42.8269 -35.5 -39.1364 -67 -52 -35.1667 -56.2857 -32.4571 -28.3333 -52.6667 -52.6667 -40.5455 -40.5455 -67.3333 -40.1667 -38 -62.5 -57.4167 0 0 0 -41.5 -37.9 0 -37.9 0 0 0 0 -52.5 -41.5 0 0 -44 0 -44 -43.8571 -64.303 0 0 -64.303 -84.1667 0 0 0 0 0 -44 0 0 0 0 0 0 0 -82 -82 0 0 -90.5 -91.5 -91.5 0 -33 -93.1667 0 0 0 -39.5 -39.5 0 0 -95.8333 -95.8333 0 0 0 -92.2857 0 0 0 0 0 0 -37.6667 -33 -34 0 0 0 0 0 0 0 0 0 0 0 0 -54 0 -53.5 -53.5 -53.5 -45.25 -35.5 -37.25 -37.25 -37.25 -41.5909 -75 0 0 0 0 -31.2727 -31.2727 -31.2727 -29.6667 -29.6667 -41.5 -42.5 0 0 0 -41.4 0 -41.6 -35.0476 0 -41.6 -41.6 -41.6 -37.1818 0 -29.641 -41 0 0 0 0 0 0 -32.3333 -32.3333 0 0 0 -30 -30 -30
0 0 0 0 0 0 0 0 0 0 0 0 0 0 0 0 0 0 0 0 0 0 0 0 0 0 0 0 0 0 0 0 0 0 0 0 0 0 0 0 0 0 0 0 0 0 0 0 0 0 -45 -45.5 -45.5 -46 -45 -45 -46.5 -45.1667 -45.3333 -45.6667 -45.5 -46 -46 -46.5 -46 -45 -45 -45.4 -46.1667 -46.1667 -45 -45 -43.875 -43.875 -45.5 -44.6667 -44.6667 -44 -45.5 -46.3333 -46.3333 -47 -45 -45.25 -45 -45.25 -44 -44 -44.3333 -45.5 0 0 -46 -45 -45.5 -45.5 -44 -44.8 -45.5 -45.5 -45.5 -45.5 -44.8333 -44.8333 -45 -46.3333 -46.3333 0 -44.3333 -45.0833 -45.0833 -44 -45 -45 -45 -46 -46 -46 -46 -46 -44 -44.2143 -44.2143 -45.4 -45.4 -45.5 -45.5 -45.5 -46.1667 0 0 -47.2727 -47.2727 -47.2727 -47.2727 -48 -44 -45.5 -44.5 -44.5 -1 0 0 0 0 0 0 0 0 0 0 0 0 0 0 0 0 0 0 0 0 0 0 0 0 0 -9.28571 0 -10.7222 -10.7222 -10.5833 -11.1429 -15.4444 -11.1429 -11.1429 -12 -11 -9 -11.1667 -11.1667 -12.4 -10 -9.91667 -9.91667 -9.5 -9.5 -9.5 -9.5 -9.5 -9.57143 0 0 -9.66667 -9.66667 0 -8.5 -6 0 0 -8 -8 -10 -9 -9 -8.75 0 -10 0 0 -10.5 -10 -9.5 0 0 -11.5 -10.3333 -8.75 -7.75 -7.75 -7.75 -10.5 -9.66667 -10 -10 -10 0 0 0 0 0 0 0 -2.6 -10 -17.75 -17.75 -17.75 0 0 0.0416667 0 0 -6 -2.75 0 -18.2 -18.2 -18.2 -18 0 0 0 -19.5 -19.5 -20 -18.6667 -18.5 0 -19.5 -19.5 -20 -19 0 -19 0 -22 -22 0 0 0 -18 -21.5 -21.5 -23.5 0 -23 -23 0 -27 -27 -27 0 0 -27.5 0 -24.3333 -24.3333 0 0 -32.5 -32.5 0 -29.5 -29.5 0 0 0 0 -32.5 0 0 0 0 0 0 0 -39 0 0 0 -38.9 -38.9 0 0 0 -39.6667 -39.6667 0 -42 0 -38.4 -41.8 -41.8 -41.8 -42.5 -42.5 -38.7 -38.7 -38.7 -38.9448 -37.5 -38.9448 -38.9448 -38.9448 -38.9448 -38.9448 -38.9448 -34.125 0 0 0 -40.8 -40.8 -40.8 -40.7273 -40.7273 -40.7273 -40.7273 -37.2 -37.2 0 -41.8 -43.8 -43.8 -43.8 -41.8 -38.3333 -39.4615 -39.4615 -40.7833 0 -42.5 -40.7833 -41.4722 0 0 0 0 -38.6667 -38.95 -37.6 -38.875 -38.875 -38.875 -38.5 -38.5 -37 -37.25 0 -39.5 0 0 -39.25 -36.8571 0 -37 -36.5 -36.5 -37.2 -37.2 0 0 0 0 -38.7143 -40.2 -39.8095 -40.25 -36 0 -37.5 -40.7083 -40.7083 -40.7083 -40.2857 -36.6667 -40.2857 -38.3333 0 -38.3333 0 0 0 0 0 0 0 0 0 0 0 0 0 -31.4 0 0 0 0 0 0 0 -48.7667 -48.8444 -48.7667 -27.3333 -27.3333 -30.95 -36.1667 -29.9206 -29.9206 -37.8667 -26.2143 -29.9206 -37.8667 -37.8667 -37.8667 -37.8667 -39.5905 -39.5905 -39.5905 -39.5905 -28.5 -38.1667 -34 0 -42.25 0 -35.3333 -35.3333 -35.1667 -33.6 -35.1667 -35.3333 -35.3333 -33.8 0 0 -42.25 -36 -28.8333 0 -30.5667 -30.5667 -40.3 -29.3333 -29.3333 -33.2222 -29.2571 -42 -32.5714 -47.2 -22 -33 -43.25 -43.5 -43.5 -21.8333 0 -41.25 -45.2692 -22.6842 -53.2917 -53.2917 -61.0256 -56.1226 -56.2857 -28.3333 -28.3333 -40 -40 -53.7778 0 -40.5455 -40.5455 -67.3333 -55.15 -52.6 0 -62.5 -62.5 0 0 0 0 -54.5 0 -54.5 -54.5 -54.5 0 -44 0 -52.5 0 0 -43.8571 -64.303 -41.8333 0 0 0 -84.1667 0 0 0 0 0 0 0 0 0 -33.5 0 0 0 0 -82 0 0 0 0 -91.5 0 -33 -33 0 0 -32.2 0 -39.5 0 0 0 0 0 0 0 -32 -35.125 -35.125 -35.125 -34.5 -36.2 -33.1667 -33.1667 -36.2 0 0 0 0 -38.2778 -38.2778 0 -84.5 -84.5 0 -70 0 0 0 0 0 -19.0303 -53.5 0 -45.25 -45.25 -46.5 -66 -67.7333 -67.7333 0 -45.5 0 0 -31.2727 -31.2727 0 -29.6667 0 -42.3333 0 -37.6667 0 0 0 0 0 0 0 -33.75 -33.75 -35.0476 -35.0476 -39 -41 -37.1818 -37.1818 0 -37.1818 -38.5 -34.25 0 0 -34 0 0 -31 -31.6667 -31.6667
