-24.5418 -24.5418 -24.5418 -24.5418 -24.5418 -24.5418 -24.5418 -24.5418 -24.5418 -24.5418 -24.5418 -24.5418 -40.5526 -40.5526 -40.5526 -41.8063 -41.8063 -41.8063 -41.8063 -24.5418 -24.5418 -24.5418 -24.5418 -24.5418 -24.5418 -24.5418 -24.5418 -24.5418 -24.5418 -24.5418 -24.5418 -24.5418 -41.8063 -40.5526 -40.5526 -40.5526 -40.5526 -40.5526 -40.5526 -40.5526 -24.5418 -24.5418 -24.5418 -24.5418 -24.5418 -24.5418 -24.5418 -24.5418 -24.5418 -24.5418 -41.8063 -41.8063 -41.8063 -41.8063 -41.8063 -41.8063 -41.8063 -41.8063 -24.5418 -24.5418 -41.8063 -41.8063 -40.5526 -40.5526 -40.5526 -41.8063 -41.8063 0 -41.8063 -40.5526 -40.5526 -40.5526 -40.5526 -40.5526 -39.3788 -5.64032 -5.64032 -40.5526 -40.5526 -39.3788 -39.3788 -39.3788 -39.3788 -39.3788 -40.5526 -40.5526 -40.5526 -40.5526 -41.8063 -41.8063 -40.5526 -40.5526 -40.5526 -40.5526 -40.5526 -41.8063 -41.8063 -41.8063 -24.5418 -39.3788 -40.5526 -40.5526 -40.5526 -40.5526 -40.5526 -40.5526 -40.5526 -41.8063 -41.8063 -41.8063 -41.8063 -41.8063 -41.8063 -41.8063 -41.8063 -41.8063 -24.5418 -24.5418 -24.5418 -24.5418 -41.8063 -41.8063 -41.8063 -41.8063 -41.8063 -41.8063 -41.8063 -80.0526 -80.0526 -80.0526 0 -41.8063 0 0 43 43 -39.9111 -80.4286 0 -74.1 -74.1 -0.00694444 0 0 0 -76.6348 -43.0471 -43.0471 0 0 -81.5 0 0 0 0 0 0 0 -85.3333 -85.3333 0 -42.3333 0 0 0 0 0 0 0 0 0 0 0 0 0 0 0 0 0 0 0 0 0 0 -85 -85 0 0 0 -85 -85 -85 -84 0 0 -85 0 0 -84 0 0 0 0 -84 0 -84 -83 0 0 0 0 -83 0 0 -83 -81 -81 0 0 0 0 0 0 -81 0 0 0 -82 -82 0 0 0 0 0 0 0 0 -81 0 0 0 -80 -80 0 0 0 -80 -80 -80 0 0 0 0 -30 0 0 0 0 0 -24 0 0 -23 -19.3333 0 0 0 0 0 0 -22 0 -21 -20.3333 0 0 0 0 -21.6667 -21.6667 -21 -21 -21 -21.5 -21.5 0 0 -19 -19.3333 0 -19.6667 0 0 -19 0 0 0 0 0 0 0 0 -17.5 -17.5 0 -26 -25.5 -20.5 0 0 0 0 0 0 -21.5 0 0 0 0 0 0 0 0 0 0 0 -22 0 -21.3333 0 -24 0 0 -21 0 0 0 0 0 0 0 -24.3333 -24.3333 -25.5 -22 0 -22.8333 -22.8333 -23.5 -23.5 -23 0 0 -25 0 0 0 0 0 0 0 -23.5 -23.5 -25 -26.3333 -25 -27 0 -26 -26 0 -26 -25 -25 -25 -26 -25 0 0 -27.5 -25 0 0 0 0 -26.5 0 0 0 0 0 0 -27.5 0 -29 0 0 -31.5 -30.2 -30.2 -29.6667 -31.5 -30.5 -33 -38.25 0 0 0 -29 -32 -20.25 -33 -33 0 0 0 0 0 0 3 -32 0 -36 -27.0833 0 0 0 0 0 0 0 0 -56.3208 0 0 -55.4623 -55.4623 0 0 0 0 0 0 0 -35.5687 -35.5687 -38.437 -47.0431 -38.437 -47.0431 -40.2857 -37.1667 -20.75 -75.6 -75.6 -75.6 -40.1429 0 0 0 -55.4623 -55.4623 -56.3208 -64.7012 -56.3208 0 0 -50.8504 -64.7012 -29.75 0 0 0 0 0 0 0 0 -51.8077 0 0 0 0 -68 0 -59.5 0 0 -59 0 -59 0 -59 0 -59 0 -59 -58 -58 -58 0 -58 -58 0 -59 -59 -58 0 -58 -58 0 -58 0 -57 0 -58 0 -57 0 -58 -57 0 -57 0 -57 -57 -56 -56 -56 -56 -56 -56 0 0 0 0 0 0 0 0 0 0 0 0 -54 0 -55 0 -55 -55 0 -55 0 -56 -55 0 -55 -54 -54 -54 -54 -54 -54 -54 -54 0 -54 -54 -54 -54 -53 -53 -53 -53 -53 -53 -53 -53 -53 -53 0 -53 -53 -52 -52 -52 -52 -52 0 -52 -52 0 -52 -52 -51 -51 -51 -51 -51 0 0 -51 0 0 0 0 0 0 0 0 0 0 0 0 0 -50 -49 -49 -49 0 -50 -50 0 -50 -50 -50 -50 -49 -49 -49 0 0 0 0 0 0 0 0 -48 0
-24.5418 -24.5418 -24.5418 -24.5418 -24.5418 -24.5418 -24.5418 -24.5418 -24.5418 -24.5418 -24.5418 -24.5418 -40.5526 -40.5526 -40.5526 -41.8063 -41.8063 -41.8063 -41.8063 -24.5418 -24.5418 -24.5418 -24.5418 -24.5418 -24.5418 -24.5418 -24.5418 -24.5418 -24.5418 -24.5418 -24.5418 -41.8063 -40.5526 -40.5526 -40.5526 -40.5526 -40.5526 -40.5526 -40.5526 -40.5526 -39.3788 -24.5418 -24.5418 -24.5418 -41.8063 -41.8063 -41.8063 -41.8063 -24.5418 -24.5418 -24.5418 -24.5418 -24.5418 -24.5418 -41.8063 -41.8063 -41.8063 -41.8063 -24.5418 -24.5418 -41.8063 -41.8063 -40.5526 -40.5526 -40.5526 -41.8063 -41.8063 0 -41.8063 -40.5526 -40.5526 -40.5526 -40.5526 -40.5526 -39.3788 -39.3788 -39.3788 -40.5526 -40.5526 -39.3788 -39.3788 -39.3788 -39.3788 -39.3788 -40.5526 -40.5526 -40.5526 -40.5526 -40.5526 -41.8063 -40.5526 -40.5526 -40.5526 -40.5526 -40.5526 -41.8063 -41.8063 -41.8063 -24.5418 -39.3788 -40.5526 -40.5526 -40.5526 -40.5526 -40.5526 -41.8063 -41.8063 -41.8063 -41.8063 -41.8063 -41.8063 -41.8063 -41.8063 -41.8063 -41.8063 -41.8063 -41.8063 -41.8063 -41.8063 -24.5418 -41.8063 -41.8063 -41.8063 -41.8063 -41.8063 -41.8063 -41.8063 -80.0526 -80.0526 -80.0526 0 -40.8594 -77.3606 0 0 0 0 -77.3333 0 0 0 -60.2443 -78.3333 0 0 0 0 0 -61.8846 0 0 -81 0 0 0 -83 0 0 0 0 0 0 0 0 0 0 0 0 0 0 0 0 0 0 0 0 0 0 0 0 0 0 0 0 -85 0 0 0 0 0 0 0 0 -84.5 -84.5 -85 0 -84 -84 0 0 0 0 0 0 0 -82 -82 0 0 0 0 -82 -82 0 0 0 0 0 -82 -81 0 -81 0 0 0 0 0 0 0 -81 0 -81 0 0 0 -81 -81 -81 0 0 -80 -80 0 0 0 -80 -80 0 0 0 0 0 -29.5 -29.5 0 0 -29 -24 -24 -24 0 -20 0 0 0 -21.6667 -21.6667 0 0 0 0 0 0 0 0 0 0 -21.75 -21.6667 -21 -21 -21 -21.5 -21.5 0 0 -19 -19.3333 -19.3333 -20 0 0 -19 -17.6 0 0 0 0 0 -24.6667 -18.5 -12.5 -12.5 0 0 0 -22.5 -22.5 0 0 -24.5 0 0 0 0 0 0 0 0 -22.5 0 0 0 0 0 -22.3333 -24 -24 -21.5 0 -22 0 0 0 0 0 0 0 -25 0 -24.3333 -26 -24.6667 0 0 0 0 0 0 0 0 0 -24 0 0 0 -25 -24 0 -24.5 -24.5 -25 -25 0 -26 -26 0 0 -26 -25.5 -25.5 -26 -26.5 -26.5 0 -28 0 -27 0 -25 -25 0 0 0 0 0 0 0 0 0 0 -28 0 -31 0 -29 -30.2 -30.2 -30.2 -34 0 0 44.3333 -38.25 -38.25 0 0 0 0 -20.25 -33 -33.5 -33.5 0 0 0 0 -37 0 0 0 -56 0 0 0 0 0 0 0 0 0 -56.3208 0 0 -55.4623 0 0 0 0 0 0 0 0 0 -47.0431 -47.0431 -38.437 -47.0431 0 0 10.8333 10.8333 0 0 0 0 0 -47.0431 0 0 -56.3208 -64.7012 -64.7012 -64.7012 -64.7012 0 0 -46.8889 -46.8889 0 0 0 0 0 0 0 0 0 0 0 0 -58.5 -58.5 -33.6667 -31.8333 -59 0 -59 0 -58 0 0 0 -59 0 -59 -58 -58 -58 0 -58 -58 -58 0 -59 -59 -58 -58 -58 0 -58 0 -57 0 -58 0 -57 0 0 0 0 0 0 0 0 0 0 0 0 0 0 -56 -56 -56 -56 0 -56 0 -56 -56 0 -55 -55 -54 0 -55 0 -55 0 -56 -55 0 -56 -55 0 -55 -54 -54 0 0 0 0 0 0 0 0 0 0 -54 -54 -53 -53 -53 -53 -53 -53 0 -53 -53 0 -53 -53 -52 -52 -52 -52 0 0 0 0 0 0 0 0 0 0 0 0 0 0 0 -51 0 -51 -51 0 -50 -50 0 -50 -50 -50 -50 -50 0 0 0 0 0 0 0 0 0 -50 -50 -50 -49 -49 0 -49 -49 -49 0 -50 -49 -49 -48 -48 0
-24.5418 -24.5418 -24.5418 -24.5418 -24.5418 -24.5418 -24.5418 -24.5418 -24.5418 -24.5418 -24.5418 -24.5418 -40.5526 -40.5526 -40.5526 -41.8063 -24.5418 -24.5418 -41.8063 -24.5418 -24.5418 -24.5418 -24.5418 -24.5418 -24.5418 -24.5418 -24.5418 -24.5418 -24.5418 -24.5418 -24.5418 -41.8063 -40.5526 -40.5526 -40.5526 -40.5526 -40.5526 -40.5526 -40.5526 -40.5526 -39.3788 -24.5418 -24.5418 -24.5418 -41.8063 -41.8063 -41.8063 -41.8063 -24.5418 -24.5418 -24.5418 -24.5418 -24.5418 -24.5418 -41.8063 -41.8063 -41.8063 -41.8063 -24.5418 -39.3788 -41.8063 -41.8063 -40.5526 -41.8063 -40.5526 -41.8063 -41.8063 0 -41.8063 -40.5526 -40.5526 -40.5526 -40.5526 -40.5526 -40.5526 -40.5526 -40.5526 -40.5526 -40.5526 -39.3788 -39.3788 -39.3788 -39.3788 -39.3788 -40.5526 -40.5526 -40.5526 -40.5526 -40.5526 -41.8063 -41.8063 -40.5526 -40.5526 -40.5526 -40.5526 -41.8063 -41.8063 -41.8063 -41.8063 -39.3788 -40.5526 -40.5526 -41.8063 -41.8063 -41.8063 -41.8063 -41.8063 -41.8063 -41.8063 -41.8063 -41.8063 -41.8063 -41.8063 -41.8063 -41.8063 -41.8063 -41.8063 -41.8063 -41.8063 -41.8063 -41.8063 -41.8063 -41.8063 -41.8063 -41.8063 -41.8063 -41.8063 -80.0526 -80.0526 -80.0526 0 -74.35 0 0 0 -40.5526 55 0 0 0 0 -67.4286 0 0 0 -82.25 -82.25 0 0 0 -83.4645 0 0 0 -63.9447 -85 -84.5 -84.5 0 0 0 0 0 0 0 0 0 0 0 0 0 0 0 0 0 0 0 -85 0 0 0 0 0 0 -85 0 0 0 0 -85 0 0 0 0 0 0 0 0 0 0 0 0 0 0 0 0 0 0 0 0 0 0 0 0 0 0 0 0 0 0 0 0 0 0 0 0 0 0 0 0 0 0 0 0 0 0 0 0 0 0 0 0 0 0 0 0 0 0 0 0 0 0 -34.5 0 0 0 0 0 0 0 -24 -21 -21 0 -21.7 -21.7 -21.7 -21.6667 0 0 0 0 0 0 0 0 0 0 -21.75 -21.75 -21.75 -20 0 -21 0 0 0 -18.1667 -19 -19 0 -19.5 -19.5 0 0 0 -25 0 0 -19.3333 -22 -22 -22 -20.5 0 -23 0 -21.6667 -21.6667 -23 0 -21 -24.5 0 0 0 0 0 0 0 0 0 0 0 0 0 0 -24 0 0 0 -22.5 -22.5 0 0 0 0 -22 -24.6667 -21.3333 -21.6667 -24.6667 0 0 0 0 0 -23 -23 0 0 -24 0 -24.5 0 -24 -23.5 -23.5 -24 -24.5 -24.5 0 -25.1667 -25.1667 0 -26 -26 0 0 -25 0 0 0 -27 0 -29 -27 -27 -26.5 0 0 0 0 -22 -25.1667 -25.1667 -29 0 0 -24.6667 0 0 0 -28 0 0 0 0 0 0 -24.5 -24.5 -30.5 44.3333 -38.25 0 0 0 0 -34.3333 0 0 -34 -21.5 -33.5 64 0 0 -14 0 0 0 0 -56 -59.5 0 0 0 0 0 0 0 0 -56.3208 -47.0431 -56.3208 0 0 0 0 0 0 0 0 0 -47.0431 -47.0431 0 0 0 -50.8504 0 10.8333 10.8333 0 0 -50.8504 -50.8504 -47.0431 0 0 0 -56.3208 -64.7012 -64.7012 -64.7012 0 0 -68 0 0 0 -51.8077 0 0 0 0 0 0 0 0 0 0 -58.5 -58.5 0 -59 0 -59 0 -58 0 -59 0 -58 0 -59 0 -58 -58 0 -58 -58 -58 0 -59 -59 0 0 0 0 0 0 0 0 0 0 -57 0 -58 -57 0 0 0 -57 -57 -57 -56 -56 -56 -56 0 -56 -56 -56 -55 0 -56 0 0 0 0 0 0 0 0 0 0 0 0 0 0 0 0 -55 0 -55 -55 -54 0 -54 -54 -54 -54 -54 0 -54 -54 -54 -54 -54 -53 -53 -53 -53 -53 -53 0 -53 -53 -53 -53 -53 0 0 0 0 -52 -52 -52 -52 0 -52 -52 -52 -51 -51 -51 0 -51 0 -51 0 0 0 0 0 0 0 0 0 -50 -50 -50 -50 -50 -49 -49 -49 0 -49 0 0 -50 -50 -50 -49 -49 -49 0 -49 -49 -49 0 -50 -49 -49 -48 -48 0
-24.5418 -24.5418 -24.5418 -24.5418 -24.5418 -24.5418 -24.5418 -24.5418 -24.5418 -24.5418 -24.5418 -24.5418 -40.5526 -40.5526 -40.5526 -24.5418 -24.5418 -24.5418 -41.8063 -24.5418 -24.5418 -24.5418 -24.5418 -24.5418 -24.5418 -24.5418 -24.5418 -24.5418 -24.5418 -24.5418 -24.5418 -41.8063 -40.5526 -40.5526 -40.5526 -40.5526 -40.5526 -40.5526 -40.5526 -39.3788 -39.3788 -39.3788 -24.5418 -24.5418 -41.8063 -41.8063 -40.5526 -40.5526 -39.3788 -39.3788 -24.5418 -24.5418 -24.5418 -24.5418 -24.5418 -41.8063 -41.8063 -41.8063 -41.8063 -39.3788 -40.5526 -40.5526 -41.8063 -41.8063 -41.8063 -40.5526 -40.5526 -41.8063 -40.5526 -40.5526 -40.5526 0 -40.5526 -40.5526 -40.5526 -40.5526 -40.5526 -40.5526 -40.5526 -39.3788 -39.3788 -24.5418 -40.5526 -40.5526 -40.5526 -40.5526 -40.5526 -40.5526 -41.8063 -41.8063 -41.8063 -41.8063 -40.5526 -40.5526 -40.5526 -40.5526 -41.8063 -41.8063 -41.8063 -40.5526 -40.5526 -40.5526 -41.8063 -41.8063 -41.8063 -41.8063 -41.8063 -41.8063 -41.8063 -41.8063 -41.8063 -41.8063 -41.8063 -41.8063 -41.8063 -41.8063 -41.8063 -41.8063 -41.8063 -41.8063 -41.8063 -41.8063 -41.8063 -41.8063 -41.8063 -41.8063 -41.8063 -80.0526 -80.0526 -80.0526 0 -83.7213 -27.7 0 0 0 0 0 0 0 0 -55.8 -77.3606 0 0 0 0 0 0 0 0 0 0 -80 0 0 0 -84 0 0 0 0 0 0 0 0 0 0 0 0 0 0 0 0 0 0 0 -85 0 0 0 0 -85 -85 -85 0 0 0 -85 0 -85 0 0 0 0 0 0 0 0 0 0 0 0 0 0 0 0 0 0 0 0 -82 -82 0 0 -81 -81.5 -81.5 0 0 -81 -81 -81 -81 0 0 0 -81 0 0 -80 0 -80 0 0 0 -81 -81 -81 0 0 0 -80 0 0 0 -80 -80 -80 0 0 0 0 0 0 0 0 0 0 0 -24 -21 -21 0 0 -21.7 -21.7 0 -22.5 -22.5 0 0 -20.5 0 -21 -21 -21 0 0 -21 0 0 -19 0 -18.1667 -18.1667 -18.1667 -18.1667 -18.1667 0 0 -20 0 0 -20.5 0 0 0 0 0 -19.3333 0 0 0 0 0 -23 0 -21.6667 0 0 0 -23 0 0 0 0 0 0 -22.5 -22.5 -22 0 0 0 0 0 0 0 -22 -21 -21 -21 -21 0 0 0 0 -22 -21.6667 -21.6667 -22.5 -23 -24.5 -23 0 -23.5 -22.5 0 0 0 0 -24 -24 -24 -24.5 -24.5 -25 0 0 0 0 -26 -25.1667 0 0 -26 0 0 -25 -25 0 -25 -25 0 0 -27.5 -27 0 0 0 0 0 0 0 0 0 -25.5 -25.5 -24.6667 0 0 0 -28 0 0 -30.5 -33 -30.5 0 0 -31.1667 -31.1667 0 0 0 0 0 0 0 0 -36.5 0 0 0 0 0 0 0 0 0 0 0 0 0 0 0 0 0 0 0 0 0 0 -25.9048 -47.0431 -56.3208 0 0 0 0 0 0 0 -47.0431 -47.0431 0 0 0 -47.0431 -50.8504 0 0 0 -50.8504 0 0 -30.75 -47.0431 0 0 0 0 -56.3208 -64.7012 -64.7012 0 -22.1429 -9.92923 -55.4623 0 0 -51.8077 0 0 0 0 0 0 0 0 0 0 0 0 -72 -59 0 -59 0 -58 0 -59 -58 0 0 -59 0 0 0 0 -58 0 0 0 -59 -59 -59 -58 -57 0 -58 -58 -57 0 -58 0 -57 0 -58 -57 0 0 0 0 0 0 0 0 0 0 0 0 0 0 0 0 0 0 -56 -56 0 -55 -55 -54 0 -55 0 -55 0 -56 -55 0 -56 -55 0 -55 -55 -54 -54 -54 -54 0 0 0 0 0 0 0 0 0 0 0 0 0 0 0 -53 -53 -53 0 -53 -53 0 -52 -52 -52 -52 0 -52 -51 0 0 -52 0 0 -51 -51 -51 -51 0 -51 -51 0 -51 -51 -50 -50 -50 -50 -50 -50 -50 -50 -50 -50 -50 -49 0 -49 -49 -49 0 0 -50 -50 0 0 -49 0 -49 -49 -49 0 0 0 0 0 0 0
-24.5418 -24.5418 -24.5418 -24.5418 -24.5418 -24.5418 -24.5418 -24.5418 -24.5418 -24.5418 -24.5418 -24.5418 -40.5526 -40.5526 -40.5526 -24.5418 -24.5418 -24.5418 -41.8063 -24.5418 -24.5418 -24.5418 -24.5418 -24.5418 -24.5418 -24.5418 -24.5418 -24.5418 -24.5418 -24.5418 -24.5418 -40.5526 -40.5526 -40.5526 -40.5526 -40.5526 -40.5526 -39.3788 -39.3788 -39.3788 -39.3788 -39.3788 -39.3788 -39.3788 -41.8063 -40.5526 -40.5526 -40.5526 -39.3788 -39.3788 -24.5418 -24.5418 -24.5418 -24.5418 -24.5418 -41.8063 -41.8063 -41.8063 -40.5526 -39.3788 -41.8063 -41.8063 -41.8063 -40.5526 -41.8063 -40.5526 -40.5526 -40.5526 -40.5526 -40.5526 -40.5526 0 -41.8063 -40.5526 -40.5526 -40.5526 -40.5526 -40.5526 -40.5526 -24.5418 -24.5418 -41.8063 -41.8063 -40.5526 -40.5526 -40.5526 -40.5526 -40.5526 -41.8063 -41.8063 -41.8063 -41.8063 -40.5526 -40.5526 -40.5526 -40.5526 -41.8063 -41.8063 -41.8063 -40.5526 -40.5526 -41.8063 -41.8063 -41.8063 -41.8063 -41.8063 -41.8063 -41.8063 -41.8063 -41.8063 -41.8063 -41.8063 -41.8063 -41.8063 -41.8063 -41.8063 -41.8063 -41.8063 -41.8063 -41.8063 -41.8063 -41.8063 -41.8063 -41.8063 -41.8063 -41.8063 -41.8063 -41.8063 -41.8063 -41.8063 0 -40.5526 -40.8594 -27.5 -27.5 -44.6667 -74.4091 0 0 0 0 0 0 0 0 0 0 0 0 0 0 0 0 0 0 0 0 -83.5 0 0 0 0 0 0 0 0 0 0 0 0 0 0 0 0 0 0 0 0 0 0 0 0 0 -85 -85 0 0 0 -85 -85 -84 0 -83.5 -83.5 0 0 0 0 -83 0 0 0 0 0 -83 0 -82 -82 0 0 -82 -82 0 -82 0 -81 0 0 0 0 0 -81 -81 0 0 0 -81 0 0 0 -80 0 -80 0 0 0 -80 -81 -81 0 0 0 -80 0 0 0 -80 -80 -80 0 0 0 0 -33.5 -33.5 0 -31 0 0 0 0 -20 0 0 0 -22.5 -22.5 0 0 0 -22 -22 0 0 0 0 0 -21 0 0 0 0 -21 0 0 0 0 0 0 -23 0 -19.5 -19.5 0 0 0 -21.6667 0 -21.6667 -21.6667 0 0 -19.3333 0 0 0 -23 -21 0 0 -21 -21 0 0 0 0 0 0 0 0 0 0 0 -22.5 0 0 0 0 0 -25 0 0 0 -21 0 0 0 0 -24.5 0 -22.5 0 -21 -23 -23.6667 0 -23 -22.5 0 0 -23 0 0 -24 0 0 0 -24 -23.5 -23.5 -25.5 0 -25.5 -25 -25 0 -26 0 -25.5 -25.5 -25 0 -27 0 -29 -29 0 0 -26 0 0 -28 0 0 -28 -24.6667 0 0 -27 -27 0 -28 -28 0 0 0 0 -29 0 -32.8 -32.8 -30.5 -30.5 0 -32.8 0 0 0 0 0 0 -34 13 0 -66.25 0 0 0 0 0 0 0 0 0 0 0 0 0 0 0 0 0 0 0 0 -47.0431 -47.0431 -56.3208 -54.6833 0 0 0 -33.2 0 -47.0431 0 0 0 0 -47.0431 0 0 -53.1881 -53.1881 -47.0431 -47.0431 0 0 0 0 -56.3208 -56.3208 -56.3208 -56.3208 -56.3208 -56.3208 0 0 -2.75635 0 0 -51.8077 -51.8077 -51.8077 0 0 0 0 0 0 0 0 0 0 -19.5 -59 0 -59 -11.5 0 -58 0 -59 -58 0 0 -59 -58 0 -58 -58 -58 -58 -58 -58 0 -59 -59 -58 -57 0 -58 -58 -57 0 -58 0 0 0 0 0 0 -57 0 -57 -57 -57 -56 -56 -56 -56 -56 -56 -56 -56 -55 0 -56 -55 0 -56 0 -55 0 -54 0 -55 -54 0 0 0 0 0 0 0 0 0 0 0 0 0 0 -54 -54 -54 0 -54 -54 -54 -54 -54 -54 -53 -53 -53 -53 -53 -53 -53 -53 0 -53 0 -53 -52 0 -52 -52 0 -52 -52 0 -52 -52 -52 0 -51 -51 -51 -51 0 -51 -51 0 -51 -51 -50 -50 0 0 -50 -50 -50 0 0 -50 -50 0 0 0 0 0 0 0 0 0 0 -49 0 0 0 0 0 0 -49 -49 -49 -48 -49 0
-24.5418 -24.5418 -24.5418 -24.5418 -24.5418 -24.5418 -24.5418 -24.5418 -24.5418 -24.5418 -24.5418 -39.3788 -39.3788 -40.5526 -41.8063 -24.5418 -24.5418 -24.5418 -24.5418 -41.8063 -24.5418 -24.5418 -24.5418 -24.5418 -24.5418 -24.5418 -24.5418 -24.5418 -24.5418 -24.5418 -39.3788 -39.3788 -41.8063 -41.8063 -41.8063 -41.8063 -41.8063 -39.3788 -39.3788 -39.3788 -24.5418 -24.5418 -24.5418 -24.5418 -39.3788 -39.3788 -39.3788 -39.3788 -39.3788 -39.3788 -24.5418 -24.5418 -24.5418 -41.8063 -41.8063 -41.8063 -41.8063 -41.8063 -39.3788 -24.5418 -39.3788 -39.3788 -40.5526 -41.8063 -40.5526 -40.5526 -40.5526 -40.5526 -39.3788 0 0 -24.5418 -41.8063 -41.8063 -41.8063 -41.8063 -41.8063 0 -41.8063 -41.8063 -41.8063 -41.8063 -41.8063 -40.5526 -40.5526 -40.5526 -40.5526 -41.8063 -41.8063 -41.8063 -41.8063 0 -40.5526 -40.5526 -41.8063 -41.8063 -41.8063 -41.8063 -40.5526 -40.5526 -40.5526 -40.5526 -40.5526 -40.5526 -41.8063 -41.8063 -41.8063 -24.5418 -39.3788 -39.3788 -41.8063 -41.8063 -41.8063 -41.8063 -41.8063 -41.8063 -41.8063 -41.8063 -41.8063 -41.8063 -24.5418 -24.5418 -24.5418 -24.5418 -41.8063 -41.8063 -41.8063 0 0 0 0 0 -67 0 0 -75.1 -77.3606 0 -55.8 0 0 0 -40.5526 0 -54 0 0 0 -67.5 0 0 0 0 0 0 0 0 -85.5 -85.5 -85.5 0 0 0 0 0 0 0 0 0 0 0 0 0 0 0 0 0 0 0 0 0 0 0 0 0 0 0 0 0 0 0 0 0 0 0 0 0 0 0 0 0 0 0 0 0 0 0 0 0 0 0 0 0 0 -82 -81.3333 0 0 0 0 0 -81 -81 0 0 0 -81 0 0 0 -80 0 -80 0 0 0 -80 -80 0 0 0 -80 -80.5 -80.5 0 -80 -80 -80 0 0 0 0 0 0 -35.75 0 0 -21 0 0 -19.3333 0 0 0 0 0 -22 0 0 0 0 0 -20.5 0 0 0 0 0 0 0 -21 0 0 -20.5 0 0 0 0 0 -23 0 0 -20.6 0 0 -19 -20 -20 0 0 0 0 0 -18.5 0 0 -20 0 0 0 -22 -22.5 -22.5 0 -21 0 0 0 0 0 0 0 0 0 -22.5 0 0 0 0 0 0 0 -25 -21.5 -21.5 -21.5 0 0 -23.5 -25 -23.5 -26 -23 -23.6667 -23.6667 -23 0 0 0 0 -23.5 0 -24 -24 -24 0 0 -25 -25 -25.5 -25.5 0 -25.3333 0 0 -25 -27 0 -25.5 -25.5 0 0 -26 -26.3333 0 -27 -25.8333 -25.8333 -26 -26.5 -26.5 0 -27 -27 0 -28 -27.5 -27 0 -26.6667 0 0 0 0 -29 -29 0 -29.5 0 0 0 -32.8 0 0 -31 -32.8 0 42.25 0 0 0 -9.66667 -35 0 0 0 0 0 0 0 0 0 0 0 0 0 0 0 0 0 0 -33.2 0 0 0 -47.0431 -47.0431 -62.9048 0 0 0 0 0 -33.2 -47.0431 0 0 0 0 0 -47.0431 -22.8857 -53.5833 -22.8857 -47.0431 -47.0431 -56.3208 0 0 -56.3208 -56.3208 -56.3208 -56.3208 -56.3208 -56.3208 -56.3208 0 0 -56.3208 -56.3208 0 0 0 0 0 0 0 -39 0 0 0 0 0 0 0 -59 -59 -59 -59 0 -59 0 -59 -58 0 0 -59 -58 0 -58 -58 -58 0 0 0 0 -59 -59 -59 -57 0 -58 -58 -57 0 -58 0 0 0 -58 -57 -57 -57 0 -57 0 -57 -57 -56 -56 -56 0 0 0 0 0 0 0 0 0 0 0 0 0 0 0 0 0 0 0 0 -55 0 -56 -55 0 -55 -55 0 -54 -54 -54 0 -54 -54 -54 -54 0 -54 -54 -54 0 0 0 -53 -53 -53 -53 -53 -53 0 -53 -53 -53 -52 -52 -52 -52 -52 -52 -52 0 -52 0 0 -52 0 -51 -51 -51 0 -51 -51 0 0 0 0 0 0 0 0 0 0 -50 -50 0 0 -49 0 -50 -49 0 -50 -49 -49 0 0 -49 -49 0 -49 -49 0 -50 -49 -49 0 -48 0 -49
-24.5418 -24.5418 -24.5418 -24.5418 -24.5418 -24.5418 -24.5418 -24.5418 -24.5418 -24.5418 -24.5418 -39.3788 -39.3788 -40.5526 -41.8063 -24.5418 -24.5418 -24.5418 -24.5418 -41.8063 -24.5418 -24.5418 -24.5418 -24.5418 -24.5418 -24.5418 -24.5418 -24.5418 -24.5418 -24.5418 -24.5418 -24.5418 -41.8063 -41.8063 -41.8063 -41.8063 -41.8063 -24.5418 -24.5418 -24.5418 -24.5418 -24.5418 -24.5418 -24.5418 -24.5418 -39.3788 -39.3788 -39.3788 -39.3788 -39.3788 -24.5418 -24.5418 -24.5418 -41.8063 -41.8063 -41.8063 -41.8063 -40.5526 -40.5526 -39.3788 -39.3788 -39.3788 -39.3788 -40.5526 -40.5526 -40.5526 -40.5526 -40.5526 -24.5418 0 0 -24.5418 -41.8063 -41.8063 -41.8063 -41.8063 -41.8063 -41.8063 -41.8063 -41.8063 -41.8063 -41.8063 -41.8063 -41.8063 -40.5526 -40.5526 -41.8063 -41.8063 -41.8063 -41.8063 -41.8063 -40.5526 -40.5526 -40.5526 -41.8063 -41.8063 -41.8063 -41.8063 -40.5526 -40.5526 -40.5526 -40.5526 -40.5526 -40.5526 -41.8063 -41.8063 -41.8063 -41.8063 -39.3788 -39.3788 -41.8063 -41.8063 -41.8063 -41.8063 -41.8063 -41.8063 -41.8063 -41.8063 -41.8063 -41.8063 -41.8063 -41.8063 -41.8063 -41.8063 -41.8063 -41.8063 -41.8063 0 0 0 0 0 -78 0 0 -58.5 0 -65.5 -63.5 0 0 0 0 0 0 0 0 0 0 0 0 -62.75 -62.75 0 0 0 0 -84.8571 -84.8571 0 0 0 0 0 0 0 0 0 0 0 0 0 0 0 0 0 0 0 0 0 0 0 0 0 0 0 0 0 0 0 0 0 0 0 0 0 0 0 0 0 0 0 0 0 0 0 0 0 0 0 0 0 0 0 -82 -81.3333 -81.3333 0 0 0 0 0 0 0 0 0 -81 -81 0 0 -80 -80 -80 0 0 0 -80 0 0 0 0 -80 -80.5 -80.5 0 0 0 0 0 0 -34 0 0 0 0 0 0 0 0 0 -21 0 0 0 0 -21 -21 0 0 0 -22 -19 0 0 0 0 0 0 0 0 0 -11 0 0 0 0 0 0 0 0 0 0 0 -18.6667 -18.6667 0 -19 0 0 0 0 0 -20 -24.6667 -24.6667 0 0 -22 0 -21.5 0 0 0 0 0 0 0 0 0 0 0 0 0 0 0 0 -20.5 0 0 0 0 -20.5 -26 -26 -26 0 0 0 0 0 0 -23.6667 -22 0 0 -23 -23 0 -23 0 -23.5 0 0 -24 -24 -24 -24 -24 0 -24.5 -24.5 -25 0 0 0 -26 -26.5 -25 0 -25 -26.3333 -26.3333 -26.5 -26.75 -27 -27 -25.8333 -26.5 0 0 0 -26.5 -26.5 -27 0 -27.5 -27 -26.6667 0 -27.5 -26.6667 0 -30 -29 -29 0 -29.5 -29.5 -29.5 -29.5 -36.5 -31.6 -31.6 -31.6 -31.6 0 0 0 0 0 0 -9.66667 0 0 0 0 0 -4.11905 0 -38.75 0 0 0 0 0 0 0 0 0 0 0 0 0 0 0 0 -56.3208 -56.3208 -56.3208 0 0 -47.0431 -56.3208 0 65 0 0 0 0 -47.0431 -53.1881 -53.1881 -53.1881 0 0 -56.3208 -5.64032 -5.64032 0 -2.75635 -2.75635 -56.3208 -56.3208 -56.3208 -47.0431 -53.1881 0 0 -54.6833 -9.92923 -9.92923 0 0 0 -61.5 0 0 -56 0 0 0 0 0 -59 0 -59 -59 -59 -59 0 0 0 0 0 0 0 0 0 0 -58 0 -58 -58 -58 -58 -58 0 -59 -59 -57 0 -58 0 -57 0 0 0 -57 0 0 0 0 -57 0 -57 0 0 -57 -56 0 -56 -56 -56 -56 -56 -55 0 -56 0 -56 -56 0 -56 0 -56 0 0 0 0 0 0 0 0 0 0 0 0 0 0 0 0 0 0 0 0 0 0 0 0 0 0 -54 -53 -53 -53 -53 -53 -53 -53 -53 0 -53 -53 -53 -53 0 -52 -52 -52 -52 -52 0 0 -52 0 -52 0 0 0 0 -51 -51 -50 0 -51 -51 0 -50 0 -50 -50 -50 0 -50 -50 -50 -50 -49 0 -49 -49 0 -49.5 -49 -49 -49 0 0 0 0 0 0 0 0 0 0 0 0 0 0
-24.5418 -24.5418 -24.5418 -24.5418 -24.5418 -24.5418 -24.5418 -24.5418 -24.5418 -24.5418 -24.5418 -24.5418 -24.5418 -40.5526 -40.5526 -39.3788 -39.3788 -24.5418 -24.5418 -24.5418 -24.5418 -24.5418 -24.5418 -24.5418 -24.5418 -24.5418 -24.5418 -24.5418 -24.5418 -24.5418 -24.5418 -41.8063 -41.8063 -41.8063 -41.8063 -41.8063 -41.8063 -24.5418 -24.5418 -24.5418 -24.5418 -24.5418 -24.5418 -24.5418 -24.5418 -24.5418 -24.5418 -24.5418 -24.5418 -24.5418 -24.5418 -24.5418 -41.8063 -41.8063 -41.8063 -41.8063 -41.8063 -40.5526 -40.5526 -40.5526 -40.5526 -39.3788 -39.3788 -40.5526 -40.5526 -40.5526 -41.8063 -24.5418 -24.5418 0 0 -24.5418 -41.8063 -40.5526 -40.5526 -40.5526 -40.5526 -40.5526 -40.5526 -41.8063 -41.8063 -41.8063 -41.8063 -41.8063 -41.8063 -41.8063 -41.8063 -41.8063 -41.8063 -41.8063 -41.8063 -41.8063 -40.5526 -40.5526 -41.8063 -41.8063 -41.8063 -41.8063 -41.8063 -40.5526 -40.5526 -41.8063 -40.5526 -40.5526 -40.5526 -40.5526 -41.8063 -41.8063 -41.8063 -41.8063 -41.8063 -41.8063 -41.8063 -41.8063 -41.8063 -41.8063 -41.8063 -41.8063 -41.8063 -41.8063 -41.8063 -41.8063 -41.8063 -41.8063 -41.8063 -41.8063 -41.8063 -24.5418 -24.5418 0 -82.2257 48.9333 0 0 0 -79.8667 0 0 -60 -60 0 0 0 0 -57.5 -57.5 0 -83.7213 0 0 0 0 0 0 0 0 -84.8571 0 0 -84.8571 0 0 0 0 0 0 0 0 0 0 0 0 0 0 0 0 0 0 0 0 0 0 0 0 0 0 0 0 0 0 0 0 0 0 0 0 0 0 0 0 0 0 0 0 0 0 0 0 0 0 0 0 0 0 0 0 0 0 0 0 0 -81 0 0 0 0 0 0 0 0 0 0 -80 0 0 0 0 0 0 -79 0 -79 0 0 0 0 -80 -80 0 0 0 0 0 0 0 -25 0 0 0 0 0 0 0 0 -21 -21 -21 0 0 0 -20 0 0 0 0 0 0 0 0 0 -16 0 -16 0 0 -17.3333 0 0 -19.8333 -19.8333 -19.8333 -18.6667 -19.8333 -19.3333 -17 -22 -19.3333 0 -21 -21 -21 -20 0 0 0 0 0 -24.6667 -22 -22 0 0 0 0 0 0 0 0 0 0 0 -21.5 0 0 -22.5 0 0 0 0 0 -21 0 -22 -22 -22 0 0 0 -22 -24 0 -23 -23 0 0 -23 -23 0 0 -24 0 -23 0 -24 0 0 0 0 -26.5 -25 -25.5 -26 -25 -25 0 -26.5 0 -26 -25 -26 -26.75 -26.75 -28 -26.75 -27 0 0 -26.5 -25 0 0 0 0 -27 -27.3333 0 0 -27.5 -27.5 0 -27.5 0 -29 -28 -28 0 0 -28.5 -31.6 0 -31 0 0 -45 0 -34 0 0 0 -34.3333 -34.3333 0 0 0 0 0 0 0 17 0 0 0 0 0 0 0 0 -36 0 0 0 0 0 0 0 0 -56.3208 -56.3208 -56.3208 -47.0431 0 -62.9048 -56.3208 0 0 0 0 0 0 -47.0431 -27.0833 -53.1881 -53.1881 -47.0431 0 -53.1881 -2.75635 -55.4623 0 -9.92923 -9.92923 -2.75635 -2.75635 -2.75635 -2.75635 -2.75635 0 -48 -56.3208 -2.75635 -2.75635 22.2667 -49 0 0 0 0 0 0 0 0 0 -59 -61 -59.5 -59.5 -59 -59 -59 0 -59 0 -59 0 -58 -58 0 -58 0 -58 0 -58 -58 -58 -58 -58 0 -59 -59 -59 0 -58 0 0 0 0 0 0 0 -58 -57 0 -57 0 -57 -57 0 -57 -57 0 -56 0 -56 -56 -56 -55 0 0 0 0 0 0 0 0 0 0 -54 -54 -54 0 -55 -55 0 -56 -55 0 -55 -55 -55 0 -54 -54 0 -54 0 -54 -54 0 -54 -54 -54 -54 -54 -53 -53 -53 -53 -53 -53 -53 0 0 -53 0 0 0 0 0 0 0 0 0 -52 -52 0 -52 -51 -51 -51 -51 -51 -51 -50 0 -51 -51 0 -50 -50 -50 -50 0 -50 -50 -50 -50 -50 -50 0 -49 -49 -49 0 0 0 0 0 0 -49 0 -49 -49 -49 0 -49 -49 0 -49 0 -49
-24.5418 -24.5418 -24.5418 -24.5418 -24.5418 -24.5418 -24.5418 -24.5418 -24.5418 -24.5418 -24.5418 -24.5418 -24.5418 -41.8063 -40.5526 -39.3788 -39.3788 -39.3788 -24.5418 -24.5418 -24.5418 -24.5418 -41.8063 -24.5418 -24.5418 -24.5418 -24.5418 -24.5418 -24.5418 -24.5418 -41.8063 -41.8063 -41.8063 -41.8063 -41.8063 -41.8063 -40.5526 -24.5418 -24.5418 -24.5418 -24.5418 -24.5418 -24.5418 -24.5418 -24.5418 -24.5418 -24.5418 -24.5418 -24.5418 -24.5418 -24.5418 -24.5418 -24.5418 -41.8063 -41.8063 -41.8063 -41.8063 -41.8063 -41.8063 -41.8063 -41.8063 -39.3788 -39.3788 -40.5526 -40.5526 -40.5526 -41.8063 -24.5418 -24.5418 -5.64032 -5.64032 -40.5526 -40.5526 -40.5526 -40.5526 -40.5526 -40.5526 -39.3788 -40.5526 -40.5526 -40.5526 -41.8063 -41.8063 -41.8063 -41.8063 -41.8063 -41.8063 -41.8063 -41.8063 -41.8063 -41.8063 -41.8063 -41.8063 -40.5526 -40.5526 -40.5526 -40.5526 -41.8063 -41.8063 -41.8063 -41.8063 -41.8063 -40.5526 -40.5526 -40.5526 -40.5526 -41.8063 -41.8063 -41.8063 -41.8063 -41.8063 -41.8063 -41.8063 -41.8063 -41.8063 -41.8063 -41.8063 -41.8063 -24.5418 -24.5418 -41.8063 -41.8063 -41.8063 -41.8063 -41.8063 -41.8063 -41.8063 -41.8063 -24.5418 -56.2518 0 0 20.8571 20.8571 -31.5 0 0 0 0 0 0 0 -82.2257 -83.7213 -41.8063 -41.8063 -83.7213 -83.7213 0 0 0 0 0 0 0 0 -84.8571 0 0 -84.8571 0 0 0 0 0 0 0 0 0 0 0 0 0 0 0 0 -85 0 0 0 0 0 0 -85 0 0 0 -84.5 0 0 0 0 0 0 -83 0 0 0 0 0 0 0 0 -83 -83 0 -82 -82.5 -82.5 0 -82 0 -82 -82 0 -81.5 -81.5 -82 -82 0 0 -81 0 -81.5 -81.5 0 -81 -81 -80 0 0 0 -80.5 -80.5 0 0 0 0 0 -79 0 -79 -79.5 -79.5 0 0 -79 0 0 0 0 0 0 0 0 0 0 0 -19.5 0 0 -20 -19.5 -19.5 0 -20 -20.5 -20 -20 -19.5 0 0 0 0 0 0 0 0 0 0 0 0 0 0 0 -17.3333 -17.3333 -19.8333 -19 0 0 -17 -17 -19.8333 -19.3333 -22 0 0 0 0 0 0 0 -22 0 0 -22 0 0 -25 0 0 0 0 0 0 0 0 -24 0 -21.5 -21.6667 0 0 0 0 0 0 0 0 -24 0 0 0 -23.5 -26 -22.5 0 -22.5 -23 -22 -23 -23 -22 0 -23 -23 0 0 0 -24.25 -23 -23 0 0 -24.5 -24.5 -25 -25 -25.5 -25 -25 -25 -25 0 0 0 0 0 0 -25 -28 -27 -26.5 0 -27 -27 -26 0 0 0 0 0 0 -27.3333 -27.3333 -28 -27 -27 0 0 0 -28.5 -29.5 -29.5 0 -31 -31 0 0 0 -32 0 0 0 -34.25 42.25 -34.25 42.25 0 19.5 0 0 0 0 0 0 0 0 0 0 0 0 0 0 0 0 0 0 0 0 0 0 0 -47.0431 -47.0431 -47.0431 -56.3208 -5.64032 0 -56.3208 -56.3208 -56.3208 0 0 -47.0431 0 0 0 -47.0431 -54.7 -53.1881 -47.7857 -53.1881 -45.107 -53.1881 -53.1881 -47.0431 -55.4623 -9.92923 -9.92923 -9.92923 -9.92923 -2.75635 -2.75635 -2.75635 -48.0714 -48.0714 -53.127 0 -2.75635 -56.3208 0 0 0 0 0 0 0 0 0 0 0 0 -84.5 -59.5 0 0 -59 0 -59 0 -59 0 -58 -58 0 0 0 0 0 0 0 -58 -58 -58 0 -59 -59 -59 0 0 0 -57 0 -58 0 -57 0 0 0 0 0 0 0 0 -57 -57 -57 0 -56 -56 -56 0 -56 -55 0 -56 0 -56 -55 0 -55 0 -56 -54.5 -54.5 0 -54 0 -55 -55 0 -55 -55 0 -55 -55 -55 0 0 0 0 0 0 0 0 0 0 0 0 0 0 0 0 0 0 0 0 0 0 -53 0 0 -53 0 -52 -52 0 0 -52 0 -52 -52 -52 -52 -52 -51 -51 0 -51 -51 0 -51 -51 -51 0 -50 -50 -50 -50 0 -50 0 0 0 0 0 -49 -49 -49 0 -50 -49 -49 -49 0 -49 -49 0 -49 -49 0 -50 -49 -49 0 -49 0 -49
-24.5418 -24.5418 -24.5418 -24.5418 -24.5418 -24.5418 -24.5418 -24.5418 -24.5418 -24.5418 -24.5418 -24.5418 -24.5418 -41.8063 -40.5526 -39.3788 -39.3788 -39.3788 -24.5418 -24.5418 -24.5418 -24.5418 -24.5418 -24.5418 -24.5418 -24.5418 -24.5418 -24.5418 -24.5418 -24.5418 -41.8063 -41.8063 -41.8063 -41.8063 -40.5526 -40.5526 -40.5526 -24.5418 -24.5418 -24.5418 -24.5418 -24.5418 -24.5418 -24.5418 -24.5418 -24.5418 -24.5418 -24.5418 -24.5418 -24.5418 -24.5418 -24.5418 -39.3788 -24.5418 -24.5418 -41.8063 -41.8063 -41.8063 -41.8063 -41.8063 -41.8063 -41.8063 -40.5526 -40.5526 -40.5526 -40.5526 -40.5526 -40.5526 -39.3788 -39.3788 -39.3788 -40.5526 -41.8063 -41.8063 -41.8063 -41.8063 -24.5418 -39.3788 -41.8063 -41.8063 -41.8063 -41.8063 -41.8063 -41.8063 -41.8063 -41.8063 -41.8063 -41.8063 -41.8063 -41.8063 -41.8063 -41.8063 -41.8063 -40.5526 -40.5526 -40.5526 -40.5526 -40.5526 -41.8063 -41.8063 -41.8063 -41.8063 -41.8063 -40.5526 -40.5526 -40.5526 -41.8063 -41.8063 -41.8063 -41.8063 -41.8063 -41.8063 -41.8063 -41.8063 -41.8063 -41.8063 -41.8063 -41.8063 -24.5418 -24.5418 -41.8063 -41.8063 -41.8063 -41.8063 -41.8063 -41.8063 -41.8063 -41.8063 -24.5418 -56.2518 0 0 20.8571 20.8571 -31.5 0 0 0 0 0 0 0 -82.2257 -83.7213 -41.8063 -41.8063 -83.7213 -83.7213 0 0 0 0 0 0 -84 0 0 -84 -84 0 -84.8571 0 0 0 0 0 0 0 0 0 0 0 0 0 0 0 -85 0 0 0 0 0 0 -85 -85.5 -85.5 -85.5 -84 -84 0 0 -83.5 -83.5 0 0 0 0 0 0 0 0 0 -83 0 0 0 0 0 0 0 0 0 0 0 0 0 0 0 0 0 0 0 0 0 0 0 0 -81 0 -80 0 0 -80.5 -80.5 0 -80 0 0 0 0 0 0 0 0 0 0 0 0 -24 0 0 0 0 0 0 -20 0 0 -19 0 0 -20 -20.5 -20.5 -20.5 0 -20 -20 -19 -19 -19 0 0 0 0 0 0 -17 -17 0 -17 0 0 0 0 -14.5 -14.5 -19.7 0 0 0 -18 0 0 0 -22 0 -22 0 0 0 0 0 0 0 0 -20.5 0 0 0 0 -20.8 0 0 0 0 0 -21.5 -22 0 0 0 0 0 -21 0 0 -22 0 0 -22 0 0 0 0 -23.5 -23.5 -23.5 0 0 -21 0 0 -20 0 -23 0 -23 0 -24 0 0 -22.5 0 0 0 0 0 -25 -25 -25.5 -25.5 -26 0 0 0 0 0 0 -25 -28 0 -26.5 -26.5 -26.5 -27 -26 -27 0 0 -28 0 -26.3333 0 -29 0 -26.5 -26.5 -26.5 0 -27.5 -25 -30.3333 -30.3333 -29.5 -29.5 0 0 -29.8571 -29.8571 -32.5 -30.3333 -30.3333 0 0 0 42.25 -34.25 0 0 -33 0 -21.3333 10 -35 -10.3333 0 -2.75635 0 0 0 0 0 -66.25 0 0 0 0 0 0 0 0 0 -47.0431 -45.7045 -56.3208 -56.3208 -56.3208 0 0 -47.0431 -47.0431 -47.0431 0 0 -56.3208 0 0 0 -56.3208 0 -45.107 -45.107 -45.107 -45.107 -45.107 -53.1881 -47.0431 -56.3208 -47.0431 -53.1881 -9.92923 -9.92923 -9.92923 -9.92923 -47.7857 0 -84.95 -44 -22.1429 0 -64.7012 -64.7012 0 -78.3333 -50.5 0 0 0 0 0 0 0 0 0 0 0 0 0 0 0 0 0 -58 0 0 -59 0 -58 -58 0 -58 -58 -58 0 0 0 0 0 0 -58 -58 0 -58 0 -58 0 -57 0 -57 -57 0 -57 0 -57 0 -57 -57 -57 -57 -56 -56 -56 0 -56 -55 0 -56 0 -56 -56 0 -55 0 0 0 0 0 0 0 0 0 0 0 0 0 0 0 0 -55 -54 -54 0 -54 -54 0 -54 -54 -54 -54 -54 -54 -54 -53 -53 -53 -53 0 -53 -53 0 -53 -53 0 -53 0 -52 0 0 -52 -52 0 -52 -52 -52 -52 0 0 0 0 0 -51 0 -51 -51 -51 0 -51 -50 -50 -50 -50 0 -50 -50 -50 -50 -50 -49 -49 -49 0 -50 -49 -49 -49 0 -49 -48 0 -49 -49 0 -50 0 0 0 0 0 0
-24.5418 -24.5418 -24.5418 -24.5418 -24.5418 -24.5418 -24.5418 -24.5418 -24.5418 -24.5418 -24.5418 -24.5418 -24.5418 -40.5526 -40.5526 -39.3788 -39.3788 -24.5418 -24.5418 -24.5418 -24.5418 -24.5418 -24.5418 -24.5418 -24.5418 -24.5418 -24.5418 -24.5418 -24.5418 -24.5418 -41.8063 -41.8063 -41.8063 -41.8063 -41.8063 -41.8063 -41.8063 -41.8063 -24.5418 -24.5418 -24.5418 -24.5418 -24.5418 -24.5418 -24.5418 -24.5418 -24.5418 -24.5418 -24.5418 -24.5418 -39.3788 -39.3788 -39.3788 -39.3788 -24.5418 -24.5418 -24.5418 -24.5418 -41.8063 -41.8063 -41.8063 -41.8063 -40.5526 -40.5526 -40.5526 -40.5526 -40.5526 -40.5526 -40.5526 -40.5526 -40.5526 -40.5526 -41.8063 -41.8063 -41.8063 -24.5418 -24.5418 -39.3788 -41.8063 -41.8063 -41.8063 -41.8063 -41.8063 -41.8063 -41.8063 -41.8063 -41.8063 -41.8063 -41.8063 -41.8063 -41.8063 -41.8063 -41.8063 -40.5526 -40.5526 -40.5526 -40.5526 -40.5526 -41.8063 -41.8063 -41.8063 -41.8063 -41.8063 -40.5526 -40.5526 -40.5526 -41.8063 -41.8063 -41.8063 -41.8063 -41.8063 -41.8063 -41.8063 -41.8063 -41.8063 -41.8063 -41.8063 -41.8063 -24.5418 -24.5418 -24.5418 -24.5418 -24.5418 -41.8063 -41.8063 -41.8063 -41.8063 -41.8063 -41.8063 -56.2518 0 -84.5714 -84.5714 -84.5714 0 -81.7619 0 0 0 0 0 -40.5526 -24.5418 -24.5418 -24.5418 -24.5418 -41.8063 -43.0471 0 0 -80.1385 -80.1385 0 0 -84.5 0 -85.5 -85.5 -85.5 0 0 0 0 0 0 0 0 0 0 0 0 0 0 0 0 0 -85 0 0 0 0 0 0 -84.5 0 0 0 0 0 0 0 0 0 0 0 0 0 0 0 0 0 0 0 0 0 0 0 0 0 0 -82 0 0 0 0 0 0 -82 -82 -81 -81 -81 -81 0 0 0 -81 -81 -80 -80 -80 -80 -80.5 -80.5 0 -80 -80 0 0 0 -79 -79.5 -79.5 0 0 0 -23.5 -23.5 0 0 0 0 0 -20 0 0 0 0 0 0 0 0 0 0 -20.5 -19.5 -19.5 0 -19.5 0 0 0 0 0 0 0 0 -17 0 0 0 0 0 0 -14.5 -16.5 -16.5 -14.5 0 0 -19.7 0 0 0 0 -16.5 0 0 0 0 0 -21.5 0 0 0 0 0 0 0 0 0 -21 -21 0 0 -20 -20 -20.8333 -20.8333 0 0 0 0 0 0 0 0 -25.25 -21.6 -25.25 -25.25 0 0 0 0 -24 -22 0 -23 0 0 -22 0 0 -22 -19.5 -19.5 0 0 0 -22.25 -22.5 0 0 0 0 0 -25.5 -25 -25 -25.5 -25.5 -25 -25 -25 0 -25 -25.5 -25.5 -25 0 -26.5 0 0 -26.5 -26.5 -24.5 -24.5 -25 -25 0 0 0 0 0 -22 -25 -25 -27.5 -27.5 -28.2 -28.2 -28.2 -28.2 0 -30.3333 0 0 -29.8571 -29.8571 -29.8571 -32.5 -32.5 -33 -32.5 0 -34.25 0 0 0 0 0 0 0 0 0 0 0 0 0 0 0 0 0 0 0 0 0 0 0 0 -60.6911 0 -47.0431 -45.7045 -56.3208 -56.3208 -56.3208 -5.64032 0 0 0 -40.5526 0 0 -56.3208 -56.3208 0 0 0 0 -39.75 -40.6964 -38.9667 -45.107 -45.107 -53.1881 -47.0431 -56.3208 -56.3208 -56.3208 -56.3208 -55.4623 -9.92923 -9.92923 -9.92923 0 0 0 0 0 -81 -76.4207 0 -50.5 0 0 -73.5 0 0 0 0 -60 0 0 -60 -60 -60 -59 0 -59 -58 0 -58 0 0 0 0 0 0 0 -58 -58 -58 -58 -58 0 0 0 -59 -58 -58 0 -57 0 -58 0 -57 0 -58 -57 -57 -57 0 -57 0 -57 -57 -57 -57 -56 -56 -56 0 0 0 0 0 0 0 0 0 -55 0 -56 0 -54 0 -54 0 -55 0 0 -56 -55 -55 -55 -55 -55 -55 -54 -54 -54 -54 0 0 -54 -54 -54 -54 -54 -54 -54 -54 -53 0 -53 0 0 0 0 0 0 0 0 0 0 0 0 0 0 0 0 0 0 -52 -52 -51 -51 0 -51 -51 -50 0 -51 -51 0 -51 -50 -50 -50 -50 -50 -50 -50 -50 -50 -50 0 -49 -49 0 -50 -49 0 0 0 0 0 0 0 0 0 0 -49 -49 0 -50 -49 -48.5
-24.5418 -24.5418 -24.5418 -24.5418 -24.5418 -24.5418 -39.3788 -39.3788 -39.3788 -24.5418 -24.5418 -39.3788 -39.3788 -40.5526 -41.8063 -24.5418 -24.5418 -24.5418 -24.5418 -24.5418 -24.5418 -24.5418 -24.5418 -24.5418 -24.5418 -24.5418 -24.5418 -24.5418 -24.5418 -24.5418 -24.5418 -24.5418 -39.3788 -39.3788 -39.3788 -39.3788 -24.5418 -24.5418 -24.5418 -24.5418 -24.5418 -24.5418 -24.5418 -24.5418 -24.5418 -24.5418 -24.5418 -24.5418 -24.5418 -24.5418 -39.3788 -39.3788 -39.3788 -39.3788 -24.5418 -24.5418 -24.5418 -24.5418 -41.8063 -41.8063 -41.8063 -41.8063 -40.5526 -40.5526 -40.5526 -40.5526 -40.5526 -40.5526 -40.5526 -40.5526 -40.5526 -40.5526 -41.8063 -41.8063 -41.8063 -24.5418 -24.5418 -39.3788 -41.8063 -41.8063 -41.8063 -41.8063 -41.8063 -41.8063 -41.8063 -41.8063 -41.8063 -40.5526 -41.8063 -41.8063 -41.8063 -24.5418 -24.5418 -41.8063 -41.8063 -40.5526 -40.5526 -40.5526 -41.8063 -41.8063 -41.8063 -41.8063 -41.8063 -40.5526 -40.5526 -40.5526 -41.8063 -41.8063 -41.8063 -41.8063 -41.8063 -41.8063 -41.8063 -41.8063 -41.8063 -41.8063 -41.8063 -41.8063 -41.8063 -41.8063 -24.5418 -24.5418 -24.5418 -41.8063 -41.8063 -41.8063 -41.8063 -41.8063 -41.8063 -24.5418 0 0 0 0 0 0 0 0 0 0 -70.15 0 -39.9111 -24.5418 -24.5418 -24.5418 -24.5418 0 0 0 0 0 0 0 -84.5 -84 -85.5 -85.5 -85.5 0 0 0 0 0 0 0 0 0 0 0 0 0 0 0 0 0 0 0 0 0 0 0 0 0 0 0 0 0 -84 -84 0 0 0 -84 -84 0 -83 -83 -83.5 -83.5 0 -83 0 0 -83 0 -82.5 -82.5 0 0 -82 0 -82 0 0 0 0 -82 -82 -81 -81 -81 -81 0 0 0 -81 -81 -80 -80 -80 0 0 0 0 -80 -80 0 0 0 0 -79.5 -79.5 -80 0 0 0 0 0 -18 0 0 0 0 -19 0 0 0 0 0 0 0 0 0 -19.5 -19.5 0 0 0 0 0 -18 -18 -18 0 -17 -17 0 -16 0 0 0 0 0 -14.5 -14.5 -17.2 0 0 -17 -17 -14.4 -15 0 -13.6667 -13.6667 0 0 0 0 0 0 -21.5 0 0 -20.5 0 -19 0 -20.5 -20.5 -20.5 0 0 0 -21 0 0 0 0 -21.5 0 0 0 0 0 0 -25.25 -21.5 0 0 0 0 0 0 -24 -22.5 0 -23.5 -23.5 -23.5 0 0 -22.5 0 0 0 -22 -23.3333 -23.3333 -22.25 -22.25 -23 -24.5 -24.5 0 0 -25 0 -25 -25.5 -25.5 0 -25 0 -25.5 -25 -25 0 -26 0 0 0 -26 0 -22.3333 -24 -25 -22 -22 -25 0 0 0 0 -28.2 -30.3333 -25 -25 -25 0 -33 -29 0 -29.8571 -32.8 0 -29.8571 0 -31 0 -32.8 -34 -34 -30.6667 18.6667 18.6667 -20.5 18.6667 15.5 15.5 -34.7143 -34.7143 -34.7143 0 -10.3333 0 0 0 0 0 0 0 0 0 0 0 0 0 0 0 0 0 -38.437 -38.437 0 -56.3208 -56.3208 -56.3208 -47.0431 0 0 0 0 0 -47.0431 -47.0431 -56.3208 0 0 -56.3208 -48.4167 -38.9667 -38.9667 -40.6964 -53.1881 -53.1881 -47.0431 -56.3208 -56.3208 -56.3208 -56.3208 -56.3208 -56.3208 -2.75635 -2.75635 0 0 0 0 0 -71.8333 0 -53.127 0 -80.5 0 0 0 0 0 0 0 -60 0 -60 -60 -60 0 0 -59 0 -59 0 -58 0 -59 -58 -58 -58 0 -58 -58 -58 0 0 -58 0 -59 -59 0 0 0 0 0 0 0 -57 0 -58 -57 -57 -57 0 -57 -57 -57 -57 -57 -57 -56 -56 -56 0 -56 -55 0 -56 0 -56 -56 0 -56 0 -56 0 -55 0 -54 0 -55 -54 0 0 -55 0 0 0 0 0 0 0 0 0 0 0 0 0 0 0 0 0 0 0 0 -53 0 0 -53 -53 0 -53 -53 -53 -53 0 0 -52 0 -52 -52 0 -52 -52 0 -52 -52 -51 -51 0 -51 -51 -50 0 -51 -51 -51 -51 -50 -50 -50 -50 -50 0 0 0 0 0 0 0 -49 0 -49 -49 -49 -49 -49 -49 0 -49 -48 -48 0 0 -49 -49 0 -50 -49 -49
-24.5418 -24.5418 -24.5418 -24.5418 -24.5418 -24.5418 -39.3788 -39.3788 -39.3788 -24.5418 -24.5418 -39.3788 -39.3788 -40.5526 -41.8063 -24.5418 -24.5418 -24.5418 -24.5418 -24.5418 -24.5418 -24.5418 -24.5418 -24.5418 -24.5418 -24.5418 -24.5418 -24.5418 -24.5418 -24.5418 -24.5418 -24.5418 -39.3788 -39.3788 -39.3788 -39.3788 -24.5418 -24.5418 -24.5418 -24.5418 -24.5418 -24.5418 -24.5418 -24.5418 -24.5418 -24.5418 -24.5418 -24.5418 -24.5418 -24.5418 -39.3788 -39.3788 -39.3788 -39.3788 -24.5418 -24.5418 -24.5418 -39.3788 -40.5526 -40.5526 -40.5526 -41.8063 -40.5526 -41.8063 -41.8063 -41.8063 -40.5526 -40.5526 -40.5526 -40.5526 -40.5526 -40.5526 -40.5526 -40.5526 -40.5526 -39.3788 -39.3788 -39.3788 -40.5526 -40.5526 -41.8063 -41.8063 -41.8063 -41.8063 -41.8063 -40.5526 -40.5526 -40.5526 -41.8063 -41.8063 -41.8063 -24.5418 -24.5418 -41.8063 -41.8063 -41.8063 -40.5526 -40.5526 -40.5526 -40.5526 -41.8063 -41.8063 -41.8063 -41.8063 -41.8063 -41.8063 -41.8063 -41.8063 -41.8063 -41.8063 -41.8063 -24.5418 -41.8063 -41.8063 -41.8063 -41.8063 -41.8063 -41.8063 -41.8063 -41.8063 -41.8063 -41.8063 -41.8063 -41.8063 -41.8063 -41.8063 -41.8063 -41.8063 -24.5418 -24.5418 0 0 -82.65 -82.65 -78.3333 -79.1264 -40.5526 -84.9714 0 0 0 0 0 -83.7213 -41.8063 -41.8063 -24.5418 0 0 0 0 0 -43.0471 0 -84 0 -84.5 -84.5 0 0 0 0 0 0 0 0 0 0 0 0 0 0 0 0 0 0 0 0 0 0 -85 0 0 -84.5 -84.5 -85 0 -84 0 0 0 0 0 -84 -83 0 -84 -83 0 0 0 -83 -83 0 0 0 -82.5 -82.5 0 0 0 0 -82 0 0 0 -82 -82 0 0 -81 -81 0 0 0 -81 -81 -81 -80 0 -80 -80.5 -80.5 0 0 0 0 0 0 0 0 0 0 0 -21 0 0 0 -14.5 -16 0 0 0 0 0 0 0 0 0 -18 -18 0 0 0 0 0 0 -19.5 -19 0 0 0 -19.5 -19.5 0 0 -16.5 0 0 0 0 -15.5 -15 0 0 0 -17.2 0 0 -17 0 0 0 0 0 0 0 0 0 0 0 0 0 0 0 0 0 0 0 0 -21 -21 -20.5 -20.5 0 -21 -21.5 -21.5 0 0 -21.5 -21.5 0 0 0 0 0 0 0 0 0 0 0 0 -24.5 0 -23 -23 -23 -23 0 -22.6667 -22 -22 0 -20 -23.3333 0 -22 0 -22.25 0 0 0 0 0 0 -25 -25 -25.1667 -25.1667 0 -25.5 -25 -25.5 -25.5 -25 -26 -26 -26 0 0 0 -25 0 0 0 0 -22 -24.5 -24.5 0 0 0 0 0 -29.5 0 0 0 0 0 -29.5 -28.4167 0 -30.5 0 -30.5 -32.8 -31 -32.8 0 0 0 -35 -32.3333 0 -32.3333 0 -21 -34.7143 -34.7143 -34.7143 -34.7143 10 0 0 0 0 0 0 0 0 0 0 0 0 0 0 0 0 0 0 -38.437 0 0 -47.0431 -47.0431 -56.3208 0 0 0 0 0 0 -47.0431 -47.0431 -56.3208 -56.3208 0 -56.3208 -38.5614 -43.1923 -39.875 -47.0431 -47.0431 -56.3208 -56.3208 -50.8504 -56.3208 -56.3208 -56.3208 -56.3208 -56.3208 -56.3208 -56.3208 0 40.3667 0 0 -71.8333 -71.8333 -53.127 -53.127 0 0 0 0 0 0 0 -70.25 0 0 0 -60 -60 0 0 0 0 0 0 0 0 0 0 0 0 0 0 0 0 0 -58 -58 -58 -58 0 -59 0 -59 -58 -57 0 -58 -57.5 -57 0 -58 -57 -57 -57 0 -57 -57 -57 -57 -57 -57 -57 -56 -56 -56 -56 -55 0 -56 0 0 0 0 0 0 0 0 0 0 0 0 0 0 0 0 0 -55 -55 -55 -55 -55 0 -54.5 -54 -54 -54 0 -54 -54 -54 -54 -54 -54 -54 -54 0 -53 -52 0 -53 -53 0 -53 -53 0 0 -52 -52 -51 0 -52 -52 0 -52 -51 0 -52 0 -52 0 0 -51 -51 -50 0 -51 -51 -51 -51 0 0 -50 -50 -50 -50 -50 0 -50 -50 -50 -49 -49 -49 -49 -49 -49 -49 -49 -49 -49 -49 -48 -48 0 -49 0 -49 0 -50 -49 0
-24.5418 -24.5418 -24.5418 -24.5418 -24.5418 -24.5418 -39.3788 -39.3788 -39.3788 -24.5418 -24.5418 -39.3788 -39.3788 -40.5526 -41.8063 -24.5418 -24.5418 -24.5418 -24.5418 -24.5418 -24.5418 -24.5418 -24.5418 -24.5418 -24.5418 -24.5418 -24.5418 -39.3788 -39.3788 -39.3788 -39.3788 -39.3788 -39.3788 -39.3788 -39.3788 -39.3788 -39.3788 -39.3788 -24.5418 -24.5418 -24.5418 -24.5418 -24.5418 -24.5418 -24.5418 -24.5418 -24.5418 -24.5418 -24.5418 -24.5418 -24.5418 -24.5418 -24.5418 -24.5418 -24.5418 -24.5418 -24.5418 -39.3788 -40.5526 -40.5526 -40.5526 -41.8063 -41.8063 -41.8063 -41.8063 -41.8063 -40.5526 -40.5526 -40.5526 -40.5526 -41.8063 -40.5526 -40.5526 -41.8063 -41.8063 -24.5418 -24.5418 -24.5418 -41.8063 -41.8063 -41.8063 -41.8063 -41.8063 -40.5526 -40.5526 -40.5526 -40.5526 -41.8063 -41.8063 -41.8063 -41.8063 -41.8063 -41.8063 -41.8063 -41.8063 -41.8063 -40.5526 -40.5526 -40.5526 -40.5526 -41.8063 -41.8063 -41.8063 -41.8063 -41.8063 -41.8063 -41.8063 -41.8063 -41.8063 -41.8063 -41.8063 -24.5418 -24.5418 -41.8063 -41.8063 -41.8063 -41.8063 -41.8063 -41.8063 -41.8063 -41.8063 -41.8063 -41.8063 -41.8063 -41.8063 0 -41.8063 -41.8063 -24.5418 -24.5418 0 0 0 -54 -82.65 -60.7212 -40.8594 -21.6364 -21.6364 0 0 0 64.2857 0 0 -69.6266 -77.5552 0 0 0 0 0 -35.1503 0 0 0 -84.5 -84.5 0 -85.3333 0 0 0 0 0 0 0 0 0 0 0 0 0 0 0 -85 0 0 0 0 -85 0 -84 -84.5 -84.5 0 0 -84 -84 0 0 0 0 -84 0 0 0 -83 0 0 0 0 0 0 0 0 -82.5 -82.5 0 0 0 0 -82 0 0 0 0 -81 0 0 0 0 0 0 0 0 0 0 0 0 0 0 0 0 -80 0 0 0 0 0 0 0 0 0 0 0 0 -17 -17 0 0 0 0 0 0 0 0 0 0 0 0 0 0 0 -18 -18.5 -18.5 -19 0 -18 -18 -18 0 0 0 0 0 0 0 0 0 0 0 0 -15.5 -15.5 0 -17 0 -15 0 -15.5 -15.5 -17 0 -17 0 0 0 0 0 0 0 0 0 -18 -17 0 -22 0 0 -20 -21.5 -21.5 0 0 0 0 0 0 -20 -23 0 0 -19 0 0 0 -21.8333 -21.8333 0 0 0 0 0 0 -22 0 0 0 -23 0 -23 0 0 0 -23 0 0 -24.5 -23.75 0 0 0 -21.5 0 -24.5 -24.5 0 0 0 0 -25.5 -25 0 0 0 0 0 0 0 0 0 -25.5 0 0 0 -27 0 -26 -26 0 0 0 0 0 -28.4167 -28.4167 0 0 -30.5 0 0 0 0 -32.8 0 -29.6667 -30.6667 -32 -30.6667 0 -32 -33 -33 -31.3333 0 0 0 0 -20 -17.6667 0 0 0 0 -10.3333 0 0 0 0 0 0 0 0 0 0 -46 0 0 0 0 0 -57.5938 0 0 -47.0431 -47.0431 -56.3208 0 0 0 0 0 0 -47.0431 -47.0431 -56.3208 -56.3208 0 -56.3208 -48.4167 -47.7857 -55.4623 -55.4623 -56.3208 -56.3208 0 -64.7012 -64.7012 -56.3208 -56.3208 -2.75635 -56.3208 -56.3208 -56.3208 0 0 0 0 -71.8333 0 0 0 0 0 0 -58 0 0 0 0 0 0 0 0 0 -60 0 -60 -59 0 -59 0 -58 0 -58 -58 -58 0 0 0 -58 -58 -58 -58 -58 -58 0 -59 0 -59 0 -57 0 -58 -58 -57 0 -58 -57 -57 -57 0 -57 0 -57 -57 -57 0 -57 -56 0 0 -56 -55 0 0 0 -56 0 -56 -55 0 -56 -55 0 0 -54 0 -55 -54 0 -55 -55 -55 -55 -55 -55 -55 0 -54.5 0 -54 -54 -54 -54 -54 -54 -54 -54 -54 -54 -54 -53 -53 -53 0 -53 0 0 0 0 0 0 0 0 0 0 0 -51 0 0 0 0 0 0 0 -51 -51 -51 -51 0 -51 -51 -51 -51 -51 -51 -50 -50 -50 -50 -50 -50 0 -50 -50 -50 -49 -49 0 -49 -49 -49 -49 -49 -49 -49 -49 -48 0 0 0 -48 -48 0 0 0 -49
-24.5418 -24.5418 -24.5418 -24.5418 -24.5418 -24.5418 -39.3788 -39.3788 -39.3788 -24.5418 -24.5418 -24.5418 -41.8063 -41.8063 -24.5418 -24.5418 -24.5418 -24.5418 -24.5418 -24.5418 -24.5418 -24.5418 -24.5418 -24.5418 -24.5418 -24.5418 -24.5418 -24.5418 -24.5418 -24.5418 -24.5418 -39.3788 -40.5526 -40.5526 -40.5526 -39.3788 -24.5418 -24.5418 -24.5418 -24.5418 -24.5418 -24.5418 -24.5418 -24.5418 -24.5418 -24.5418 -24.5418 -39.3788 -39.3788 -39.3788 -39.3788 -39.3788 -39.3788 -39.3788 -39.3788 -39.3788 -24.5418 -39.3788 -39.3788 -39.3788 -39.3788 -40.5526 -40.5526 -41.8063 -41.8063 -41.8063 -41.8063 -41.8063 -40.5526 -40.5526 -40.5526 -39.3788 -40.5526 -40.5526 -40.5526 -24.5418 -24.5418 -41.8063 -41.8063 -41.8063 -24.5418 -40.5526 -40.5526 -39.3788 -39.3788 -39.3788 -39.3788 -40.5526 -41.8063 -41.8063 -41.8063 -41.8063 -41.8063 -41.8063 -41.8063 -41.8063 -41.8063 -41.8063 -41.8063 -41.8063 -41.8063 -41.8063 -41.8063 -41.8063 -41.8063 -41.8063 -41.8063 -41.8063 -41.8063 -41.8063 -41.8063 -41.8063 -41.8063 -41.8063 -41.8063 -41.8063 -41.8063 -41.8063 -41.8063 -41.8063 -41.8063 -41.8063 -41.8063 -41.8063 -41.8063 -41.8063 -41.8063 -41.8063 -69.2042 0 0 0 0 0 0 -40.5526 0 0 0 -27.7 -73 -61.75 0 0 0 0 0 0 0 -69.5 -69.5 0 0 -80.3333 0 0 -82.5 -82.5 0 0 0 0 0 0 0 0 0 0 0 0 0 0 0 0 0 0 0 0 0 -85 -85 -85 -84 -84.5 -84.5 -84 0 0 -84 0 0 0 0 0 0 -83 0 -83 0 0 0 -83 -83 0 0 0 0 -83 0 -82 -82 -82 -82 -81 0 0 -82 0 0 0 0 -81 0 0 0 -81 -81 -81 0 -80 -80 0 0 0 -80 0 0 0 0 0 0 0 0 0 -21 -22 0 0 -18 -15 -17.25 -17.25 0 0 0 0 0 0 -16 0 0 0 0 0 0 -19 0 -17.3333 0 -18 -17 0 0 0 0 0 0 0 0 0 -16 0 0 0 0 0 -20 -18 0 -18 0 -16.5 -15.5 0 0 -16 -16 0 0 0 0 0 0 0 0 -18 0 0 0 0 0 -20 -18.5 -18.5 0 0 0 0 0 0 0 0 -23.5 -23.5 -21 0 0 -22 0 0 0 0 0 -23.5 -23.5 -21.5 0 0 -22.5 0 -22.1667 0 0 0 -21.6667 0 -24.25 -24.25 -21.5 -24.25 -23.75 -23.75 -23.75 -23 -23 0 0 0 -25.5 -25.5 0 -25.5 -25 -25.5 -25.5 0 0 0 0 -26 -26 0 0 0 0 -25.5 0 0 0 -25.5 0 0 -26.1667 -26.1667 0 0 0 -27 0 0 0 -30.5 -31 -31 -29.6667 -30.6667 -29.6667 0 0 -33 0 0 -34.5 -34.5 -33 -68 0 0 0 0 0 0 0 0 0 -40 0 -16.25 0 -39 0 0 0 0 0 0 0 0 0 0 0 0 0 0 0 0 0 0 0 0 0 0 0 0 -19 -38.437 -47.0431 -47.0431 -56.3208 -56.3208 -55.4623 -38.5614 0 -55.4623 -55.4623 -55.4623 -54.6833 0 -2.75635 -56.3208 -56.3208 -56.3208 40.3667 40.3667 -57.5938 -75.6667 -69 0 -67 0 0 0 0 0 0 0 0 0 0 0 0 -60.5 -70.25 -60 -60 -60 -60 -60 0 -60 0 0 0 0 -58 0 -58 0 0 -58 0 0 0 0 0 0 0 0 0 0 -59 -59 0 -57 0 -58 -58 -57 0 -57 0 -57 -57 0 -57 0 -57 -57 -57 -57 -57 -57 -56 -56 -56 -55 0 -56 0 -56 0 -56 -55.5 -55.5 -56 -55 0 -56 -54 0 -55 -54 0 -55 -55 0 0 0 0 0 0 0 0 0 0 0 0 0 0 0 0 0 0 0 0 0 0 0 0 -53 -53 -53 0 0 -53 0 -53 -52 -52 -52 0 -52 -52 -51 0 -52 -52 0 -51 -51 -51 -51 -51 -51 -51 -51 -51 -51 -51 -50 -50 -50 0 -50 0 0 -50 -50 0 0 0 0 0 0 0 0 -49 -49 -49 -49 -48 -48 0 -49 -48 -48 0 -49 -49 -49
-24.5418 -24.5418 -24.5418 -24.5418 -24.5418 -24.5418 -39.3788 -39.3788 -39.3788 -24.5418 -41.8063 -41.8063 -41.8063 -41.8063 -24.5418 -24.5418 -24.5418 -24.5418 -24.5418 -24.5418 -24.5418 -24.5418 -24.5418 -24.5418 -24.5418 -24.5418 -24.5418 -24.5418 -24.5418 -24.5418 -24.5418 -39.3788 -39.3788 -40.5526 -40.5526 -39.3788 -24.5418 -24.5418 -24.5418 -24.5418 -24.5418 -24.5418 -24.5418 -24.5418 -24.5418 -24.5418 -24.5418 -39.3788 -39.3788 -39.3788 -39.3788 -39.3788 -39.3788 -41.8063 -41.8063 -41.8063 -41.8063 -41.8063 -40.5526 -40.5526 -40.5526 -40.5526 -40.5526 -41.8063 -41.8063 -41.8063 -41.8063 -41.8063 -40.5526 -40.5526 -40.5526 -40.5526 -40.5526 -40.5526 -40.5526 -41.8063 -41.8063 -41.8063 -40.5526 -40.5526 -40.5526 -40.5526 -39.3788 -39.3788 -39.3788 -39.3788 -39.3788 -40.5526 -40.5526 -40.5526 -40.5526 -41.8063 -40.5526 -40.5526 -40.5526 -41.8063 -41.8063 -40.5526 -40.5526 -40.5526 -41.8063 -41.8063 -41.8063 -40.5526 -40.5526 -41.8063 -41.8063 -40.5526 -40.5526 -41.8063 -41.8063 -41.8063 -41.8063 -41.8063 -41.8063 -41.8063 -41.8063 -41.8063 -41.8063 -41.8063 -41.8063 -41.8063 -41.8063 -41.8063 -41.8063 -41.8063 -41.8063 -24.5418 -69.2042 0 0 0 0 0 0 -18.5 -18.5 0 0 -66 0 -83.8333 0 0 0 0 0 0 0 0 0 0 -47.0969 0 -77.5552 0 -85.3333 -85.3333 -59.4 0 0 0 0 0 0 0 0 0 0 0 0 0 0 0 0 0 0 0 0 -85 -85 0 -84 0 0 0 0 0 -84 0 0 0 0 0 -83 0 -83 0 0 0 0 -83 -83 0 -82 0 0 -83 0 0 -82 -82 0 0 0 -82 -82 0 0 -81 -81 0 0 0 0 0 0 0 0 0 0 0 0 0 0 0 0 0 0 0 0 0 0 0 0 -21 0 0 0 0 0 0 0 0 0 0 -17.5 0 -16.5 -17 0 0 0 0 0 0 0 -17.3333 -17.3333 -17 0 0 0 0 0 -15 0 0 0 0 0 -15.5 -15 0 0 0 0 0 0 0 0 0 -15.5 0 -15.3333 -15.3333 -16.5 -16.5 0 0 0 0 -18 0 0 -19 -19 -19 -19 0 0 0 0 -20 -20 0 0 0 0 -21 -22 -24.5 -22.8333 -22.8333 -21 -22 0 0 0 0 0 0 0 0 -22.5 -21.5 0 0 0 0 0 -22.1667 0 -21.6667 -21.6667 0 0 -24.25 -22.5 -23.5 0 0 0 -24 0 0 0 0 -25.5 -25 0 0 0 0 0 0 0 -25 -25 0 0 0 -25.5 0 -26.5 -26.5 0 0 0 -26 -26 0 0 -30.1111 -30.1111 -30.1111 0 0 -29 0 0 -31 -31 -29.5 0 0 0 0 0 0 0 -32.5 -32.5 -33 -33 -5.5 -33 -36 -37.5 -34.3333 0 0 0 0 -10.5 0 6 0 0 0 0 0 0 0 0 1.4 0 0 0 0 0 0 0 0 0 0 0 -56.3208 -55.4623 0 0 0 0 0 -41.9 -47.0431 0 0 0 -5.64032 0 -48.4167 -55.4623 -55.4623 -55.4623 -57.5938 -64.7012 40.3667 -55.4623 -55.4623 -56.3208 -56.3208 -56.3208 -57.5938 -55.4623 -55.4623 -69 -67 -67 0 -12.625 -53.5 -46.6667 0 0 0 0 0 0 0 -60.5 0 0 0 0 0 0 0 0 0 0 0 -59 0 0 0 0 0 0 0 -58 -58 -58 -58 -58 -58 -58 -58 -58 0 -59 -59 0 -59 0 -58 -58 -57 0 -57 -57 -57 -57 0 -57 -57 -57 -57 -57 -57 -57 -57 -56 -56 -56 -55 0 0 0 0 0 0 -55 0 -56 -55 0 -56 -54 0 -55 -54 0 -55 -55 -55 -55 -55 -55 -55 -55 -54.5 0 -54 -54 -54 -54 -54 -54 -54 -54 -54 -54 -54 -54 -53 -53 0 -53 -52 0 0 0 -53 -53 -53 -53 0 -52 0 0 0 0 0 0 0 0 0 0 0 0 0 0 -51 0 0 -51 -51 -51 -50 -50 -50 0 -50 -50 -50 -50 -50 -50 -50 -49 0 -50 -49 0 -49.5 -49 -49 -49 -49 -48 -48 0 -49 -48 -48 0 -49 -49 0
-24.5418 -24.5418 -24.5418 -24.5418 -24.5418 -24.5418 -24.5418 -24.5418 -39.3788 -24.5418 -41.8063 -41.8063 -41.8063 -41.8063 -24.5418 -24.5418 -24.5418 -24.5418 -24.5418 -39.3788 -39.3788 -24.5418 -24.5418 -24.5418 -24.5418 -24.5418 -24.5418 -24.5418 -24.5418 -24.5418 -24.5418 -24.5418 -24.5418 -40.5526 -40.5526 -39.3788 -24.5418 -24.5418 -24.5418 -24.5418 -24.5418 -24.5418 -24.5418 -24.5418 -24.5418 -24.5418 -24.5418 -39.3788 -39.3788 -39.3788 -39.3788 -24.5418 -24.5418 -24.5418 -24.5418 -24.5418 -24.5418 -24.5418 -41.8063 -41.8063 -40.5526 -40.5526 -41.8063 -41.8063 -41.8063 -41.8063 -41.8063 -40.5526 -40.5526 -40.5526 -40.5526 -40.5526 -40.5526 -40.5526 -40.5526 -39.3788 -39.3788 -40.5526 -40.5526 -40.5526 -40.5526 -24.5418 -24.5418 -24.5418 -40.5526 -40.5526 -40.5526 -40.5526 -40.5526 -40.5526 -40.5526 -41.8063 -40.5526 -40.5526 -40.5526 -41.8063 -41.8063 -40.5526 -40.5526 -40.5526 -41.8063 -41.8063 -39.3788 -39.3788 -39.3788 -39.3788 -39.3788 -39.3788 -39.3788 -39.3788 -24.5418 -41.8063 -41.8063 -41.8063 -41.8063 -41.8063 -41.8063 -41.8063 -41.8063 -41.8063 -41.8063 -41.8063 -41.8063 -41.8063 -41.8063 -24.5418 -24.5418 -24.5418 -69.2042 0 -70.15 -71.4 -71.4 0 10.7949 0 -18.5 0 0 -37 0 0 0 -75.5 -75.5 0 0 -83.8333 0 0 0 0 0 0 -85.1053 0 0 0 -84.5 0 -59.4 0 0 0 0 0 0 0 0 0 0 0 0 -85.5 -85 0 0 0 0 -85 0 0 -84.5 -84.5 0 -84 0 0 -84 0 0 0 -84 0 0 0 -83 -83.5 -83.5 0 0 -83 0 0 -82 0 0 0 0 0 0 0 0 0 0 0 -82 0 0 0 0 0 0 0 0 0 -81 0 -80 0 0 0 0 0 0 0 -80 0 0 0 0 0 0 0 0 0 0 0 -19 -19 -19 0 0 0 0 -17.5 -17.5 0 0 0 -17 -17 0 0 0 0 -17.5 -17.5 0 0 0 0 0 0 0 -15 0 -9 0 0 0 0 0 0 0 0 0 0 -15.3333 -14.75 -15.3333 0 0 -15.2 -15.3333 -18.5 -18.5 -18.5 -17 -19.5 -18 -18 -16 0 -19 -16 -16 0 0 0 0 0 0 0 0 -19 -19 -22 0 -20 0 0 0 -20 -20 0 0 0 0 0 -23 0 0 -23 0 -22 -22 0 0 0 -21 -22 0 -22 -22 0 0 -23 -23.5 -25 -25 -22.5 0 -24 -24 -24 0 0 0 -25 0 -26 0 0 -25.5 0 0 0 -25.5 0 0 -25.1667 0 -25.5 -25.5 0 0 0 0 -26 0 0 -30.1111 -30.1111 -30.1111 -30.1111 0 0 0 0 -29 0 0 -28.6667 -28.6667 0 -31 -31 -31 -31 -31 -31 0 -33 -28 -33 -32.5 -36 -33.6667 -34.3333 0 0 -44 0 0 0 0 0 0 0 0 0 0 0 0 0 0 0 0 0 0 0 0 0 0 -42.5 -55.4623 -55.4623 -55.4623 -38.437 0 0 0 0 -38.437 -5.64032 0 0 0 0 -5.64032 -48.4167 -48.4167 -55.4623 -38.437 -55.4623 -26.5 -2.75635 -9.92923 -56.3208 -56.3208 -56.3208 -56.3208 0 -55.4623 -55.4623 0 -75.6667 0 0 0 -53.5 0 0 0 -56 0 -75.6667 0 0 -71 -71 -60 -60 -60 -60 -60 -60 -60 -60 0 -59 -59 -59 0 0 -59 0 -59 -58 0 -58 -58 -58 -58 -58 -58 -58 -58 0 -59 -59 0 -59 0 0 -58 0 0 0 0 0 0 0 0 0 0 -57 -57 0 -57 -57 -57 -56 -56 -55 0 -56 0 -56 0 -56 -56 0 -56 -55 0 -55 -54 0 -55 -54 0 -55 0 -55 -55 -55 -55 -55 0 -54 0 -54 -54 -54 -54 -54 -54 -54 0 0 0 0 0 0 0 0 0 0 0 0 0 -53 0 0 0 0 0 -52 -52 -52 -52 0 -52 -52 -52 0 -52 0 -51 -51 0 -51 -51 0 -51 -51 -51 -50 -50 -50 0 -50 -50 -50 -50 -50 -50 -50 -49 0 -49 -49 0 -49.5 0 0 0 0 0 0 0 0 0 0 0 -49 -48 -48
-24.5418 -24.5418 -24.5418 -24.5418 -24.5418 -24.5418 -24.5418 -24.5418 -24.5418 -24.5418 -41.8063 -41.8063 -41.8063 -41.8063 -24.5418 -24.5418 -24.5418 -24.5418 -24.5418 -24.5418 -39.3788 -39.3788 -24.5418 -24.5418 -24.5418 -24.5418 -24.5418 -24.5418 -24.5418 -24.5418 -24.5418 -24.5418 -24.5418 -40.5526 -40.5526 -40.5526 -24.5418 -24.5418 -24.5418 -41.8063 -24.5418 -24.5418 -24.5418 -24.5418 -24.5418 -24.5418 -24.5418 -39.3788 -39.3788 -39.3788 -39.3788 -24.5418 -24.5418 -24.5418 -24.5418 -24.5418 -24.5418 -24.5418 -24.5418 -24.5418 -24.5418 -41.8063 -41.8063 -41.8063 -41.8063 -41.8063 -41.8063 -40.5526 -40.5526 -40.5526 -40.5526 -39.3788 -40.5526 -40.5526 -40.5526 -39.3788 -39.3788 -40.5526 -40.5526 -40.5526 -39.3788 -24.5418 -24.5418 -24.5418 -41.8063 -41.8063 -41.8063 -41.8063 -41.8063 -41.8063 -41.8063 -41.8063 -40.5526 -40.5526 -40.5526 -41.8063 -41.8063 -40.5526 -40.5526 -40.5526 -41.8063 -24.5418 -24.5418 -39.3788 -39.3788 -24.5418 -39.3788 -39.3788 -39.3788 -39.3788 -24.5418 -41.8063 -41.8063 -41.8063 -41.8063 -41.8063 -41.8063 -41.8063 -41.8063 -41.8063 -41.8063 -41.8063 -41.8063 -41.8063 -24.5418 -24.5418 -24.5418 -24.5418 0 0 -39.9111 0 0 0 0 0 -60.2443 0 0 0 0 -79.4222 0 0 0 0 -82.25 -75.6667 0 0 0 0 -82 0 0 0 0 0 0 0 -84.5 0 0 0 0 0 0 0 0 0 0 0 0 -85 0 0 0 0 0 0 0 -84 0 0 0 0 0 0 0 0 0 0 0 0 0 0 0 -83.5 -83.5 -84 -83 -83 0 0 -83 0 0 -83 0 0 -82 0 0 0 0 -82 -82 0 0 -81 -81 0 0 -81 0 -81 0 0 -80 -80 0 0 -81 0 0 0 0 0 0 0 0 0 0 0 0 0 0 0 0 0 0 0 0 0 0 0 0 -16 -16 0 0 0 -17 -17 -17 0 0 -15 0 0 0 0 0 0 -15 -15 0 0 0 0 0 0 -14.5 -14.5 0 -14.75 -14.75 -14.75 -15.2 -15.2 0 0 0 -18.5 -16 0 -16.6667 -16.6667 0 -17 0 0 0 0 0 -18.5 -18.5 0 0 0 0 0 0 0 -21 0 0 0 -21 0 0 0 -21.5 0 -20.5 0 0 0 0 0 0 -22 0 0 -23 0 -22 0 0 0 0 0 0 -24 -23 -23 0 0 0 0 0 -24 0 -24.5 -24 -24 -24.5 -24.5 -25 0 -24.6667 -25 -24.6667 0 0 0 -25 -25.1667 -25.1667 -27.5 -27.5 0 0 0 0 0 0 0 -30.1111 0 -28 0 0 0 -30.1111 0 0 -28 -30.6667 -30.6667 0 -28.6667 0 0 -30 -30.6667 0 -32.5 -32.5 -32.5 -32.7 -32.7 -32.7 -32 -31.8333 -31.8333 -37 -37 0 0 0 0 0 -38 0 0 0 0 0 -44 0 0 0 0 0 0 0 0 0 0 0 0 0 0 0 -57.5938 -55.4623 -55.4623 -44.8929 -44.8929 0 0 0 0 -55.4623 -56.3208 0 0 0 -5.64032 -5.64032 0 -43.1923 -39.875 -54.7 -54.7 0 0 40.3667 -50.8504 -47.0431 -26 0 0 -55.4623 -56.3208 -55.4623 -38.5614 -38.5614 -55.4623 -24.2 -24.2 0 0 0 0 0 0 0 0 0 -21.5 0 0 0 0 0 0 0 0 0 0 0 0 -58 0 -58 0 -59 0 -59 -58 -58 -58 -58 -58 -58 -58 0 -58 0 -59 0 -59 -58 -58 0 -57 0 -57 -57 -57 -57 0 -57 -57 -57 -57 -57 0 0 -57 -57 -56 -56 -55 0 -56 0 -56 -56 -56 -55 0 -56 -55 0 -56 0 0 0 0 0 -54 0 0 0 0 0 0 -55 -55.5 -55.5 0 0 0 0 0 0 0 -54 -54 -54 -54 0 -54 -53 0 0 -52 0 -53 0 -53 -53 -53 -53 -53 -52 -52 -52 -52 -52 0 -52 -52 0 -52 -52 0 -51 -51 0 -51 -51 -51 -51 -51 -51 0 -50 0 0 -50 -50 -50 -50 0 0 -50 -49 0 -49 -49 0 -49.5 -49 -49 0 -50 -48 -48 0 -48 -48 -48 0 -49 -48 -48
-24.5418 -24.5418 -24.5418 -24.5418 -24.5418 -24.5418 -24.5418 -24.5418 -24.5418 -24.5418 -41.8063 -41.8063 -41.8063 -41.8063 -24.5418 -24.5418 -24.5418 -24.5418 -24.5418 -24.5418 -24.5418 -24.5418 -24.5418 -24.5418 -24.5418 -24.5418 -24.5418 -24.5418 -24.5418 -24.5418 -24.5418 -24.5418 -24.5418 -41.8063 -40.5526 -41.8063 -41.8063 -41.8063 -41.8063 -41.8063 -24.5418 -24.5418 -24.5418 -24.5418 -24.5418 -24.5418 -24.5418 -24.5418 -24.5418 -39.3788 -39.3788 -24.5418 -24.5418 -24.5418 -24.5418 -24.5418 -24.5418 -24.5418 -41.8063 -41.8063 -41.8063 -41.8063 -41.8063 -41.8063 -41.8063 -41.8063 -40.5526 -40.5526 -40.5526 -40.5526 -40.5526 -40.5526 -40.5526 -40.5526 -40.5526 -40.5526 -40.5526 -40.5526 -40.5526 -40.5526 -40.5526 -24.5418 -41.8063 -41.8063 -41.8063 -41.8063 -41.8063 -41.8063 -41.8063 -41.8063 -24.5418 -41.8063 -40.5526 -40.5526 -40.5526 -41.8063 -41.8063 -40.5526 -40.5526 -40.5526 -41.8063 -41.8063 -41.8063 -41.8063 -41.8063 -41.8063 -41.8063 -40.5526 -40.5526 -40.5526 -41.8063 -40.5526 -41.8063 -41.8063 -41.8063 -41.8063 -41.8063 -41.8063 -41.8063 -40.5526 -40.5526 -41.8063 -41.8063 -41.8063 -24.5418 -24.5418 -24.5418 -24.5418 0 0 0 0 0 0 0 -75.5714 0 -39.9111 -39.9111 0 0 -77.3606 -63.5 -54 -54 0 -79.75 0 -25.8757 0 0 0 -62.2017 0 -82 0 0 -85 0 0 0 0 0 0 0 0 0 0 0 0 0 0 0 -85 -85 0 0 0 0 0 0 -84 0 0 -85 0 0 0 0 0 0 0 -84 0 0 -84 -83 0 0 -84 -83 -83 -83 0 -82 0 0 -83 0 0 -82 -82 0 0 0 0 -82 0 0 -81 0 0 0 0 0 0 0 0 0 0 0 0 0 0 0 0 0 0 0 0 0 0 0 -21.5 -19 0 0 0 0 0 0 0 0 0 0 0 0 0 0 -16.5 -16.5 0 0 0 -17 -17.5 -16 0 0 0 -16 -16 -14 0 0 -15 0 0 0 0 0 0 0 0 0 0 0 0 0 0 -18 0 0 0 0 0 0 0 0 0 -15.5 0 0 -18.6667 -18.6667 -19 -19 0 0 0 0 0 0 0 0 0 -23.5 0 0 0 -22 -23.5 -21.1667 0 0 0 0 -23.5 -23.5 0 0 -22 0 0 0 0 -21 -22 0 0 0 0 -23 -25 -23 -23 -23 0 -22.5 -22.5 0 -23 0 0 -24 0 0 0 0 0 -24.6667 -25.7 -25.7 -26 -25 -26.5 -26.5 0 -25 -26.5 -26.5 0 0 0 0 0 0 -26.3571 -26.3571 -26.3571 -26.3571 -26.3571 0 0 0 0 -26 -27.5 0 0 0 -30 0 0 -29.5 -31.5 -30.5 -32.7 0 -33.6667 -32.7 -32.7 -32.7 -36 0 -72 0 0 0 0 0 0 0 0 0 0 0 0 0 0 0 0 0 0 0 0 0 0 0 0 0 0 0 -64.7012 0 -57.5938 0 0 0 0 0 0 0 0 -55.4623 -5.64032 -21.85 0 0 -5.64032 0 0 0 -46.0952 -54.7 -54.7 0 0 0 0 0 0 0 0 -43.1923 -53.127 0 0 0 -55.4623 -24.2 -24.2 0 -56 0 0 0 0 0 -36.6667 0 0 -60 -60 -60 -60 -60 0 -60 -60 0 -59 0 0 -58 0 -58 0 -58 0 -58 -58 -58 -58 -58 -58 -58 -58 -58 -58 0 -59 0 -59 -58 0 0 -57 0 -57 -57 -57 -57 0 -57 -57 -57 -57 -57 0 -57 -57 -57 0 0 0 0 -56 0 -56 -56 -56 -55 0 -56 -55 0 -56 0 0 -55 -54 0 -54 -54 0 -55 -55 -55 -55 -55 -55 -55 -54 -54 -54 -54 -54 -54 -54 -54 -54 -54 -54 0 -54 0 0 -53 -53 -52.5 -52.5 0 -53 -53 -53 -53 -53 -52 0 0 0 0 0 0 0 0 0 0 0 0 0 0 0 0 0 0 0 0 0 -50 0 -50 -50 -50 0 -50 -50 -50 -50 -49 0 -49 -49 -49 -49 -49 -49 -49 -49 0 -48 0 -49 0 0 0 0 0 0
-24.5418 -24.5418 -24.5418 -24.5418 -24.5418 -24.5418 -24.5418 -24.5418 -24.5418 -24.5418 -24.5418 -24.5418 -24.5418 -24.5418 -24.5418 -24.5418 -24.5418 -24.5418 -24.5418 -24.5418 -24.5418 -24.5418 -24.5418 -24.5418 -24.5418 -24.5418 -24.5418 -24.5418 -24.5418 -24.5418 -24.5418 -24.5418 -24.5418 -41.8063 -41.8063 -41.8063 -41.8063 -24.5418 -41.8063 -41.8063 -24.5418 -24.5418 -24.5418 -24.5418 -24.5418 -24.5418 -24.5418 -24.5418 -24.5418 -24.5418 -24.5418 -41.8063 -41.8063 -41.8063 -41.8063 -41.8063 -41.8063 -41.8063 -41.8063 -41.8063 -41.8063 -40.5526 -40.5526 -40.5526 -40.5526 -40.5526 -41.8063 -41.8063 -41.8063 -41.8063 -41.8063 -41.8063 -41.8063 -41.8063 -41.8063 -24.5418 -24.5418 -40.5526 -40.5526 -40.5526 -40.5526 -24.5418 -24.5418 -24.5418 -41.8063 -41.8063 -41.8063 -40.5526 -40.5526 -41.8063 -24.5418 -41.8063 -40.5526 -40.5526 -40.5526 -41.8063 -41.8063 -40.5526 -40.5526 -40.5526 -41.8063 -41.8063 -41.8063 -41.8063 -41.8063 -41.8063 -41.8063 -40.5526 -40.5526 -40.5526 -41.8063 -41.8063 -41.8063 -41.8063 -41.8063 -41.8063 -41.8063 -41.8063 -41.8063 -41.8063 -41.8063 -40.5526 -41.8063 -41.8063 -41.8063 -24.5418 -24.5418 -24.5418 0 0 0 0 0 -18.5 0 54 0 0 -49.6793 -21.6364 0 -76 0 0 -51.5 -79.75 0 0 -77.5552 0 0 0 -84.5 0 0 0 0 -80.5647 -62.2017 -80.5647 0 0 0 0 0 0 0 0 0 0 0 0 0 -85 -85 0 0 0 0 -85 0 -84 -84.5 -84.5 -85 0 0 0 0 0 0 0 -84 0 0 -84 -83 -83.5 -83.5 0 -83 -83 -83 0 -82.5 -82.5 -83 -83 0 -82 -82 -82 -81.5 -81.5 0 -82 0 0 0 0 0 0 0 0 0 0 0 0 0 0 0 0 0 -76 0 0 0 0 0 0 0 0 0 -19 0 0 -11.75 -16.5 0 -16 -16 0 0 0 0 0 0 0 0 -16.5 -16.5 -17 -16.5 -16.5 0 0 -15 0 0 -16 -14.5 -14.5 -14 0 -15 0 -15 -15 0 0 -12.2 0 0 0 0 0 0 0 0 0 0 0 0 0 0 -15.2 -15.2 0 0 0 -15.5 -18 -18 0 -18.6667 0 0 0 -15.4444 0 0 0 0 0 0 0 -23.5 -21.1667 0 0 -23.5 0 0 0 -20.5 -20.5 -21 -21.5 -21.5 -21.5 -23 0 0 -23.6667 0 0 0 0 0 0 0 0 0 -23 -23 0 -22 -22.5 -22.5 -22.5 0 0 0 0 -23 0 -24 0 -25.3333 0 -25.7 -25.7 -25.7 -24.5 -24.5 0 0 0 0 0 -25.5 -25.5 0 0 0 -26 -26 -26 -26.3571 -26.3571 -26.5 0 -26 -26 -26.5 -26 -27.5 -30.8333 -28.5 -28.5 -31.5 -29.5 0 -29 0 0 0 -30.75 -32.7 -32.7 0 -34 -32.7 -34 0 21 0 0 0 -37 0 0 0 0 0 0 0 0 0 0 0 0 0 0 0 0 0 0 0 0 0 0 -57.5938 -57.5938 -57.5938 0 0 0 0 0 0 0 0 -9.92923 0 0 0 0 0 -39 0 0 -18.8458 -53.127 0 0 -55.4623 -9.92923 0 -57.5938 -75.6667 -53.5 0 0 -84.95 0 0 0 -55.4623 -55.4623 -24.2 -24.2 -60 -60.9667 0 -60.9667 0 0 0 -36.6667 -61 0 0 0 -60 -60 -60 0 -60 0 0 -59 0 0 0 -58 0 0 0 0 0 0 0 0 0 0 0 0 0 0 0 0 0 0 0 0 0 0 0 0 0 0 0 0 0 -57 -57 -57 -57 -57 -57 -57 -57 -57 -56 0 -56 -56 0 -56 -56 -56 -55 0 -56 0 -56 -56 -56 0 -55 -54 0 -54 -54 0 -55 0 -55 0 0 -55 -55 0 0 -54 -54 0 0 -54 0 0 0 0 0 0 0 0 0 0 0 0 0 0 0 0 0 0 0 -52 -51 0 -52 0 -52 -52 0 -52 -52 -51 -51 -51 0 -51 -51 0 -51 -51 -51 -51 -50 0 -50 -50 -50 0 -50 0 0 0 0 0 0 0 0 0 0 0 0 0 -48 0 0 0 -48 -48 0 -49 -48 0
-24.5418 -24.5418 -24.5418 -24.5418 -24.5418 -24.5418 -24.5418 -24.5418 -24.5418 -24.5418 -24.5418 -24.5418 -24.5418 -24.5418 -24.5418 -24.5418 -24.5418 -24.5418 -24.5418 -24.5418 -24.5418 -24.5418 -24.5418 -24.5418 -24.5418 -24.5418 -24.5418 -24.5418 -24.5418 -24.5418 -24.5418 -24.5418 -24.5418 -24.5418 -24.5418 -24.5418 -24.5418 -24.5418 -24.5418 -24.5418 -24.5418 -24.5418 -24.5418 -24.5418 -24.5418 -24.5418 -24.5418 -24.5418 -24.5418 -24.5418 -24.5418 -24.5418 -24.5418 -24.5418 -24.5418 -24.5418 -24.5418 -24.5418 -24.5418 -24.5418 -24.5418 -24.5418 -24.5418 -24.5418 -24.5418 -24.5418 -24.5418 -24.5418 -24.5418 -24.5418 -24.5418 -24.5418 -24.5418 -24.5418 -24.5418 -24.5418 -24.5418 -24.5418 -24.5418 -24.5418 -24.5418 -24.5418 -24.5418 -24.5418 -24.5418 -24.5418 -24.5418 -24.5418 -24.5418 -24.5418 -24.5418 -24.5418 -24.5418 -24.5418 -24.5418 -24.5418 -24.5418 -39.3788 -39.3788 -39.3788 -24.5418 -24.5418 -24.5418 -24.5418 -24.5418 -24.5418 -24.5418 -24.5418 -24.5418 -24.5418 -24.5418 -24.5418 -24.5418 -24.5418 -24.5418 -24.5418 -24.5418 -24.5418 -41.8063 -41.8063 -41.8063 -24.5418 -24.5418 -24.5418 -24.5418 -41.8063 -41.8063 -24.5418 0 0 0 0 -40.5526 -79.1264 57 0 0 0 0 0 0 0 0 0 0 -63 0 0 0 0 0 0 0 0 0 0 0 0 0 0 -80.5647 0 0 0 0 0 0 0 0 0 0 0 0 -85 0 -85.5 -85.5 0 -85 -85 0 -84 -84.5 -84.5 -85 0 0 0 -83 0 0 0 0 0 0 0 0 0 0 0 0 0 0 0 0 0 0 0 0 -82 0 0 0 0 -82 -82 0 0 0 0 -81 0 0 -82 -82 0 -81 -81 0 0 0 -82 -81 0 0 0 -19 0 0 0 0 0 -19 -21 0 0 0 0 0 0 0 -15.5 0 0 -15.5 -15.5 0 -17 0 0 0 0 0 -16 0 -15 0 -13.5 -13.5 0 -15.5 -15.5 -15.5 0 0 0 0 -14 0 0 0 0 0 -13.5 0 0 -11.5 0 0 0 0 0 0 0 -18.25 0 0 0 -14.4 0 0 0 -21.5 -18 0 0 -15.4444 0 -15.4444 0 0 -20.6667 0 0 -19 0 0 -20.5 -20.5 0 0 -23.5 0 0 -21 -23.5 0 0 -21 0 0 0 0 0 0 0 0 0 -23 0 0 0 -25 -22.5 -22.5 0 -22 0 0 0 0 -22.5 0 0 0 0 0 0 0 -25 -24 0 -26.3333 0 0 -26.3333 -26.3333 -27 0 0 0 0 -28 0 0 -27.1667 -26.5 -27.1667 -27.1667 -26.5 0 0 0 0 0 0 -29.4286 0 0 0 0 -30.5 -29 0 -29 0 0 -30.75 -30.75 -30.75 -30 0 -32.2 -32 -34 -19.5 0 0 0 0 -37 0 0 0 0 0 0 0 0 0 0 0 0 0 0 0 0 0 0 0 0 -40.8594 0 0 0 0 0 0 0 0 0 0 0 -9.92923 -9.92923 0 -39 0 -23.5 -39 0 0 -38.5614 0 -53.5 0 0 40 0 -57.5938 -57.5938 -55.4623 -76.4207 -40 -39.962 0 0 0 -38.5614 0 -33.5 0 -38.5614 -60.9667 0 0 -60 0 0 0 0 -60 -60 -60 0 0 0 0 0 0 0 0 0 0 0 0 -58 0 -58 0 -58 -58 -58 -58 -58 -58 -58 -58 -58 -58 0 0 0 -59 -58 0 -58 -57 0 -57 -57 -57 -57 0 -57 -57 -57 -57 -57 -57 -57 -57 -57 0 -56 -55 0 -56 0 -56 0 -56 -55 0 -56 0 -56 0 -55 -55 0 -54 0 -54 -54 0 0 0 -55 -55 0 -54.5 -57 -55 -54 -54 -54 -54 -54 0 -54 -54 -54 -54 0 -54 -54 -53 -53 -53 -53 -53 -53.5 -53.5 -53 -53 -53 -53 0 -52 0 -52 -52 0 -52 0 0 0 0 0 0 0 0 0 0 0 0 0 0 0 0 0 0 0 0 0 0 -50 -50 -50 -50 -49 -49 -49 0 -49 -49 -49 0 -49 -49 0 -49 -48 -48 -48 0 -49 -48 0
-24.5418 -24.5418 -24.5418 -24.5418 -24.5418 -24.5418 -24.5418 -24.5418 -24.5418 -24.5418 -24.5418 -24.5418 -24.5418 -24.5418 -24.5418 -24.5418 -24.5418 -24.5418 -24.5418 -24.5418 -24.5418 -24.5418 -24.5418 -24.5418 -24.5418 -24.5418 -24.5418 -24.5418 -24.5418 -24.5418 -24.5418 -24.5418 -24.5418 -24.5418 -24.5418 -24.5418 -24.5418 -24.5418 -24.5418 -24.5418 -24.5418 -24.5418 -24.5418 -24.5418 -24.5418 -24.5418 -24.5418 -24.5418 -24.5418 -24.5418 -24.5418 -24.5418 -24.5418 -24.5418 -24.5418 -24.5418 -24.5418 -24.5418 -24.5418 -24.5418 -24.5418 -24.5418 -24.5418 -24.5418 -24.5418 -24.5418 -24.5418 -24.5418 -24.5418 -24.5418 -24.5418 -24.5418 -24.5418 -24.5418 -24.5418 -24.5418 -24.5418 -24.5418 -24.5418 -24.5418 -24.5418 -24.5418 -24.5418 -24.5418 -24.5418 -24.5418 -24.5418 -24.5418 -24.5418 -24.5418 -24.5418 0 -24.5418 -24.5418 -24.5418 -24.5418 -24.5418 -24.5418 -24.5418 -24.5418 -24.5418 -24.5418 -39.3788 -39.3788 -39.3788 -24.5418 -24.5418 -39.3788 -39.3788 -39.3788 -24.5418 -24.5418 -24.5418 -24.5418 -24.5418 -24.5418 -24.5418 -24.5418 -24.5418 -24.5418 -24.5418 -24.5418 -24.5418 -24.5418 -24.5418 -24.5418 -24.5418 -41.8063 0 -70.15 0 0 0 0 0 0 0 0 0 0 0 -77.3606 -77.3606 -77.3606 -58.8 0 0 0 0 0 0 0 0 -57.2115 0 0 0 0 0 0 0 0 0 0 0 0 0 -85.5 -85.5 -85.5 0 0 0 -85 0 -85.5 -85.5 0 0 0 0 0 0 0 0 0 0 0 0 0 0 0 0 0 0 0 0 0 0 -83 0 0 0 0 -82.5 -82.5 -83 0 0 0 -82 -81 0 0 -82 -82 0 -82 0 0 -81.5 -81.5 0 -82 -82 0 -81 -81 0 0 0 -81 0 0 0 0 -18.6667 0 -18.6667 -18.6667 0 0 -19.5 0 -17.5 -17.5 0 0 0 0 0 -17 0 0 -15.8 -15.8 0 0 0 0 0 -16 -15 0 0 0 0 0 0 -14.5 -14.5 -14.5 0 -15.5 -15.5 0 0 0 0 0 0 0 0 0 0 0 0 0 0 0 0 0 0 0 -15.6667 -15.6667 0 0 -15.5 -15.5 -15.4444 -15.4444 0 -15.4444 0 0 -15.4444 -20 -14.75 -19.5 -19.5 -19 0 0 0 -17 -18 -20.5 -19.1667 0 0 0 0 -23.5 0 0 0 0 -23.5 -23.5 0 0 0 0 0 0 -23 0 0 0 0 -23.5 -23.5 0 0 -22.5 0 0 0 0 0 0 0 0 0 -24.5 0 -24 -24 0 0 -25.5 0 -25.5 0 -27 -27 -26 0 0 0 -25.5 0 -29 -22.5 -26 0 0 -35 0 -26.25 0 0 0 0 -29.4286 -29.4286 -29.4286 -29 -29 0 -28 0 0 0 0 0 -32.2 -32.2 0 -30.5 -30.5 -32.2 0 0 0 0 0 0 -40 0 0 0 0 0 0 -18.8458 0 0 0 0 0 0 0 0 0 0 0 0 0 0 0 0 0 -20 0 0 -56.3208 -56.3208 0 0 0 0 -38.437 -38.437 -47.0431 -47.0431 -56.3208 0 -56.3208 -56.3208 0 -11.6364 38.881 0 0 -56.3208 -64.7012 0 0 0 -57.5938 -55.4623 0 0 0 0 0 -38.5614 -55.4623 0 0 0 0 0 0 -36.5 -47 -60 -60 -60 -60 0 -60 -60 -60 -60 0 0 -60 -60 -59 0 -60 -60 -58 -58 0 -58 0 -58 -58 -58 -58 -58 -58 -58 0 -58 -58 0 0 0 -59 -58 0 -59 0 0 0 0 0 0 0 0 0 0 0 0 0 0 0 0 0 0 0 0 -55 0 -55 0 -56 -55 0 -56 0 -55 0 -56 -55 -55 -54 0 -54 -54 -54 0 0 -55 0 -55 -55 -55 -55 -54 -54 -54 -54 -54 0 -54 -54 0 0 -54 -54 -54 -53 -53 -53 -53 -53 -53 -53 -53 -53 -53 -53 -53 -52 -52 -52 -52 0 -52 -52 0 -52 -52 -52 -51 -51 0 -51 -51 -51 -51 -51 -51 -51 -51 0 -50 -50 -50 0 -50 -50 -50 -50 -50 -49 -49 -49 -49 -49 -49 -49 0 -50 -49 0 -49 -48 -48 0 -49 -48 0 -49
-24.5418 -24.5418 -24.5418 -24.5418 -24.5418 -24.5418 -24.5418 -24.5418 -24.5418 -24.5418 -24.5418 -24.5418 -24.5418 -24.5418 -24.5418 -24.5418 -24.5418 -24.5418 -24.5418 -24.5418 -24.5418 -24.5418 -24.5418 -24.5418 -24.5418 -24.5418 -24.5418 -24.5418 -24.5418 -24.5418 -24.5418 -24.5418 -24.5418 -24.5418 -24.5418 -24.5418 -24.5418 -24.5418 -24.5418 -24.5418 -24.5418 -24.5418 -24.5418 -24.5418 -24.5418 -24.5418 -24.5418 -24.5418 -24.5418 -24.5418 -24.5418 -24.5418 -24.5418 -24.5418 -24.5418 -24.5418 -24.5418 -24.5418 -24.5418 -24.5418 -24.5418 -24.5418 -24.5418 -24.5418 -24.5418 -24.5418 -24.5418 -24.5418 -24.5418 -24.5418 -24.5418 -24.5418 -24.5418 -24.5418 -24.5418 -24.5418 -24.5418 -24.5418 -24.5418 -24.5418 -24.5418 -24.5418 -24.5418 -24.5418 -24.5418 -24.5418 -24.5418 -24.5418 -24.5418 -24.5418 -24.5418 0 -24.5418 -24.5418 -24.5418 -24.5418 -24.5418 -24.5418 -24.5418 -24.5418 -24.5418 -24.5418 -39.3788 -39.3788 -39.3788 -24.5418 -24.5418 -39.3788 -39.3788 -39.3788 -24.5418 -24.5418 -24.5418 -24.5418 -24.5418 -24.5418 -24.5418 -24.5418 -24.5418 -24.5418 -24.5418 -24.5418 -24.5418 -24.5418 -24.5418 -24.5418 -24.5418 -41.8063 0 -70.15 0 0 0 0 0 0 0 0 0 0 0 -77.3606 -77.3606 -77.3606 -58.8 0 0 0 0 0 0 0 -80.5417 -69.2042 0 0 0 0 0 0 0 0 0 0 0 0 0 0 0 0 0 0 0 0 0 0 0 0 0 0 0 0 0 0 0 0 0 0 0 0 0 0 -84 -84 0 0 -83.5 -83.5 0 0 0 0 0 0 0 0 0 0 0 0 0 0 0 0 0 0 0 0 0 0 0 0 0 0 0 0 0 0 0 0 0 0 0 -18 0 -17.5 -17.5 -17 -17 -17 0 0 0 0 -19 0 0 -16 0 0 0 0 -16 0 -15.8 -15.8 -15.8 0 0 0 0 0 0 0 0 0 0 0 0 0 0 0 0 -15 -15 -15 -15 0 0 0 0 0 0 0 -12.5 0 0 0 0 -15.6667 0 0 0 0 0 0 0 -15.5 0 0 0 -14.75 0 0 0 0 0 -14.75 -15.4444 -15.4444 0 0 0 0 -19.1667 -19.1667 0 -19.75 0 0 0 0 0 0 0 0 0 -22.5 -22.5 -22.5 -22.5 0 0 0 0 0 0 0 -22 -22 0 0 0 -24.5 0 0 0 0 0 -23.6667 -23 0 0 0 0 0 -24.5 -24 -24 0 0 -25.5 -27 -25.5 -26.5 -26.5 0 -26 -25.5 0 -26 0 0 0 -26 -26 -26 0 0 -27.5 -26.25 0 -26.25 -26.25 0 0 -29.4286 -29.4286 -29.4286 -25.5 -25.5 -27 0 0 0 0 0 -32.2 0 0 -30.1667 -30.1667 0 0 0 0 0 0 15 -39 0 -34 0 0 2 0 0 0 0 0 0 0 0 0 0 0 0 0 0 0 0 0 -39.9111 0 0 0 -5.64032 -56.3208 -56.3208 -38.3635 -50 0 -70 0 -62.9048 -56.3208 -5.64032 -5.64032 0 0 -56.3208 -11.6364 -5.64032 -5.64032 0 0 -56.3208 -64.7012 0 0 -55.4623 -55.4623 -55.4623 -75.6667 -75.6667 0 -40 -46.6667 -54 0 0 0 0 0 0 0 -36.5 0 0 0 -60 0 0 0 0 0 0 0 0 0 0 0 0 0 0 0 0 0 0 0 0 0 0 0 0 0 0 0 0 0 0 0 0 0 0 0 0 -57 0 -57 0 -57 -57 0 -57 -57 -57 0 -57 -57 -57 -57 -57 0 -57 0 -56 -56 -56 -55 0 -56 -55 0 -56 -56 -56 0 -56 -55 0 -54 -54 -54 -54 0 -54 0 -55 0 -55 -55 -55 -55 -54 -54 0 0 0 0 0 0 0 -54 0 0 0 0 0 0 0 -53 -53 -53 -53 -53 -53 -53 -53 -52 -52 -52 -52 0 -52 -52 0 -52 -52 0 -51 -51 0 -51 -51 -51 -51 -51 -51 -51 -51 0 -50 -50 -50 -50 0 0 -50 -50 -50 0 -49 0 0 0 0 0 0 0 0 0 0 0 0 0 0 0 0 0
-24.5418 -24.5418 -24.5418 -24.5418 -24.5418 -24.5418 -24.5418 -24.5418 -24.5418 -24.5418 -24.5418 -24.5418 -24.5418 -24.5418 -24.5418 -24.5418 -24.5418 -24.5418 -24.5418 -24.5418 -24.5418 -24.5418 -24.5418 -24.5418 -24.5418 -24.5418 -24.5418 -24.5418 -24.5418 -24.5418 -24.5418 -24.5418 -24.5418 -39.3788 -39.3788 -39.3788 -39.3788 -41.8063 -41.8063 -41.8063 -41.8063 -41.8063 -41.8063 -41.8063 -41.8063 -41.8063 -24.5418 -24.5418 -24.5418 -24.5418 -24.5418 -24.5418 -24.5418 -24.5418 -24.5418 -24.5418 -41.8063 -41.8063 -41.8063 -41.8063 -41.8063 -40.5526 -40.5526 -40.5526 -40.5526 -40.5526 -41.8063 -24.5418 -24.5418 -24.5418 -24.5418 -40.5526 -40.5526 -40.5526 -41.8063 -24.5418 -24.5418 -41.8063 -41.8063 -41.8063 -41.8063 -41.8063 -41.8063 -41.8063 -40.5526 -40.5526 -41.8063 -41.8063 -41.8063 -41.8063 -40.5526 -41.8063 -41.8063 -41.8063 -41.8063 -39.3788 -39.3788 -40.5526 -40.5526 -40.5526 -40.5526 -41.8063 -41.8063 -41.8063 -41.8063 -40.5526 -40.5526 -39.3788 -39.3788 -39.3788 -39.3788 -41.8063 -41.8063 -41.8063 -41.8063 -41.8063 -41.8063 -41.8063 -41.8063 -41.8063 -41.8063 0 -41.8063 -60.2443 -24.5418 -24.5418 -24.5418 -53.6222 0 0 -80.5647 -80.5647 0 -60.2443 0 0 0 0 -78 0 0 15.3333 -28.5 -28.5 0 0 -75.5 0 0 0 0 0 -80.5417 -69.2042 0 0 0 0 0 0 0 0 0 0 0 0 0 0 0 0 0 0 0 0 0 0 0 0 0 0 0 0 0 -85 0 0 0 0 -84.5 -84.5 0 0 -84 0 0 0 0 0 0 0 0 0 0 0 0 0 0 0 0 0 0 0 0 0 0 0 0 0 0 0 0 0 0 0 0 0 -81 0 0 0 0 0 0 0 -18 0 0 0 -19 -19 0 0 -15 -15 0 0 -17.5 0 0 0 -15 0 -15.5 0 0 -15.5 -15.5 -15.5 0 0 0 0 0 -15 0 0 0 0 -14.5 -13 -13 -13 0 -15 -15 -14 -14 0 0 -16 -13.5 -13.5 0 0 0 0 0 0 0 -14.5 0 0 -18.25 -21.5 -21.5 0 0 -15.5 -19 -19 -19 0 0 -14.75 -19.3333 0 0 -17.5 0 0 0 0 0 -12 0 -16.6667 0 0 0 0 0 0 0 0 -18.125 -30 -30 -18.125 -22 -19.1429 -19.1429 0 0 0 0 0 -22.5 0 0 0 0 0 0 -25 -22.5 -25.5 -25.5 0 -23.6667 -23.6667 -23 0 0 0 0 0 -25.8 -25 -25 0 0 0 0 -25.5 -25.5 -25.5 -24 0 0 -28 0 0 0 0 -26 -26 -26 -29.5 0 -27.5 -26.25 0 -33 -27.5 0 -29 -28 0 -28 0 0 -30.5 -30.5 -30.5 -30.5 -30.5 0 -31.5 0 0 0 0 0 0 0 -34.6667 0 0 0 -35 0 0 0 0 -67 0 0 0 0 0 -60.6911 0 0 0 0 0 0 0 0 0 0 -38.437 0 0 0 0 0 0 0 0 0 -72.5714 0 0 0 0 0 0 0 0 0 0 -2.75635 0 0 0 0 0 -48.0714 -64.7012 -55.4623 0 -76.4286 -76.4286 -76.4286 0 0 -40 0 0 0 0 0 0 0 0 -60 -59 -46 -19 0 -60 0 0 0 -60 -60 0 -60 -60 -60 0 0 0 -60 -59 0 0 -58 -58 -58 -58 -58 -58 -58 -58 -58 -57 0 -58 0 -58 0 -59 -58 0 0 -59 0 -57 0 -57 -57 -57 -57 -57 -57 0 -57 -57 -57 -57 -57 -56 0 -57 -56 0 0 -55 0 -56 0 0 0 0 0 0 0 0 0 0 0 0 0 0 -54 0 -55 -55 0 -55 -55 -55 -55 -54 -54 -54 -54 0 -54 -54 0 -54 -54 -54 -54 -54 -53 -53 -53 -53 -53 -53 -53 -53 -53 -53 0 -52 -52 -52 -52 -52 -52 -52 0 -52 -52 0 -52 0 0 0 0 0 0 0 0 0 0 0 0 0 0 0 -50 -50 0 0 0 -49 0 -49 -49 -49 -49 -49 0 -49 -49 0 -48 -48 -48 0 -48 -48 0 -49
-24.5418 -24.5418 -24.5418 -24.5418 -24.5418 -24.5418 -24.5418 -24.5418 -24.5418 -24.5418 -24.5418 -24.5418 -24.5418 -24.5418 -24.5418 -24.5418 -24.5418 -24.5418 -24.5418 -24.5418 -24.5418 -24.5418 -24.5418 -24.5418 -24.5418 -24.5418 -24.5418 -24.5418 -24.5418 -24.5418 -39.3788 -39.3788 -39.3788 -40.5526 -40.5526 -40.5526 -40.5526 -40.5526 -41.8063 -41.8063 -41.8063 -41.8063 -41.8063 -24.5418 -24.5418 -24.5418 -24.5418 -24.5418 -24.5418 -24.5418 -24.5418 -24.5418 -24.5418 -24.5418 -24.5418 -24.5418 -24.5418 -24.5418 -24.5418 -41.8063 -41.8063 -40.5526 -40.5526 -40.5526 -40.5526 -40.5526 -40.5526 -41.8063 -41.8063 -24.5418 -24.5418 -40.5526 -40.5526 -40.5526 -39.3788 -24.5418 -24.5418 -24.5418 -24.5418 -41.8063 -41.8063 -41.8063 -41.8063 -24.5418 -39.3788 -39.3788 -39.3788 -39.3788 -41.8063 -41.8063 -41.8063 -40.5526 -40.5526 -40.5526 -40.5526 -39.3788 -39.3788 -40.5526 -40.5526 -40.5526 -40.5526 -41.8063 -41.8063 -41.8063 -41.8063 -41.8063 -41.8063 -40.5526 -40.5526 -39.3788 -39.3788 -41.8063 -41.8063 -41.8063 -41.8063 -41.8063 -41.8063 -41.8063 -41.8063 -41.8063 -41.8063 -41.8063 -41.8063 -41.8063 -24.5418 -24.5418 -24.5418 -24.5418 -74.4091 0 -63.9447 -63.9447 0 0 0 0 0 0 0 0 -74 0 -43.5833 -43.5833 0 -54 -77.5 0 0 0 0 0 0 -69.2042 0 0 0 -84.5 -82 -82 0 0 0 0 0 0 0 0 0 0 0 0 0 0 0 0 0 0 -85 -85 -85 -84.5 -84.5 -85 0 0 0 0 -84.5 -84.5 0 0 -84 0 0 0 0 0 0 0 0 0 0 0 0 0 0 0 -83 0 -82 -82.5 -82.5 -82 -82 0 -82 -82 0 0 -81.3333 -81.3333 -82 0 0 0 0 0 0 0 -81 0 0 0 -17 0 0 0 -18.5 -18.5 0 0 -14.5 0 0 -17.5 -15.5 -17.5 -17.5 0 0 0 0 0 -15 0 -15.5 0 0 0 0 0 -12 0 -13 0 0 -14.5 -14.5 -14.5 -14 0 -15 0 0 0 0 0 0 0 0 0 0 0 -18.25 0 0 0 0 -14.2 -13 -18.25 0 0 0 -17.6667 -16.5 -12.5 0 0 0 -19.3333 0 0 -18.3182 0 0 0 -17.75 -17.75 -21.4286 -18.5 0 0 0 0 0 -18.125 0 0 -19.1429 -19.1429 -18.125 0 0 0 0 -18.1667 -23.1667 -22 -18.1667 0 -26 -21 0 0 0 0 0 -22 0 0 0 0 0 0 0 0 -24 0 0 0 -23 0 0 -25.8 -25.8 -25.8 -24.5 0 0 0 0 -25 0 -24.5 -24.5 0 0 0 -27 -29.75 0 0 0 0 -28.1667 -29.75 -29.75 -27.5 0 -28.1667 0 0 -29 0 -29 -31 0 0 -31 -31 -29 -29 0 0 -30.5 0 0 0 0 -35 0 0 0 0 -34.6667 0 0 0 0 0 0 0 -67 0 0 0 0 0 0 0 0 0 0 0 0 0 0 0 0 0 0 -46 0 0 0 0 0 0 0 0 0 0 0 0 0 0 0 0 0 0 -53 -68 0 0 0 0 -84.95 0 0 0 -76.4286 -76.4286 -76.4286 0 0 0 0 0 0 0 0 0 0 0 -60 0 -19 -60 -60 -60 -60 0 -60 -60 -60 0 -60 -60 0 0 0 -59 0 -59 0 0 0 0 -58 0 0 0 0 0 0 0 0 0 0 0 0 0 0 0 0 0 0 0 0 0 0 0 0 0 0 0 0 0 0 0 -57 -56 0 -57 -56 0 -56 -55 0 -56 0 -55 -55 0 -55 0 -56 -55 0 -54 -54 -54 -54 -54 -54 0 -55 -55 0 -55 -56 -55 -55 -54 -54 0 0 0 -54 -54 -54 -54 0 -54 0 0 0 0 0 0 0 0 0 0 -53 -53 -53 -53 -52 -52 -52 -52 -52 -52 -52 -52 -52 -52 -52 -50 0 -51 -51 -51 -51 -51 -51 -51 -51 -51 -50 -50 0 -50 -50 -50 0 -50 -50 -50 -49 -49 -49 -49 -49 -49 0 -49 -49 -48 -48 -48 -48 0 -49 -48 0 -49
-24.5418 -24.5418 -24.5418 -24.5418 -24.5418 -24.5418 -24.5418 -24.5418 -24.5418 -24.5418 -24.5418 -24.5418 -24.5418 -24.5418 -24.5418 -24.5418 -24.5418 -24.5418 -24.5418 -24.5418 -24.5418 -24.5418 -24.5418 -24.5418 -24.5418 -24.5418 -24.5418 -24.5418 -24.5418 -24.5418 -24.5418 -24.5418 -24.5418 -24.5418 -24.5418 -24.5418 -24.5418 -24.5418 -24.5418 -24.5418 -24.5418 -24.5418 -24.5418 -24.5418 -24.5418 -24.5418 -24.5418 -24.5418 -24.5418 -24.5418 -24.5418 -24.5418 -24.5418 -24.5418 -24.5418 -24.5418 -24.5418 -24.5418 -24.5418 -24.5418 -24.5418 -24.5418 -24.5418 -24.5418 -24.5418 -24.5418 -24.5418 -24.5418 -24.5418 -24.5418 -24.5418 -24.5418 -24.5418 -24.5418 -24.5418 -24.5418 -24.5418 -24.5418 -24.5418 -24.5418 -24.5418 -24.5418 -24.5418 -24.5418 -24.5418 -24.5418 -24.5418 -24.5418 -24.5418 -24.5418 -24.5418 -24.5418 -24.5418 -24.5418 -24.5418 -24.5418 -24.5418 -24.5418 -24.5418 -24.5418 -24.5418 -24.5418 -24.5418 -24.5418 -24.5418 -24.5418 -24.5418 -24.5418 -24.5418 -24.5418 -24.5418 -24.5418 -24.5418 -24.5418 -24.5418 -24.5418 -24.5418 -24.5418 -24.5418 -24.5418 -24.5418 -24.5418 -24.5418 -24.5418 -24.5418 -24.5418 -24.5418 -62.2017 -62.1071 0 0 0 -59.1667 -6.66667 0 0 0 0 0 0 -79.5455 52.5 0 0 0 0 0 0 0 0 0 0 0 0 0 0 0 0 0 0 0 0 0 0 0 0 0 0 0 0 0 -85 0 -85 -85.5 -85.5 0 0 0 0 0 0 0 0 0 0 0 0 0 0 0 0 0 0 0 0 0 0 0 -83 -83 -83 -82 0 0 0 0 0 -83 0 -82 -82.5 -82.5 -82 -82 0 -82 -82 0 0 -81.3333 0 0 0 0 0 0 0 -81.5 -81.5 -81 -81 -49 0 0 -20.5 -20.5 0 0 -18 0 0 0 0 -17 0 0 0 0 0 0 0 -15.5 -15 0 -14 -14 0 0 0 0 -13.6667 0 -13 -13 -13 0 0 -14.5 -14.5 0 0 -14 0 -14 -14 -13.5 0 0 0 0 0 0 -10 -10 -13.5 -13 -13 0 0 0 0 0 0 0 -17.6667 -15.5 -14.6667 -18.3182 -18.3182 -18.3182 -18.3182 -19.3333 0 -17.5 0 0 0 0 -15 0 -20 -19.5 0 0 -18.125 0 -19.5 -18.5 -20.6667 -18.1667 -18.1667 0 -18.125 0 0 0 -19.1429 -18.1667 -19.1429 0 0 0 0 -21 0 0 0 0 -23 -23 0 -20 -23 0 0 0 0 -24 -24.5 -24.5 -22.5 0 -24.5 -24.5 -25.8 -24 -24.5 -24 -24 0 0 -25.5 0 0 0 0 -21 -25 -29.75 -27.5 0 0 0 0 0 0 0 0 0 0 0 -28.5 -28.5 -30 -26 0 -29.8 -30 -30 -31.5 -31 -30.5 -30 -30.5 -30.5 -30.5 -30.5 -33 0 0 0 0 -34.6667 -32.5 -32.5 0 0 0 -40.1667 0 0 0 0 0 0 0 0 0 0 0 0 0 0 0 0 0 0 0 0 0 0 0 -2.75635 0 0 0 -26.5 -2.75635 0 0 0 0 -56.3208 -56.3208 0 0 0 0 0 0 -5.64032 -5.64032 0 -5.64032 -5.64032 -5.64032 -56.3208 -56.3208 0 0 0 0 -57.5938 -57.5938 0 0 0 -84.95 0 0 -54.2 0 0 0 0 0 0 0 0 0 0 0 0 0 0 0 0 0 0 -60 -59 0 0 0 0 0 -59 -58 -58 0 0 -58 0 -58 -58 -58 -58 0 -58 0 -58 0 -59 -58 -58 0 -59 -58 -57 0 -57 -57 -57 -57 -57 -57 -57 -57 -57 -57 -57 -57 -56 0 -57 -56 0 -56 -55 0 -56 0 -55 0 -56 -55 0 -56 -55 0 -55 -54 -54 0 -54 -54 -54 0 0 -55 -55 -55 -55 0 -54 0 -54 -54 0 -54 -54 -54 -54 -54 -54 -54 -54 -53 -53 -53 -53 -53 -52.5 -52.5 -53 -52 0 -53 -53 -52 -52 -52 -52 -52 -52 -52 -52 -52 -52 -52 -50.5 0 -51 0 -51 -51 -51 -51 -51 -51 -51 -50 -50 0 -50 -50 -50 0 -50 -50 -50 -49 -49 0 -49 -49 0 0 0 0 0 0 0 0 0 0 0 0 0
-24.5418 -24.5418 -24.5418 -24.5418 -24.5418 -24.5418 -24.5418 -24.5418 -24.5418 -24.5418 -24.5418 -24.5418 -24.5418 -24.5418 -24.5418 -24.5418 -24.5418 -24.5418 -24.5418 -24.5418 -24.5418 -24.5418 -24.5418 -24.5418 -24.5418 -24.5418 -24.5418 -24.5418 -24.5418 -24.5418 -24.5418 -24.5418 -24.5418 -24.5418 -24.5418 -24.5418 -24.5418 -24.5418 -24.5418 -24.5418 -24.5418 -24.5418 -24.5418 -24.5418 -24.5418 -24.5418 -24.5418 -24.5418 -24.5418 -24.5418 -24.5418 -24.5418 -24.5418 -24.5418 -24.5418 -24.5418 -24.5418 -24.5418 -24.5418 -24.5418 -24.5418 -24.5418 -24.5418 -24.5418 -24.5418 -24.5418 -24.5418 -24.5418 -24.5418 -24.5418 -24.5418 -24.5418 -24.5418 -24.5418 -24.5418 -24.5418 -24.5418 -24.5418 -24.5418 -24.5418 -24.5418 -24.5418 -24.5418 -24.5418 -24.5418 -24.5418 -24.5418 -24.5418 -24.5418 -24.5418 -24.5418 -24.5418 -24.5418 -24.5418 -24.5418 -24.5418 -24.5418 -24.5418 -24.5418 -24.5418 -24.5418 -24.5418 -24.5418 -24.5418 -24.5418 -24.5418 -24.5418 -24.5418 -24.5418 -24.5418 -24.5418 -24.5418 -24.5418 -24.5418 -24.5418 -24.5418 -24.5418 -24.5418 -24.5418 -24.5418 -24.5418 -24.5418 -24.5418 -24.5418 -24.5418 -24.5418 -24.5418 -62.2017 -80.1385 -51.48 -51.48 -40.5526 0 -6.66667 0 -37.1763 -37.1763 -58.8 -58.8 -58 -21.6364 -74.625 -74.625 0 0 0 -69.75 0 0 -80.5 0 0 0 0 0 0 0 0 0 0 0 0 0 0 0 0 0 0 0 0 0 0 0 0 0 0 0 0 0 0 0 0 0 0 0 0 0 0 0 0 0 0 0 0 0 0 0 -84 -84 0 0 0 0 0 0 0 0 0 0 0 0 0 0 0 0 0 0 0 0 0 0 0 0 0 0 0 0 0 -81.5 -81.5 -81 -81 -49 0 0 0 0 0 0 0 -18 -18 -18 -16 -16 0 0 -16.5 -16.5 0 -15 0 0 0 -14 -14 0 0 0 0 0 -13 0 0 0 0 0 0 -14.5 -14.5 0 0 -13.5 0 -13.5 -13.5 0 -12 0 0 0 0 0 0 -13.5 0 -13 0 -17.6667 0 0 0 0 0 0 0 -17.6667 0 -18.3182 0 -19 -18.3182 -18.3182 -18.3182 0 0 0 0 0 0 -18 0 -18.125 -18.125 -15.1 -15.1 -16.5 -20 -16.5 -19 0 0 0 0 0 -18.1667 0 -19.1429 0 0 -25.5333 -25.5333 0 0 0 0 -23 0 0 -22 -20 0 0 0 0 0 -28 0 -23.5 -23 -25 0 -23.5 -24 -25 0 -24 -24 -26 -26 -24 0 -25.5 0 0 -27.5 -27 -25 -29.5 0 0 -25.8333 -25.8333 0 0 0 0 0 -27 0 -24.5 -31.5 -28.5 -28.5 -30 0 0 -24.75 0 0 0 -24.75 0 -30.5 -31.75 -31.75 -31.75 -31.75 -31 0 0 -33 -31 0 -29.5 0 0 0 -44 0 0 0 0 0 -75.6667 -43.1923 0 0 0 0 0 0 0 0 -36.8214 0 0 0 0 0 0 0 -33.2 0 0 0 0 -2.75635 -2.75635 0 0 0 0 -56.3208 -56.3208 -56.3208 -5.64032 -5.64032 -5.64032 -5.64032 -5.64032 -5.64032 -5.64032 -5.64032 -5.64032 0 -5.64032 0 0 -56.3 0 -38.5614 -38.5614 -57.5938 -57.5938 -57.5938 -66.1667 0 0 0 0 -56 -54.2 0 0 -61 -59.5 -59.5 -60 -60 -61 -60 -60 -60 -60 -60 -60 0 -60 -60 -60 0 -60 -60 -60 -59 0 -59 0 -58 -58 -58 -58 -58 -58 -58 -58 0 -58 -58 0 0 0 0 0 0 0 0 -58 -57 0 0 0 0 0 0 0 0 0 0 0 -57 0 0 0 0 0 0 0 0 0 0 0 0 0 0 0 0 0 0 0 0 0 0 0 0 0 -54 -54 0 -55 -55 -55 0 -55 -55 0 -54 -54 -54 -54 -54 -54 -54 -54 -54 -54 -54 -53 -53 -53 -53 -53 -53 -53 -53 -53 0 -53 -52 -52 -52 -52 -52 -52 -52 -52 -52 -52 -52 -52 -51 -51 -51 0 -51 0 -51 -51 0 0 -51 -50 -50 0 -50 -50 -50 -50 -50 -50 0 -49 -49 0 -49 -49 0 -50 -49 -49 0 -48 -48 0 -49 -49 -48 -48 0
-24.5418 -24.5418 -24.5418 -24.5418 -24.5418 -24.5418 -24.5418 -24.5418 -24.5418 -24.5418 -24.5418 -24.5418 -24.5418 -24.5418 -24.5418 -24.5418 -24.5418 -24.5418 -24.5418 -24.5418 -24.5418 -24.5418 -24.5418 -24.5418 -24.5418 -24.5418 -24.5418 -24.5418 -24.5418 -24.5418 -40.5526 -40.5526 -40.5526 -40.5526 -40.5526 -40.5526 -40.5526 -40.5526 -24.5418 -24.5418 -24.5418 -24.5418 -24.5418 -24.5418 -24.5418 -24.5418 -24.5418 -24.5418 -24.5418 -24.5418 -24.5418 -24.5418 -24.5418 -24.5418 -24.5418 -24.5418 -24.5418 -24.5418 -24.5418 -24.5418 -24.5418 -40.5526 -40.5526 -40.5526 -40.5526 -40.5526 -40.5526 -40.5526 -40.5526 -40.5526 -40.5526 -39.3788 -39.3788 -39.3788 -39.3788 -39.3788 -24.5418 -24.5418 -39.3788 -39.3788 -39.3788 -39.3788 -39.3788 -39.3788 -39.3788 -39.3788 -39.3788 -39.3788 -24.5418 -24.5418 -41.8063 -40.5526 -40.5526 -40.5526 -40.5526 -41.8063 -41.8063 -41.8063 -41.8063 -41.8063 -41.8063 -41.8063 -41.8063 -41.8063 -41.8063 -41.8063 -41.8063 -41.8063 -41.8063 -40.5526 -39.3788 -40.5526 -40.5526 -40.5526 -40.5526 -40.5526 -40.5526 -40.5526 -40.5526 -40.5526 -40.5526 -24.5418 -24.5418 -24.5418 -24.5418 -24.5418 -24.5418 -24.5418 0 -54.8947 -54.8947 0 -40.5526 0 0 -79.1264 -79.1264 -61.5714 -77.5552 -80.4286 0 10.7949 10.7949 -35.1503 0 0 0 0 0 0 0 -83 -77.5552 0 0 0 0 0 0 0 0 0 0 0 0 0 0 0 0 0 0 0 0 0 0 0 0 0 0 0 0 0 0 0 0 0 0 -84 0 0 0 0 0 -84 0 0 0 0 0 0 0 0 0 0 0 0 0 0 0 -82 0 0 0 -83 0 0 -82 -82 0 0 0 -82 -82 0 0 -81 -81 0 -81.5 -81.5 -81 -81 0 0 0 0 0 0 0 0 -18 -18 -18 -16 0 -15 -15.5 -15.5 0 0 -15.5 -14 0 0 0 0 0 0 0 0 -13 0 0 0 0 -13 0 0 0 0 0 0 0 0 -15.5 0 0 0 0 0 0 0 0 0 0 -7.5 -10.6667 0 -19 0 0 0 0 0 0 0 -13.5 0 -15.5 0 -18.3182 0 -22 -18.3182 0 0 0 0 0 -20 0 0 -18 0 0 0 -20 0 0 0 0 0 0 0 0 -20.3333 0 -19 0 0 -25.5333 0 -22.5 0 0 -22.5 0 0 0 -24 0 -20.5 0 0 0 0 0 -23.5 -23.5 -23 -23 0 -23.5 -24 -24 0 0 -24 0 -25 -27 0 0 0 0 0 0 0 0 0 0 0 0 0 -26 0 0 0 -28.5 -28.5 -24.75 -24.75 -30 -30 0 0 0 -27 -29 -29 -29 -30 -30.5 -30.5 -30.5 -30.5 -30.5 0 0 0 -31 -29.5 -31 0 0 0 0 0 0 0 -76.4286 0 0 0 0 0 0 0 0 0 0 0 0 0 -60.6911 0 -56.3208 -34.5 0 0 0 0 0 0 0 0 0 -60.6911 0 0 0 0 -46 0 0 0 -39.2 -39.2 -39.2 0 0 0 0 0 0 0 0 0 0 -39.962 -53.127 -53.127 -38.5614 -57.5938 -57.5938 -64.7012 -53.127 0 -53.127 -53 0 0 0 0 0 -61 0 0 0 0 0 0 0 0 0 0 0 0 0 0 0 0 0 0 0 0 0 0 0 0 0 0 0 0 0 0 0 0 0 0 0 -58 0 0 0 -58 0 -59 0 0 0 -57 -57 -57 -57 -57 -57 0 -57 -57 -57 0 -57 0 -57 -57 -57 0 -56 -55 0 -56 -56 -55 0 -56 -55 0 -55 -55 0 -55 -54 -54 0 0 0 -54 -54 0 0 0 -57 0 0 -55 -54 -54 0 0 -54 0 0 0 0 0 0 0 0 -53 -53 0 -53 -53 -53 -53 -53 0 -53 -53 -53 -52 0 -52 -52 -52 -52 -52 -52 -52 -52 -52 0 -51 0 -51 -51 -50.5 -50.5 -51 -51 -51 -50 0 -50 -50 -50 0 -50 -50 -50 -50 -49 -49 0 -49 -49 0 -50 -49 -49 -49 -49 -48 0 -49 -49 -48 0 -49
-24.5418 -24.5418 -24.5418 -24.5418 -24.5418 -24.5418 -24.5418 -24.5418 -24.5418 -24.5418 -24.5418 -24.5418 -24.5418 -24.5418 -24.5418 -24.5418 -24.5418 -24.5418 -24.5418 -24.5418 -24.5418 -24.5418 -24.5418 -24.5418 -24.5418 -24.5418 -24.5418 -24.5418 -24.5418 -24.5418 -39.3788 -39.3788 -39.3788 -40.5526 -41.8063 -41.8063 -41.8063 -24.5418 -24.5418 -24.5418 -24.5418 -24.5418 -24.5418 -24.5418 -24.5418 -24.5418 -24.5418 -24.5418 -24.5418 -24.5418 -24.5418 -24.5418 -24.5418 -24.5418 -24.5418 -24.5418 -24.5418 -24.5418 -24.5418 -24.5418 -24.5418 -40.5526 -40.5526 -40.5526 -40.5526 -40.5526 -40.5526 -40.5526 -40.5526 -40.5526 -40.5526 -39.3788 -39.3788 -39.3788 -24.5418 -24.5418 -24.5418 -24.5418 -24.5418 -39.3788 -39.3788 -39.3788 -39.3788 -39.3788 -39.3788 -39.3788 -39.3788 -39.3788 -24.5418 -41.8063 -41.8063 -40.5526 -40.5526 -40.5526 -40.5526 -41.8063 -41.8063 -41.8063 -41.8063 -41.8063 -41.8063 -39.3788 -39.3788 -40.5526 -40.5526 -40.5526 -40.5526 -40.5526 -40.5526 -39.3788 -39.3788 -40.5526 -40.5526 -40.5526 -40.5526 -40.5526 -40.5526 -40.5526 -40.5526 -40.5526 -39.3788 -24.5418 -24.5418 -56.2518 -56.2518 -24.5418 -24.5418 -41.8063 0 0 0 0 60.8333 0 0 0 0 0 0 0 0 0 0 0 0 0 0 0 0 -79.4222 0 0 -83 0 0 -47.0969 -84.25 -85 0 0 0 0 0 0 0 0 0 0 0 0 0 0 0 0 0 0 -85 -85 -85 -84 0 0 -85 -85 0 0 0 0 0 0 0 0 0 0 0 0 0 0 0 0 0 0 0 -82.5 -82.5 -83 0 -83 0 -82 -82 -82.5 -82.5 0 0 -82 -82 0 0 0 0 0 -82 0 0 -81 0 -81 0 0 0 0 0 0 0 0 0 0 0 0 0 0 0 0 0 -15 -15.5 -15.5 0 0 -15.5 -14 0 -14 -14 0 0 0 -14 -14 0 -14 0 -13 -13 0 -13 0 0 -14.6667 0 0 -13.5 0 -15 0 0 0 0 0 0 0 0 0 0 0 0 0 0 0 0 -14 -14 -14 0 0 -15.5 0 -13.3333 0 0 -14.5 0 0 -17 -17.6667 -17.6667 -17.6667 -17.6667 -17.6667 -21.5 0 -17 0 0 0 0 0 0 0 0 0 -20.8571 -20.8571 0 -20.8571 0 0 0 0 -22.1667 -20.5 0 0 -22 0 0 -23 -20.5 -20.5 0 -21.5 -21.5 -21.5 0 0 0 0 0 -24 -23 0 0 -23.5 -23.5 0 0 -24 0 0 -25 0 -25 0 0 0 0 0 0 0 0 -24 -27 0 0 -28 -28 -28 -28 -28.5 0 0 -28.5 -28.6429 -31 0 -29 -28.5 0 0 0 0 0 0 -33 -29.8333 -29.8333 -35 -35 -35 -35 -32 0 3.33333 21 0 0 0 0 -65 0 0 0 -85.3333 0 0 0 0 -56.3208 0 0 0 0 0 -76.4207 0 0 -39.962 0 0 0 0 0 -39.2 0 0 0 0 -25.9048 0 0 0 0 0 0 0 0 0 0 0 0 -39.2 0 0 0 0 0 0 0 -56.3 -42.5 0 -55.4623 -55.4623 -55.4623 -56.3208 -53.127 -66.1667 0 0 0 0 0 0 0 0 -60 0 -60 -60 -60 0 -60 -60 -60 -60 -60 0 -60 -60 -60 0 -59 0 -60 0 -59 -59 0 -59 -58 -58 -58 -58 -58 -58 -58 0 -58 -58 -58 -57 0 0 0 -58 0 -58 0 -59 0 -57 -57 -57 0 -57 -57 -57 -57 -57 -57 -57 -57 0 -57 -57 0 0 -56 -55 0 -56 -56 0 0 -56 -55 0 0 0 0 0 0 0 -54 -54 0 0 0 0 0 0 -55 -55 -55 -55 -54 -54 -54 -54 -54 -54 -54 -54 -54 -54 -54 -54 -54 -53 -53 0 -53 -53 -53 -53 -53 -53 -53 -53 -53 -52 -52 -52 -52 -52 -52 -52 -52 0 -52 -52 0 -51 0 -51 -51 -51 0 -51 -51 -51 -51 -49 0 -50 -50 0 0 -50 -50 -50 -50 -49 0 -49 -49 0 -50 -49 -49 -49 -49 0 0 0 0 -48 0 0
-24.5418 -24.5418 -24.5418 -24.5418 -24.5418 -24.5418 -24.5418 -24.5418 -24.5418 -24.5418 -24.5418 -24.5418 -24.5418 -24.5418 -24.5418 -24.5418 -24.5418 -24.5418 -24.5418 -24.5418 -24.5418 -24.5418 -24.5418 -24.5418 -24.5418 -24.5418 -24.5418 -24.5418 -24.5418 -24.5418 -24.5418 -24.5418 -24.5418 -24.5418 -24.5418 -24.5418 -24.5418 -24.5418 -24.5418 -24.5418 -24.5418 -24.5418 -24.5418 -24.5418 -24.5418 -24.5418 -24.5418 -24.5418 -24.5418 -24.5418 -24.5418 -24.5418 -24.5418 -24.5418 -24.5418 -24.5418 -24.5418 -24.5418 -24.5418 -24.5418 -24.5418 -24.5418 -24.5418 -24.5418 -24.5418 -24.5418 -24.5418 -24.5418 -24.5418 -24.5418 -24.5418 -24.5418 -24.5418 -24.5418 -24.5418 -24.5418 -24.5418 -24.5418 -24.5418 -24.5418 -24.5418 -24.5418 -24.5418 -24.5418 -24.5418 -24.5418 -24.5418 -24.5418 -24.5418 -24.5418 -24.5418 -24.5418 -24.5418 -24.5418 -24.5418 -24.5418 -24.5418 -24.5418 -24.5418 -24.5418 -24.5418 -24.5418 -24.5418 -24.5418 -24.5418 -24.5418 -24.5418 -24.5418 -24.5418 -24.5418 -24.5418 -24.5418 -24.5418 -24.5418 -24.5418 -24.5418 -24.5418 -24.5418 -24.5418 -24.5418 -24.5418 -39.3788 -24.5418 -24.5418 -24.5418 -24.5418 -24.5418 -24.5418 -77.3606 -51.48 -51.48 -80.3571 0 -67.25 -40.5526 0 0 0 0 0 0 0 0 0 0 0 0 0 0 0 0 0 0 0 0 -82 -83 0 0 0 0 0 0 0 0 0 0 0 0 0 0 0 -85 -85.5 -85.5 0 0 0 0 0 0 0 0 0 0 0 0 0 0 0 -84 -84 0 -83 -83 0 0 -84 0 0 -83 -83 0 0 0 0 -83 0 0 -82 -82.5 -82.5 0 0 0 -82 -82 0 0 -81.5 -81.5 0 -82 0 0 -81 0 0 0 0 -81 0 0 0 0 0 -19.5 -19.5 0 0 -17 0 0 -17 0 0 0 0 -15 0 -14.5 0 -14 -14 -14 0 0 0 -14 -14 0 0 0 0 -13 0 0 -13 -13 0 -13 -13.5 -13.5 -12 0 0 -12 0 -13 -13.5 -13.5 -12.5 -12.5 0 0 0 0 0 0 0 -13.5 0 0 0 -11.5 0 -11.8333 -17 -17 0 -17 0 0 0 0 -17.6667 0 0 0 0 0 0 0 0 0 0 0 -17 0 0 -18 -24 -20 -20 0 0 0 0 -22 0 0 -22.1667 0 0 0 -22.5 0 -23 0 0 0 -20.5 -20.5 -20.5 0 0 -22.3333 -25.1667 -25.1667 -23.5 -24 -24 -24 -24.5 -23.5 -23.5 0 0 0 0 0 0 0 0 0 0 0 0 -25.5 -25.5 0 0 -28 0 0 -26.5 0 -29 -28 -28.6429 -28.6429 -28.6429 -28.6429 -28.6429 0 0 0 -29 -30.5 -29.5 0 0 0 -35 -35 -29.8333 -32.6667 0 0 0 0 -31 0 -35 0 0 0 0 -73.5 0 0 0 0 0 0 0 0 22.2667 0 0 0 0 0 0 -46 0 0 0 0 0 -46 0 0 -39.3788 -56.3208 -5.64032 -5.64032 0 0 0 0 -56.3208 0 -38.437 -56.3208 -56.3208 -56.3208 -56.3208 0 0 0 0 0 0 -56.3208 -56.3208 -2.75635 -56.3208 -53.127 -46.8889 -64.7012 -66.1667 -66.1667 -56.3208 -56.3208 -55.4623 0 0 0 0 0 0 0 -59 0 0 -60 0 -60 -60 -60 0 -60 0 0 0 0 0 -60 0 0 0 0 0 0 0 0 0 0 0 0 0 0 0 0 0 0 0 0 0 0 0 0 0 0 0 0 0 0 0 0 0 0 0 -57 0 0 0 0 0 0 0 0 0 0 0 0 -57 0 0 0 0 -56 -55 0 -56 -55 0 -55 -55 -55.5 -55.5 -55 -54 0 -54 0 0 -54 -54 0 -55 -55 -55 -55 -55 -55 -54 -54 -54 -54 -54 -54 -54 -54 -54 -54 -54 -54 -53 -53 0 -53 -53 0 -53 -53 -53 -53 -53 -53 -52 -52 -52 -52 -52 -52 -52 -52 -52 -52 -52 0 -51 0 -51 -51 -51 -51 -51 -51 -51 -51 -50 0 -50 -50 0 0 0 0 0 -50 0 0 -50 0 0 0 -50 0 0 0 -49 -48 0 -49 -48 -48 0
-24.5418 -24.5418 -24.5418 -24.5418 -24.5418 -24.5418 -24.5418 -24.5418 -24.5418 -24.5418 -24.5418 -24.5418 -24.5418 -24.5418 -24.5418 -24.5418 -24.5418 -24.5418 -24.5418 -24.5418 -24.5418 -24.5418 -24.5418 -24.5418 -24.5418 -24.5418 -24.5418 -24.5418 -24.5418 -24.5418 -24.5418 -24.5418 -24.5418 -24.5418 -41.8063 -41.8063 -41.8063 -24.5418 -24.5418 -24.5418 -24.5418 -24.5418 -24.5418 -24.5418 -24.5418 -24.5418 -24.5418 -24.5418 -24.5418 -24.5418 -24.5418 -24.5418 -24.5418 -24.5418 -24.5418 -24.5418 -24.5418 -24.5418 -24.5418 -24.5418 -24.5418 -24.5418 -24.5418 -24.5418 -24.5418 -24.5418 -24.5418 -24.5418 -24.5418 -24.5418 -24.5418 0 0 -24.5418 -24.5418 -24.5418 -24.5418 -24.5418 -24.5418 -24.5418 -39.3788 -24.5418 -24.5418 -24.5418 -24.5418 -24.5418 -24.5418 -24.5418 -24.5418 -24.5418 -39.3788 -24.5418 -24.5418 -24.5418 -24.5418 -24.5418 -24.5418 -24.5418 -24.5418 -24.5418 -24.5418 -24.5418 -24.5418 -24.5418 -24.5418 -24.5418 -24.5418 -24.5418 -24.5418 -24.5418 -24.5418 -24.5418 -24.5418 -24.5418 -24.5418 -24.5418 -24.5418 -24.5418 -24.5418 -24.5418 -24.5418 -39.3788 -24.5418 -24.5418 -24.5418 -24.5418 0 0 -67.0385 0 0 0 0 0 -18.5 0 0 0 0 0 0 0 0 0 0 0 -83.8333 0 0 -82 0 0 0 -63.9447 -63.9447 -77.5552 0 0 0 0 0 0 0 0 0 0 0 0 0 0 0 0 0 0 0 0 0 0 0 0 0 0 0 0 0 0 -84 0 0 0 -84 -84 0 0 -83.5 -83.5 -84 0 0 -83 -83 0 0 0 0 0 -83 0 0 0 0 0 0 -83 -83 -82 -82 0 0 0 -82 -82 -82 0 0 -81 -81 0 0 -81 0 -81 -57 0 0 0 -16.5 -16.5 -16.5 0 0 0 0 0 0 -15 -15.5 -15.5 -15 0 0 -14 0 0 0 0 0 0 0 0 -13 0 0 0 -13 0 0 -13 -13.5 -13.5 0 0 0 -13.5 -13 0 0 0 -11.5 -11.5 0 0 -14.7143 -14.7143 -14.7143 0 0 0 0 0 0 0 0 0 -11 -11.8333 0 0 0 -18.5 -18.5 0 0 -15.5 0 0 0 0 0 -17 -21.5 0 -21.5 -20.25 -21.5 0 0 0 0 0 -20 0 0 0 0 0 0 0 0 -21.5 -21.5 -24.8 0 0 -22.6667 0 0 0 0 -21.5 0 0 0 0 0 0 0 -25.1667 -25.1667 -25.1667 -25.1667 -23.5 0 0 0 -24.5 -24.5 -24 -24.5 0 0 0 0 0 0 0 -26 -26 0 0 -26 -27.6667 -27.6667 -29 -29.5 -27 -29.5 -29.5 0 -29.5 -28.6429 0 -30.3333 0 0 0 0 -31.5 -30.5 0 0 0 0 29 0 -30.5 0 0 -35 0 0 -70.25 0 -34 0 0 0 0 0 0 0 0 0 0 0 0 0 -39.962 0 0 0 0 -46 0 0 0 -76.4207 0 0 0 -46 -46 0 0 -62.9048 -22.375 -11.6364 -55.5 0 0 0 0 0 0 -5.64032 -56.3208 -56.3208 -48.1364 -56.3208 0 0 0 0 0 -56.3208 -56.3208 -2.75635 -56.3208 -56.3208 -64.7012 -11.6364 -64.7012 -64.7012 -56.3208 -56.3208 -56.3208 -56.3208 0 0 0 0 0 0 0 0 0 0 0 0 0 0 0 0 0 -60 0 -60 0 0 0 -60 0 -59 0 -60 0 -59 0 -59 -59 -59 -58 -58 -58 -58 -58 -58 0 -58 0 -58 -57 0 0 0 -58 0 -58 -58 -58 -58 -57 -57 -57 0 -57 -57 -57 -57 -57 -57 0 -57 0 -57 0 0 -56 0 -55 0 0 0 0 0 0 0 0 0 0 0 0 0 0 0 0 0 0 0 0 0 0 0 0 0 0 0 0 0 0 0 0 0 0 0 0 0 0 0 0 0 0 0 0 0 0 0 0 0 0 0 -52 -52 0 0 0 -52 -52 -52 -52 -52 -52 -51.5 -51 -51 -51 -51 -51 -51 -51 -51 -51 -51 -50 0 -50 -50 -50 -50 -50 -50 -50 -50 -49 0 -50 -49 -49 -49 0 -50 -49 0 -48 0 -49 -49 0 -48 0
-24.5418 -24.5418 -24.5418 -24.5418 -24.5418 -24.5418 -24.5418 -24.5418 -24.5418 -24.5418 -24.5418 -24.5418 -24.5418 -24.5418 -24.5418 -24.5418 -24.5418 -24.5418 -24.5418 -24.5418 -24.5418 -24.5418 -24.5418 -24.5418 -24.5418 -24.5418 -24.5418 -24.5418 -24.5418 -24.5418 -24.5418 -24.5418 -24.5418 -24.5418 -41.8063 -41.8063 -41.8063 -24.5418 -24.5418 -24.5418 -24.5418 -24.5418 -24.5418 -24.5418 -24.5418 -24.5418 -24.5418 -24.5418 -24.5418 -24.5418 -24.5418 -24.5418 -24.5418 -24.5418 -24.5418 -24.5418 -24.5418 -24.5418 -41.8063 -41.8063 -41.8063 -41.8063 -41.8063 -41.8063 -41.8063 -41.8063 -41.8063 -41.8063 -41.8063 -41.8063 -41.8063 -40.5526 -40.5526 -40.5526 -40.5526 -41.8063 -41.8063 -41.8063 -41.8063 -41.8063 -41.8063 -40.5526 -40.5526 -40.5526 -40.5526 -40.5526 -40.5526 -40.5526 -40.5526 -40.5526 -40.5526 -39.3788 -39.3788 -39.3788 -40.5526 -40.5526 -40.5526 -40.5526 -40.5526 -40.5526 -40.5526 -41.8063 -41.8063 -41.8063 -40.5526 -40.5526 -40.5526 -40.5526 -40.5526 -39.3788 -39.3788 -40.5526 -41.8063 -41.8063 -41.8063 -41.8063 -41.8063 -41.8063 -41.8063 -41.8063 -41.8063 -24.5418 -41.8063 -41.8063 -41.8063 0 -24.5418 0 -53.6222 0 0 0 -45.3333 0 0 0 0 0 0 -69 0 0 0 0 -69.2042 -69.2042 0 0 0 -54 -60.5 0 0 0 0 0 -83 -84.6667 0 0 0 0 0 0 0 0 0 0 0 0 0 0 0 -85.5 -85.5 0 -85 0 -85 0 -84.5 -84.5 -85 -85 0 0 0 -84.5 -84.5 0 -84 -84 0 0 0 0 -84 0 -83 -83 -83 0 -82.5 -82.5 0 0 -83 -83 0 -82 -82.5 -82.5 0 -83 0 -82 -82 0 0 0 -82 -82 0 0 -81 -81 0 -81.5 -81.5 -81 0 -81 0 0 0 -16.5 -16.5 -16.5 -17 -18 0 0 0 0 -15 0 0 0 -15 -15 0 -14 0 0 -13 0 0 0 -14 0 -13 0 -12 0 -12 -12 0 0 -13.5 -13.5 0 0 0 -13.5 0 -14.5 0 -13.5 0 0 0 -14.7143 -14.7143 0 0 0 0 0 0 0 0 0 0 0 -15 0 0 0 0 -14.5 -15.5 0 0 0 -16.3333 0 0 -19 0 0 0 0 0 0 0 -20 0 0 0 -21 0 -20.8571 -20.8571 -20.8571 -20.8571 0 0 0 0 0 0 -24.5 0 0 0 0 0 0 0 0 0 0 -23 0 0 0 -23 -23.5 -23.5 -23.5 -23 0 -23 0 0 0 -24.5 0 0 0 0 -24 0 0 0 -26 -26 -25.5 -25.5 -27.6667 0 0 -27.3333 0 0 0 0 0 0 0 -30.3333 -30.3333 -32.2 -30 0 -30 -30.5 -30.5 -29.5 -29.5 -31.3333 -26.6667 -31.3333 1.5 -32 -31.3333 1.5 0 0 0 0 0 0 0 0 -71 0 0 -35.5 0 0 0 0 0 0 0 0 -46.5 0 0 0 -46 0 0 0 0 -23.5 0 -56.3208 0 0 0 -55.5 0 0 0 0 0 0 0 0 0 0 0 0 0 0 0 -39.962 -39.962 0 -39.962 -39.962 -39.962 -39.962 -48.0714 -2.75635 -56.3208 -56.3208 -56.3208 -56.3208 -81 -64.7012 -56.3208 -2.75635 -2.75635 0 0 0 0 -60 0 0 -19.8 -59 0 -60 0 -60 -60 -60 0 -60 -60 0 -60 -60 0 -60 0 -60 0 -59 0 -60 -59 -59 0 -59 -59 -59 -59 -58 -58 -58 -58 -58 0 0 0 -58 -57 -57 0 -58 -58 0 -58 0 -58 0 -59 -57 0 -57 -57 0 0 0 0 0 0 -57 0 -57 0 -57 0 0 0 0 -56 0 -55 0 -56 -55 0 -55 -55 -55 -55 0 -55 0 0 0 0 -54 -54 0 -55 -55 -55 0 -55 0 -54 0 -54 -54 -54 -54 -54 -54 -54 -54 -54 -54 -54 -53 -53 -53 -53 -53 -53 -53 -53 -53 -53 -53 -53 -52 -52 -52 -52 -51.5 0 -52 0 -52 -52 -51.5 -51 -51 -51 -51 -51 -51 -51 -51 -51 -51 -50 0 -50 -50 -50 -50 0 -50 -50 -50 -49 0 -50 -49 -49 0 0 0 0 0 0 0 0 0 0 0 0
-24.5418 -24.5418 -24.5418 -24.5418 -24.5418 -24.5418 -24.5418 -24.5418 -24.5418 -24.5418 -24.5418 -24.5418 -24.5418 -39.3788 -39.3788 -39.3788 -24.5418 -24.5418 -24.5418 -24.5418 -24.5418 -24.5418 -24.5418 -24.5418 -24.5418 -24.5418 -24.5418 -24.5418 -24.5418 -24.5418 -39.3788 -39.3788 -39.3788 -39.3788 -39.3788 -39.3788 -39.3788 -24.5418 -24.5418 -24.5418 -24.5418 -24.5418 -24.5418 -24.5418 -24.5418 -24.5418 -41.8063 -41.8063 -41.8063 -40.5526 -40.5526 -39.3788 -39.3788 -39.3788 -24.5418 -24.5418 -41.8063 -41.8063 -41.8063 -41.8063 -41.8063 -41.8063 -41.8063 -41.8063 -41.8063 -41.8063 -41.8063 -41.8063 -41.8063 -41.8063 -41.8063 -40.5526 -40.5526 -40.5526 -40.5526 -41.8063 -41.8063 -41.8063 -41.8063 -41.8063 -41.8063 -41.8063 -40.5526 -40.5526 -40.5526 -40.5526 -40.5526 -40.5526 -40.5526 -40.5526 -40.5526 -40.5526 -39.3788 -39.3788 -40.5526 -40.5526 -41.8063 -41.8063 -41.8063 -41.8063 -41.8063 -41.8063 -41.8063 -41.8063 -40.5526 -40.5526 -40.5526 -40.5526 -24.5418 -39.3788 -39.3788 -40.5526 -41.8063 -41.8063 -41.8063 -41.8063 -41.8063 -41.8063 -41.8063 -41.8063 -41.8063 -24.5418 -40.5526 -40.5526 -40.5526 -28.5 -24.5418 -69.6266 -80.3571 -80.3571 -80.3571 0 -40.5526 0 0 0 0 0 0 -69 0 0 -47.0969 0 0 0 -69.2042 -35.1503 -35.1503 0 0 0 0 0 0 -84 -83.5 0 0 0 0 0 0 0 0 -85 -85.5 -85.5 0 0 0 0 0 -85.5 -85.5 0 -85 0 0 0 0 0 -85 -85 0 0 0 0 0 0 0 0 0 0 0 0 -84 -83 0 -83 -83 0 0 0 -83 -83 -83 -83 -82 -82 -82.5 -82.5 0 -83 0 -82 -82 0 -81.5 -81.5 0 0 0 0 -81 0 0 0 0 0 0 -81 -81 0 0 0 0 0 0 0 0 0 -16.5 0 -15 0 0 0 0 0 -14 -13.5 0 0 -13 0 0 -14 -13 0 -13 -13 -13 0 -12 -12 0 0 0 0 0 0 -14 -14 0 -14.5 0 -13.5 0 0 -14.7143 0 0 0 -14 0 0 0 0 0 0 0 0 0 0 0 -19 -15.5 0 0 -14.5 0 0 0 -16.3333 -16.3333 0 0 -16 0 0 -18.5 -21 0 0 0 0 0 0 -20.75 0 0 0 0 0 0 0 0 0 0 0 0 0 0 -23 0 0 -24 0 -32 -23.5 -23.5 -24 -22.5 -22.5 0 0 0 0 -23.5 0 -24 0 -25 0 -27 -24.5 -24.5 -24.5 0 0 0 -25.5 -25.5 0 0 -26.5 -26.5 -26 -27.3333 -27.3333 -27.5 -27.5 -26.5 -26.5 -28 0 0 0 0 -32 0 0 -28.5 0 -28 -30.5 0 0 0 -32 -29 -32 0 0 0 0 -70.25 0 -35 -35 0 -71 0 -34 -41 0 0 0 -35.5 0 0 0 0 -73.4444 0 0 0 -30.75 0 -46 0 0 0 -56.7579 0 0 0 -62.9048 0 -48.0714 0 0 -39.25 40.3667 0 0 0 0 0 0 0 0 0 0 -46 0 0 -41.25 -39.962 -55 0 0 -73.4444 -48.0714 0 -2.75635 -56.3208 -2.75635 -56.3208 0 0 -66.1667 -36.8 -36.8 -18.8458 0 0 0 0 0 0 -60.5 -60.5 0 0 0 0 0 0 0 0 0 0 0 0 0 0 0 0 0 0 0 0 0 0 0 0 0 0 0 0 0 0 0 0 0 0 -58 0 0 0 0 0 0 0 0 0 0 0 0 0 0 -57 0 0 -57 -57 -57 -57 -57 -57 -57 0 -57 0 -57 -56 0 -55 -55 -55 0 -55 0 -56 -55 0 -55 -55 -55 0 0 -55 0 -54 -54 -54 -54 -54 0 0 -55.5 -55 -55 -55 0 -55 -54 -54 -54 -54 -54 -54 -54 -54 -54 -54 -54 -54 -53 -53 -53 -53 -53 -53 -53 -53 -53 -53 -53 -53 -52 -52 -52 -52 -51.5 0 -52 -52 0 0 -51.5 -51 -51 -51 -51 -51 -51 0 0 -51 -51 0 0 -50 0 0 0 0 0 0 0 -51 0 -50 -49 -49 -49 0 -50 -49 0 -49 0 0 -49 -49 -48 0
