-24.7423 -24.7423 -24.7423 -24.7423 -39.3549 -39.3549 -24.7423 -24.7423 -24.7423 -24.7423 -24.7423 -24.7423 -24.7423 -24.7423 -24.7423 -24.7423 -24.7423 -24.7423 -24.7423 -24.7423 -24.7423 -24.7423 -24.7423 -24.7423 -24.7423 -24.7423 -24.7423 -24.7423 -24.7423 -24.7423 -24.7423 -24.7423 -24.7423 -24.7423 -24.7423 -24.7423 -24.7423 0 -24.7423 -24.7423 -24.7423 -24.7423 -24.7423 -24.7423 -24.7423 -24.7423 -24.7423 -24.7423 -24.7423 -24.7423 -24.7423 -24.7423 -24.7423 -24.7423 -24.7423 -24.7423 -24.7423 -24.7423 -24.7423 -24.7423 -24.7423 -24.7423 -24.7423 -24.7423 -24.7423 -24.7423 -24.7423 -24.7423 -24.7423 -24.7423 -24.7423 -24.7423 -24.7423 -24.7423 -24.7423 -24.7423 -24.7423 -24.7423 -24.7423 -71.4537 -24.7423 -24.7423 -24.7423 -24.7423 -24.7423 -24.7423 -42.8107 -42.8107 -42.8107 -42.8107 -42.8107 -24.7423 -44.6538 -60.5245 -60.5245 -52.375 0 -61.5788 -61.5788 -56.1465 -56.1465 -56.1465 -56.1465 -24.7423 -24.7423 -24.7423 -24.7423 -24.7423 -24.7423 -71.4537 -88.083 -88.083 -88.083 -88.9643 0 0 -71.9333 -71.9333 -63.9897 0 -39.3549 0 0 0 -76.6 0 -29.5959 -73.475 -73.475 -73.475 0 0 -77.5 0 0 0 98 -42.8107 -42.8107 -75.5 -89.7302 -89.7302 47.5 0 0 -79.4667 -55 -77.1111 -77.1111 -36.3143 -89.8794 -89.8794 -74.9048 -79.4667 0 0 -90.625 -98.2222 -88.9418 0 -92.9394 -92.9394 -74.9048 0 0 0 0 -86.5 0 0 -86 -86 0 0 -86 -85.5 -85.5 -86 0 -85 0 -85 -84.5 -84.5 0 -85 0 -61.5 -84 0 0 0 0 -83 0 0 -83 -83 -83.5 -83.5 0 0 0 0 0 0 -81.5 -82.6667 -82.6667 -81.5 0 0 -62.0833 0 0 0 0 0 0 -82 -81 0 0 0 0 0 0 0 -87 0 0 -80 -80 0 0 0 0 0 0 -46.375 -79 -64.2 0 0 -28.0682 0 0 0 0 0 0 0 -78 -78 -78 -77 0 0 0 0 -77 0 0 0 0 0 0 -76 0 0 -76 72.8333 48.3333 48.3333 0 0 -75 -75 -75 0 0 0 0 0 -75 -74 0 0 0 0 0 0 0 -74 -74 -74.5 -74.5 0 0 0 0 0 0 0 0 0 0 -72 -72 -72 0 0 0 0 0 0 0 -72 0 0 -72 0 0 0 -71 -71 0 0 0 0 0 0 0 0 0 0 0 -71 -71 -71 0 0 0 0 0 0 -69 0 -69 -69 0 0 0 -68 -68 -68 -68 0 0 0 0 0 0 -68 -68 0 0 0 -67 -67 -67 0 -67 0 0 -66 -66 -66 -66 0 0 0 0 0 0 0 0 0 -65 -65 0 -65 -65 -65 0 0 0 -65 0 -64 0 -64 0 0 -63 -63 0 -63 -63 0 0 -63 0 0 -62 0 0 -62 0 -62 0 -62 -61.5 -61.5 -63 -40.6667 -61 0 -61 0 0 0 -61 0 0 0 0 -61 -61 0 -60 -60 0 0 -60 -60 -60 -60 -60 -60 0 -59 0 -59 0 0 0 0 -59 0 -59 0 -59 0 -59 -59 0 -62 0 0 0 -59.5 0 -91 0 0 0 -67.1111 0 0 0 0 0 0 0 -82.6 -58 0 -95.1 0 0 -88.3333 -88.3333 0 -56 0 -57 -57 -57 -56 -56 0 0 0 0 0 0 -55 0 -55 0 0 0 0 0 -55 -55 -55 -55 0 0 -54 -54 0 0 0 -54 -53 0 0 0 0 0 0 -54 -54 -54 -54 -54 0 -53 -53 -53 -53 -53 -53 0 -53 0 -53 0 0 0 0 -52 0 -52 -52 -52 -52 -51 0 0 -51 0 -51 -51 0 -50 0 0 0 -50 -50 -50 0 -50 0 -51 0 0 0 0 -49 -49 -49 -49 -49 0 -49 -49 0 -50 -49 -48 -48 -48 0 -48 -48 0 0 0 0 0 0 0 -48 -47 0 -48 0 0 0 0 -47 0 -47 -46 0 0 0 -46 0 -47 -47 -47 -46 -46 -46 0 -46 -46 0 0 -46 -46 -45.5 0 -44
-24.7423 -24.7423 -39.3549 -39.3549 -39.3549 -39.3549 -24.7423 -24.7423 -24.7423 -24.7423 -24.7423 -24.7423 -24.7423 -24.7423 -24.7423 -24.7423 -24.7423 -24.7423 -24.7423 -24.7423 -24.7423 -24.7423 -24.7423 -24.7423 -24.7423 -24.7423 -24.7423 -24.7423 -42.8107 -42.8107 -42.8107 -42.8107 -42.8107 -42.8107 -42.8107 -42.8107 -42.8107 -42.8107 -42.8107 -42.8107 -42.8107 -42.8107 -41.4493 -41.4493 -41.4493 -41.4493 -24.7423 -24.7423 -24.7423 -24.7423 -24.7423 -24.7423 -24.7423 -24.7423 -24.7423 -24.7423 -24.7423 -24.7423 -24.7423 -24.7423 -24.7423 -24.7423 -24.7423 -24.7423 -24.7423 -24.7423 -24.7423 -24.7423 -24.7423 -24.7423 -24.7423 -24.7423 -42.8107 -42.8107 -42.8107 -24.7423 -24.7423 -24.7423 -24.7423 -24.7423 -24.7423 -24.7423 -24.7423 -24.7423 -24.7423 -24.7423 -24.7423 -42.8107 -42.8107 -42.8107 -24.7423 -42.8107 -42.8107 -42.8107 -42.8107 -42.8107 -42.8107 -90.8595 -42.8107 -42.8107 -42.8107 -24.7423 -24.7423 -24.7423 -24.7423 -24.7423 -24.7423 -24.7423 -24.7423 0 0 0 0 -88.083 -77 -77 -77 -64.6312 -24.7423 -24.7423 -39.3549 -39.3549 -39.3549 -71.4537 -89.8794 0 -41.4493 -79.964 -87.6587 -87.6587 -93.7778 -93.7778 -88.9418 0 0 0 0 -42.8107 -42.8107 -42.8107 -83 -83 -48 -88.1667 0 0 -74.9048 0 0 -89.6488 -84.3333 -77.1111 -92.9394 0 0 -78.0616 0 0 -77.5 0 -86.5 -86.5 -72.25 0 0 0 0 -86.3333 -86.5 0 0 0 0 0 0 -85.5 -85.5 0 0 -65.5 0 -85.3333 -96.5833 -96.5833 0 -61 0 0 0 0 0 0 -84 -84 0 0 0 0 0 0 0 0 0 0 0 -82 -82.5 -82.5 0 0 0 0 -43.5 -71 0 0 0 -11.875 0 -82 0 0 0 0 -28.3333 -28.3333 0 0 0 0 0 0 -80 0 0 0 -98 -80 -79 -79 -79 0 0 0 -78.3333 -78.3333 -51 -39.3333 0 0 0 -78 -78 -78 0 -77.5 -77.5 -77 0 0 -77 -77 -77 0 0 -76 0 0 0 0 -76 0 0 0 0 0 0 0 -75 -75 0 0 0 0 0 0 0 0 -74 0 0 0 0 0 -74.5 -74.5 -75 0 -74 -74 0 -74 -74 -73 -73 -73 -73 0 0 0 -72 -72.5 -72.5 0 0 0 0 -72 0 0 0 0 0 0 0 0 0 -70 0 -70 -70.5 -70.5 0 0 0 0 -70 0 0 -71 0 0 0 -70 -70 0 -69 0 0 0 -69 0 0 0 0 0 0 0 0 0 0 -68 -68 0 0 0 0 0 -67 -67 -67 -67 -67 -67 -67 -66 -66 -66 0 0 0 0 -66 -66 -66 -66 0 0 0 0 -65 -65 -65 -65 0 0 0 -64 0 -64 -64 -64 -64 0 0 -63 0 0 0 -63 -63 0 -63 0 0 -62 -62 -62 0 -62 0 -91.5 -56 0 -63 0 -60.8333 -62 -61.5 -61.5 -60 0 -97 0 0 -61 0 0 -61 0 -60 -60 -60 -60 -60 -60 0 0 0 0 0 -60 0 -59 0 0 -59 0 -59 0 0 0 0 0 0 -58 0 0 0 0 0 0 0 0 0 0 0 0 0 -61.1429 -88.5 0 0 -58 0 0 -71.5 0 0 0 -42.3333 -37.7857 -88.3333 -70.5 -75 0 -57 -57 0 0 0 0 -55 0 -56 -55 0 0 0 0 -55 -55 0 -55 0 -55 -55 -55 -55 0 -55 -54 -54 0 -53 0 0 0 0 0 -54 -54 0 -54 0 0 0 -54 -54 -53 -53 -53 -53 -53 -53 -53 0 0 0 0 -53 0 -53 0 -52 0 -52 0 0 -54 0 0 -51 -51 0 -51 -51 0 0 0 -50 0 -50 -50 0 0 0 0 -50 -50 0 -50 0 -49 0 0 0 0 0 -49 -49 0 -49 -49 -48 -48 0 -48 0 0 0 -49 -48 -48 0 -48 -47 0 0 0 0 -47 -47 0 -48 -47 0 -47 0 0 -47 -47 -47 0 -47 -47 -47 0 0 0 0 0 0 -46 -46 -46 -46 -46 -44 0
-24.7423 -24.7423 -39.3549 -39.3549 -39.3549 -39.3549 -24.7423 -24.7423 -24.7423 -24.7423 -24.7423 -24.7423 -24.7423 -24.7423 -24.7423 -24.7423 -24.7423 -24.7423 -24.7423 -24.7423 -24.7423 -24.7423 -24.7423 -24.7423 -24.7423 -24.7423 -24.7423 -24.7423 -24.7423 -24.7423 -42.8107 -42.8107 -42.8107 -42.8107 -42.8107 -42.8107 -24.7423 -42.8107 -42.8107 -42.8107 -42.8107 -42.8107 -41.4493 -41.4493 -41.4493 -41.4493 -41.4493 -39.3549 -39.3549 -39.3549 -39.3549 -39.3549 -39.3549 -39.3549 -24.7423 -24.7423 -24.7423 -42.8107 -42.8107 -24.7423 -24.7423 -24.7423 -24.7423 -24.7423 -42.8107 -42.8107 -24.7423 -24.7423 -42.8107 -24.7423 -24.7423 -24.7423 -24.7423 -42.8107 -42.8107 -24.7423 -24.7423 -24.7423 -24.7423 -24.7423 0 -24.7423 -24.7423 -24.7423 -24.7423 -24.7423 -24.7423 0 0 0 -24.7423 -24.7423 -41.4493 -42.8107 -42.8107 -42.8107 -41.4493 -42.8107 -42.8107 -42.8107 -42.8107 0 0 -24.7423 -24.7423 -24.7423 -24.7423 -42.8107 -42.8107 -42.8107 -42.8107 -42.8107 -42.8107 -42.8107 -42.8107 -42.8107 -42.8107 -88.3202 -24.7423 -42.8107 -24.7423 -42.8107 -42.8107 -42.8107 0 0 0 0 0 -54.7143 -93.7778 -91.8556 -91.8556 0 0 0 0 0 -97.0152 -68.7778 0 0 0 -94.5909 -83.1788 0 0 0 0 -59.3333 0 -92.9394 0 -42.8107 -42.8107 0 -98.2222 0 -92.5 -75.5 -86.5 -86.5 -87.6587 -87 0 -91.5 0 -86.3333 -86.3333 0 -62.8333 -63.2143 0 0 0 0 -85.5 -85.5 0 -84.5 -84 -73.5 0 0 0 -84.5 0 0 -55.5 0 0 0 -57.5 0 -83.5 0 -83.5 -97.6667 0 0 0 -83 0 0 -82 -82 0 0 0 -83 0 0 -43.5 0 0 0 0 0 0 0 0 0 0 0 0 0 0 -81 0 0 0 0 -80 -79 -79.3333 -79.3333 -79.75 0 0 0 -79 0 0 0 0 0 0 0 0 0 -78 0 0 -78 0 0 0 -77 0 0 -77 -77 -77 0 0 -76 -76 0 0 0 0 0 -76 0 0 0 0 0 0 0 0 0 -75 -75 0 0 0 0 -74 0 0 0 -74 -74 0 0 0 0 -74 -74 0 0 0 0 0 -73 -73 0 0 0 0 0 0 0 0 0 0 -72 0 0 0 0 0 -71 -71 -71 0 0 0 0 0 0 -71 0 0 0 0 0 -71 -71 0 0 0 -70 0 0 0 -70 0 -69 0 0 0 0 -68 -68 -68.5 -68.5 -69 0 0 -68 0 -68 0 -68 0 0 -67 -67 -67 -67 -67 0 0 0 0 0 -66 -66 0 0 0 0 0 0 0 -65 -65 -65 -65 0 0 -65 0 0 0 -64 0 -64 -64 0 0 0 0 -63 -63 -63 0 -63 -63 -17 0 -61.6667 -62.5 -63 -62 -62 -62.5 -61.5 -63 0 -76 0 0 0 -62.5 0 0 -62 -63 0 -67 -67 -61 0 -88.5 0 0 0 -2.33333 -45.9167 -55.8333 -60 0 -60 -60 -60 0 -60 0 -59 0 -59 0 0 0 -59 0 -59 -59 0 -59 0 0 -57.6667 0 0 0 0 0 0 -61.1429 -61.1429 0 -61.1429 0 -61.1429 0 0 0 0 -76 -58 -79.75 -55 0 0 0 0 0 0 -88.3333 0 0 -57 -57 -57 -57 -56 0 0 0 0 0 -55 -55 -55 -55 -55 -55 -55 0 0 0 0 -55 -55 -55 0 -55 0 -54 -54 -53 0 -54 0 -53 0 -54 0 0 0 -54 -54 -54 -54 -54 -53 -53 0 -53 -53 -53 -53 0 -53 0 -53 -53 0 -53 0 0 0 0 -51 -52 -51 -51 0 -51 0 0 -51 0 -51 -51 -51 -50 0 -50 0 0 -50 -50 0 -50 -50 0 0 0 0 -49 0 -49 -49 0 -49 -49 0 -49 -49 -48 -48 0 -48 -48 -48 0 -49 -48 -48 0 -48 0 0 -47 0 -48 -47 -47 0 -48 -47 0 -47 -46 0 -47 -47 -47 0 -47 -47 0 0 -46 -45 0 -46 -46 -46 -46 -46 -46 -46 0 0
-24.7423 -24.7423 -24.7423 -24.7423 -39.3549 -39.3549 -24.7423 -24.7423 -24.7423 -24.7423 -24.7423 -24.7423 -24.7423 -24.7423 -24.7423 -24.7423 -24.7423 -24.7423 -24.7423 -24.7423 -24.7423 -24.7423 -24.7423 -24.7423 -24.7423 -24.7423 -24.7423 -24.7423 -24.7423 -24.7423 -24.7423 -24.7423 -24.7423 -24.7423 -24.7423 -24.7423 -24.7423 -24.7423 -24.7423 -24.7423 -42.8107 -42.8107 -41.4493 -41.4493 -41.4493 -41.4493 -41.4493 -39.3549 -39.3549 -39.3549 -39.3549 -39.3549 -39.3549 -39.3549 -39.3549 -39.3549 -39.3549 -39.3549 -42.8107 -24.7423 -24.7423 -24.7423 -24.7423 -42.8107 -42.8107 -42.8107 -42.8107 -42.8107 -42.8107 -42.8107 -24.7423 -24.7423 -24.7423 -42.8107 -42.8107 -24.7423 -24.7423 -24.7423 -42.8107 -42.8107 -24.7423 -24.7423 -24.7423 -24.7423 -42.8107 -42.8107 -42.8107 -42.8107 -42.8107 -42.8107 -44.6538 -44.6538 -39.3549 -39.3549 -39.3549 -39.3549 -24.7423 -24.7423 -24.7423 -24.7423 -42.8107 0 0 0 -24.7423 -24.7423 -24.7423 -88.9418 -42.8107 -42.8107 -42.8107 -42.8107 -42.8107 -42.8107 -42.8107 -42.8107 -42.8107 -42.8107 -42.8107 -42.8107 -42.8107 -42.8107 -42.8107 -42.8107 0 -78.3 -84.5 -80.6667 -80.6667 0 97.7143 0 -91.8556 0 0 0 -98 -92.9394 -92.9394 -87.0667 0 0 41.6 0 -78.0616 0 -92.9394 -92.9394 -16 0 0 0 -92.9394 -63.0392 -63.0392 -85.35 -85.35 0 -83.1788 0 0 0 -97.0152 0 0 -91.5 0 0 0 -79.4667 0 -86 0 -86 0 0 0 0 0 0 0 -84 0 0 -76.6111 0 0 0 -83 0 0 0 -85 0 0 0 -83.5 -97.6667 -97.6667 -83.5 -83 -83 0 0 0 -82 -82.5 -82.5 0 -83 0 0 -62.0833 0 0 0 0 -27.6 0 0 0 -81 0 0 -80.5 -80.5 0 0 0 0 0 -80 0 0 -79.5 -79.5 0 0 -79 -79 0 0 0 0 -78.5 -78.5 -79 0 0 0 0 0 0 0 0 -78.5 -78.5 0 0 0 -77 0 0 0 0 -76 -76.5 -76.5 -77 -77 -76 0 0 0 0 0 -75 -75 -75 0 0 0 0 0 0 0 0 0 -74 -74 0 0 -74 -74 -74.5 -74.5 -75 0 -74 -74 -74 -74 -74 0 0 0 0 -73 -73 0 0 0 0 -73 0 0 0 -72 0 0 0 0 0 0 0 0 -71 -70 0 -70.5 -70.5 0 0 0 0 -70 -70 -70 0 0 0 0 0 -70 0 0 -69 0 0 -69 0 0 0 0 0 0 0 0 0 0 0 -68 -68 -68 -68 -68 0 0 -67 -67 -67 0 -67 0 -67 0 -66 0 0 0 0 0 0 -66 0 -66 0 -65 0 0 0 -65 -65 -65 0 0 0 0 0 0 -64 -64 0 0 0 -84.3333 0 0 0 0 0 -63 0 -61.6667 0 0 0 0 0 -33 0 0 0 -62 0 -59 -61 0 -63 0 -61 0 -67 -58 -21 0 0 0 0 0 0 0 -60 -89 0 0 0 -60 0 -60 0 0 0 0 -59 0 -59 -59 -59 0 -59 0 0 0 -91.3333 -91.3333 0 0 0 0 -78.75 0 -91 -61.1429 -61.1429 -54.5 0 0 0 0 0 0 0 -58 -68.5 -55 -77 -86.6667 0 0 -83.3333 -37.7857 0 0 -49 -72 -57 -57 -57 -56 0 0 -55 0 -55 -55 -55 0 0 0 0 0 -55 -55 0 -55 0 -55 -55 0 -55 0 0 -54 -53 0 -54 0 0 0 0 -54 -54 -54 -54 -54 -54 -54 -54 0 0 -53 -53 -53 -53 -52 0 -53 0 -53 0 0 0 0 -53 0 -52 -51.5 -51.5 -53 0 -52 0 -51 0 -51 0 -51 -51 -50 0 0 -50 -50 0 -50 0 -51 -50 0 0 -50 0 -49 0 -50 -49 -49 0 -49 -49 0 -49 -49 -48 -48 0 -49 -48 0 0 0 -48 0 0 0 0 -47 -47 0 -48 -47 0 0 0 0 0 -47 -46 0 -47 -47 0 0 0 -47 -47 0 -46 -45 0 0 0 0 0 0 0 0 -45.5 -45
-24.7423 -24.7423 -24.7423 -24.7423 -39.3549 -39.3549 -39.3549 -24.7423 -24.7423 -24.7423 -24.7423 -24.7423 -24.7423 -24.7423 -24.7423 -24.7423 -24.7423 -24.7423 -24.7423 -24.7423 -24.7423 -39.3549 -39.3549 -24.7423 -24.7423 -24.7423 -24.7423 -24.7423 -24.7423 -24.7423 -24.7423 -24.7423 -24.7423 -24.7423 -24.7423 -24.7423 -24.7423 -24.7423 -24.7423 -24.7423 -24.7423 -24.7423 -24.7423 -24.7423 -24.7423 -24.7423 -24.7423 -24.7423 -24.7423 -24.7423 -24.7423 -24.7423 -24.7423 -24.7423 -24.7423 -24.7423 -24.7423 -24.7423 -42.8107 -24.7423 -24.7423 -24.7423 -24.7423 -24.7423 -42.8107 -42.8107 -24.7423 -42.8107 -42.8107 -42.8107 -24.7423 -42.8107 -42.8107 -42.8107 -42.8107 -42.8107 -24.7423 -24.7423 -42.8107 -42.8107 -24.7423 -24.7423 -24.7423 -24.7423 -24.7423 -42.8107 -42.8107 -42.8107 -42.8107 -42.8107 0 -44.6538 0 0 -39.3549 -24.7423 -24.7423 -24.7423 -24.7423 -24.7423 -42.8107 -42.8107 -42.8107 -42.8107 -42.8107 -24.7423 -24.7423 -57.848 -57.848 -88.3202 -88.3202 -88.3202 -88.3202 -42.8107 -42.8107 -42.8107 -42.8107 -83.1788 -42.8107 -83.1788 -24.7423 -24.7423 -24.7423 -42.8107 0 -68.1667 0 -34 -34 0 97.7143 0 0 0 0 -43 0 0 -92.9394 -87.0667 -87.0667 -87.0667 -87.0667 0 0 0 0 0 -64 -55.3636 0 -88.083 0 0 0 0 -89.6488 -85.35 -42.8107 0 -81.75 -81.75 -97.0152 0 0 -82.1667 0 -81.3333 -81.3333 -94.4029 -49.0952 -91.8556 -82.6667 -65 0 0 -93.6667 -85.5 0 0 0 -73.5 -73.5 0 0 0 0 0 0 0 0 0 0 0 0 0 0 -83 -83 -84 -82.5 0 0 0 0 0 0 0 -82.6667 -83 0 0 -82 0 0 0 -82 -82 0 0 0 0 0 0 0 0 -81 -81 0 0 -80 -80 0 0 0 0 0 0 0 -79 -79 0 0 0 0 0 0 0 0 0 -78 -78 -78 0 0 0 0 -78 -78 0 -77 0 0 0 0 -76 0 0 0 0 0 0 -76 0 0 0 0 0 0 0 0 0 0 -75 0 0 0 0 -74 -74 0 0 -74 0 0 0 0 0 -74 0 0 0 0 0 -73 -73 -73 0 0 -72.5 -72.5 -73 0 -73 0 0 0 -72 0 0 0 0 0 0 -71 0 -71 0 0 -70.5 -70.5 -71 0 0 0 -70 -70 -70 -70 0 0 0 -70 0 -70 0 -69 0 0 0 0 0 0 -68 -68.5 -68.5 -69 -69 0 0 0 -68 -68 -68 -68 0 0 0 0 -67 0 0 0 0 0 0 0 -66 -66 -66 -66 0 0 0 0 0 0 -65 0 0 0 0 -65 -65 -65 0 0 -64 0 -64 0 -64.5 -64.5 0 0 0 -68.5 0 0 0 0 -73.5 -61.6667 0 0 -61 -63 0 0 -58 0 0 0 0 0 -59.5 0 0 -59.5 0 0 -62 -97 -62.5 -21.5 -60 -59 0 0 0 -61.6667 -75 0 -88.5 -60 0 0 -60 -60 -59 0 -59 -60 -59 -59 0 0 0 0 0 0 -59 -59.5 -59.5 -59.5 0 0 0 0 0 0 0 -91 -61.1429 0 -54.5 0 -61.1429 0 0 0 0 0 0 -85.5 -36.0714 0 0 -70 0 0 -55 0 0 -72.5 0 0 0 -56 -56 0 0 -55 -55 -55 0 0 0 -55 -55 -55 -55 -55 -55 -55 -55 0 -55 0 -55 0 -55 0 -54 0 0 0 0 -53 -53 0 -54 -54 -54 0 0 0 0 -54 0 -53 -53 -53 0 -53 0 0 0 0 0 -52 0 -53 0 -53 0 -52 0 0 0 0 0 -51 -51 -51 -51 0 0 0 -50 -50 0 -50 -50 0 0 0 0 0 -50 0 -50 0 -49 0 -50 0 0 0 0 0 0 -50 -49 0 -48 0 -49 -48 -48 0 -48 -48 0 -49 -48 -48 -48 0 0 0 0 -47 0 -48 -47 -47 -47 -47 0 -47 0 -47 -46 0 -47 -47 0 -46 0 0 -46 -46 -46 -46 -46 -46 -46 -44 -44
-24.7423 -24.7423 -24.7423 -24.7423 -39.3549 -39.3549 -39.3549 -39.3549 -39.3549 -39.3549 -39.3549 -39.3549 -24.7423 -24.7423 -24.7423 0 0 -39.3549 -39.3549 -24.7423 -24.7423 -24.7423 -24.7423 -24.7423 -24.7423 -24.7423 -24.7423 -39.3549 -39.3549 -39.3549 -41.4493 -42.8107 -42.8107 -24.7423 -24.7423 -24.7423 -24.7423 -24.7423 -24.7423 -24.7423 -24.7423 -24.7423 -24.7423 -24.7423 -24.7423 -24.7423 -24.7423 -24.7423 -24.7423 -24.7423 -24.7423 -24.7423 -24.7423 -24.7423 -24.7423 -24.7423 -24.7423 -24.7423 -24.7423 -24.7423 -24.7423 0 0 0 -42.8107 -42.8107 -24.7423 -24.7423 -24.7423 -24.7423 -24.7423 -24.7423 -24.7423 -24.7423 -24.7423 -24.7423 -39.3549 -39.3549 -24.7423 -24.7423 0 0 0 -24.7423 -24.7423 -24.7423 -24.7423 -24.7423 -24.7423 -24.7423 -24.7423 -24.7423 -39.3549 -39.3549 -35.9372 -24.7423 -24.7423 -24.7423 -42.8107 -42.8107 -42.8107 -42.8107 -42.8107 -42.8107 -42.8107 -42.8107 -24.7423 -57.848 -57.848 -88.3202 -88.3202 -42.8107 -42.8107 -42.8107 -42.8107 -42.8107 -42.8107 0 -42.8107 -88.788 -24.7423 -42.8107 -42.8107 -44.6538 0 -68.1667 0 -34 -34 -41.4493 -44.3736 0 0 -77.5 -77.5 -90.8595 -78.5 -97.4 0 -92.9394 -92.9394 -88.083 -16 0 0 0 0 0 0 -55.3636 -76.6111 0 0 0 0 0 -81.1746 -79 -83.1788 0 0 -81.75 -88.083 0 0 -82.1667 -86.5 -86.5 0 -79.4667 0 -86 0 0 0 0 -85.5 -85.5 -85.5 -84.5 -64 -85.3333 -85.3333 -96.5833 -61.5833 -84 0 0 0 0 0 0 0 0 0 0 -82 -82.5 -82.5 0 0 0 -82 0 0 0 0 0 -82 -82 0 0 0 0 0 0 0 0 -82 0 0 0 -81 -81.6667 -81.6667 -81 -81 -81 0 0 0 -80 0 -79.5 -79.5 0 0 0 0 -79 -79 0 0 0 0 0 0 0 0 0 -78 -78 -78 -78 -77.5 -77.5 0 0 -78 -77 -77 0 0 0 0 -76 -76.5 -76.5 -77 -76 0 0 0 0 0 -75 -75 -75 -75.5 -75.5 -76 0 0 -75 0 -74 0 0 0 0 0 0 0 -74.5 -74.5 -75 0 0 0 -74 -74 -74 0 0 0 0 0 0 -73 -72.5 -72.5 -73 0 -73 0 0 0 0 0 0 0 0 0 0 0 0 0 -71 -70.5 -70.5 -71 0 0 0 0 0 0 0 -70 0 0 -70 -70 -70 -70 0 -70 0 0 -69 0 -69 0 0 0 -69 0 0 -69 0 0 -68 -68 -68 -68 0 0 0 0 -67 -67 0 0 0 -67 0 0 0 0 0 0 0 -66 -66 -66 0 0 0 -65 -65 0 -65 -65 -65 -65 0 0 -64 0 -64 -95.25 -33.3333 -64.5 0 0 -16 0 0 0 0 0 0 0 0 0 0 0 0 0 0 0 0 0 0 0 0 0 -59 0 0 0 0 -97 0 0 -60.5 0 -60 -60.5 -61.5 0 0 0 -75 0 -59 0 0 -60 -59 0 0 0 0 0 0 -59 -59 -59 -59 -59 0 0 -59.5 -74.5 -62 -62 0 -45 0 0 0 -98 -61.1429 0 0 0 0 0 0 0 0 0 0 0 0 0 0 0 0 0 -55 0 0 -70.5 0 0 -56.5 -56 -56 -56 -56 -55 0 0 -55 -55 0 -55 -55 -55 -55 -55 0 -55 -54 0 -55 0 -55 0 -55 -54 0 -53 0 -53 0 -53 -53 0 0 0 0 -54 -54 0 -54 -54 -54 0 0 0 -53 -53 -52 0 -53 -53 -53 0 -53 -52 0 0 0 0 -51.5 -51.5 -51 0 -52 0 -51 0 0 0 -51 -51 0 -50 0 -50 0 0 -50 0 -51 -50 -50 0 -50 0 0 0 0 -49 -49 -49 -49 -49 0 -49 0 0 -48 -48 0 -48 -48 0 -48 -48 0 0 0 0 -47 -47 -47 0 -47 0 0 -48 -47 0 0 0 0 0 -47 -47 0 -47 -47 -46 0 -46 -45 0 -46 -46 -46 -46 -46 -46 -46 -44 0
-24.7423 -24.7423 -24.7423 -24.7423 -24.7423 -24.7423 -24.7423 -24.7423 -24.7423 -24.7423 -24.7423 -24.7423 -24.7423 -24.7423 -24.7423 -24.7423 -24.7423 -39.3549 -24.7423 -24.7423 -24.7423 -24.7423 -24.7423 -24.7423 -24.7423 -24.7423 -24.7423 -41.4493 -41.4493 -41.4493 -41.4493 -42.8107 -42.8107 -42.8107 -42.8107 -42.8107 -42.8107 -42.8107 -42.8107 -42.8107 -41.4493 -41.4493 -41.4493 -39.3549 -24.7423 -24.7423 -24.7423 -24.7423 -24.7423 -24.7423 -24.7423 -24.7423 -24.7423 -24.7423 -24.7423 -39.3549 -39.3549 -39.3549 -41.4493 -41.4493 -24.7423 0 0 0 -24.7423 -24.7423 -24.7423 -24.7423 -24.7423 -24.7423 -24.7423 -24.7423 -24.7423 -24.7423 -24.7423 -39.3549 -39.3549 -39.3549 -24.7423 -24.7423 -24.7423 -24.7423 -24.7423 -24.7423 -24.7423 -24.7423 -24.7423 -24.7423 -24.7423 -24.7423 -24.7423 -42.8107 -39.3549 -39.3549 -35.9372 -35.9372 -35.9372 -42.8107 -42.8107 -24.7423 -24.7423 -24.7423 -42.8107 -42.8107 -42.8107 -42.8107 -42.8107 -42.8107 -42.8107 -42.8107 -42.8107 -42.8107 -42.8107 -42.8107 -42.8107 -42.8107 -42.8107 -42.8107 -24.7423 -79.964 -42.8107 -42.8107 -88.3202 -42.8107 0 -68.1667 0 0 0 -82.2156 -42.8107 0 -42.8107 -42.8107 -42.8107 -48.976 -90.8749 0 0 -88.3202 -88.3202 -88.9418 -88.9418 -73.5263 -73 -97.0152 -76.6111 -76.6111 -78.0616 -78.0616 0 -72.25 -58.2857 -58.2857 0 0 -74.9048 -79 -83.1788 0 0 0 -82 0 -73.5 -91.5 0 0 0 -85 0 -63.2143 0 0 0 0 -85 0 0 0 -84 0 0 0 0 0 0 0 0 0 0 0 0 0 -83 0 0 -82.5 -82.5 -83 0 0 -82 0 0 0 0 0 0 0 -81 0 -81 0 0 0 -81 0 0 0 0 0 -81 -81.3333 -81.6667 -81 -81 0 0 -80 -80 0 0 -79.5 -79.5 -80 -80 -80 0 0 0 0 0 0 0 -79 -79 0 0 0 0 0 -78 -78 -77.5 -77.5 -78 -78 -78 -77 0 0 0 0 0 0 0 0 -77 -76 -76 0 -76 0 0 0 0 0 -75.5 -75.5 -76 0 0 -75 0 0 0 0 -74 -74 0 0 0 0 0 -75 -75 0 0 0 0 -74 -74 -73 -73 0 0 -72 0 0 0 -73 -73 -73 0 0 0 0 0 0 0 0 -71 -71 -71 0 0 0 0 0 -71 -71 0 0 0 -70 -70 -70 -70 0 0 0 0 -70 -70 -69 0 0 0 -69 0 0 0 0 0 0 -69 0 0 0 0 0 0 0 -68 0 0 0 0 -67 -67 0 0 0 0 0 0 -66 0 -66 -66 0 0 -66 -66 -66 0 -65 0 -65 0 -65 -65 -65 -64 0 -64 -64 0 -64 0 0 0 0 81.9 0 0 0 0 0 0 0 -67 0 0 0 0 0 0 0 0 0 0 0 0 0 0 0 0 0 0 0 0 18.1667 0 0 0 0 -60 0 0 0 0 0 -73.25 -73.25 0 0 -31.1667 -59 0 0 -60 -59 -59 0 -59 -59 -59 -59 0 0 0 0 0 0 0 0 0 -51.25 -61.5 0 0 -54.5 -56 0 0 0 0 0 -70.6667 -54 -61.5 0 -61.5 0 0 0 -61 0 -67.6667 -67.6667 -37.7857 0 0 0 -56.5 -56.5 0 0 0 0 0 -55 -55 -55 -55 -55 0 0 0 0 0 -55 -55 -55 0 -55 0 -54 0 -55 -54 -53 -53 -53 -53 0 0 0 0 -54 -54 -54 0 -54 -54 0 0 0 -53 -53 -53 0 -53 -52 0 0 -53 -52 0 -53 -53 0 -53 -52 -52 -51.5 -51.5 -51 0 0 -51 0 -51 -51 0 -51 -51 0 -50 0 -50 0 -50 -50 -50 0 -50 -50 0 0 -50 -49 -49 0 -49 0 -49 -49 -49 0 0 -49 0 -48 0 -49 -48 -48 0 -48 -48 0 -49 -48 0 -47 -47 0 0 -47 -47 0 -48 0 0 0 -47 0 -47 -47 -47 0 0 0 0 -47 -46 -45 0 -46 -46 -46 0 0 0 0 0 -44
-24.7423 -24.7423 -24.7423 -24.7423 -24.7423 -24.7423 -24.7423 -24.7423 -24.7423 -24.7423 -24.7423 -24.7423 -24.7423 -24.7423 -24.7423 -24.7423 -24.7423 -24.7423 -24.7423 -24.7423 -24.7423 -24.7423 -24.7423 -24.7423 -24.7423 -24.7423 -24.7423 -41.4493 -41.4493 -41.4493 -42.8107 -42.8107 -42.8107 -42.8107 -42.8107 -42.8107 -42.8107 -42.8107 -42.8107 -41.4493 -41.4493 -42.8107 -42.8107 -42.8107 -42.8107 -24.7423 -24.7423 -24.7423 -24.7423 -24.7423 -39.3549 -39.3549 -39.3549 -39.3549 -39.3549 -39.3549 -39.3549 -39.3549 -41.4493 -41.4493 -24.7423 -24.7423 -24.7423 -24.7423 -24.7423 -42.8107 -41.4493 -41.4493 -41.4493 -41.4493 -41.4493 -39.3549 -39.3549 -39.3549 -24.7423 -24.7423 -24.7423 -24.7423 -24.7423 -24.7423 -42.8107 -41.4493 -41.4493 -42.8107 -42.8107 -42.8107 -42.8107 -42.8107 -42.8107 -42.8107 -24.7423 -42.8107 -42.8107 -42.8107 -42.8107 -42.8107 -42.8107 -24.7423 -24.7423 -24.7423 -24.7423 -24.7423 -24.7423 -24.7423 -24.7423 -42.8107 -42.8107 -44.2899 -24.7423 -24.7423 -39.3549 -39.3549 -39.3549 -39.3549 -24.7423 -24.7423 -44.2899 -24.7423 -24.7423 -24.7423 -24.7423 -24.7423 -88.3202 -42.8107 0 0 0 0 -55 -92.9394 -78.4773 0 0 0 -80.25 0 -88.788 0 -78.3 -76.6111 -76.6111 0 -75.697 -42.8107 -88.083 -78.4773 -78.4773 0 0 -63.0392 -87.6587 -72.25 0 0 0 0 -74.9048 -76.875 -81.1746 0 0 0 -86.5 -86 -86 0 0 0 -86 0 0 -85 0 0 0 0 0 0 0 -84 0 -84.5 -84.5 0 0 0 0 0 0 0 0 0 0 0 0 0 0 0 0 0 0 0 0 0 0 -81.5 -81.5 -82 -82 0 0 0 0 0 0 0 -81 -81 -81 0 0 0 -81 -81.3333 -81.3333 0 0 -81 0 -80 0 -80 0 0 -80 0 0 -80 0 0 0 0 0 0 0 0 0 0 0 0 -78 -78 -78 0 0 0 -78 -78 -78 -77 0 0 0 -76 -76 -76.5 -76.5 0 0 0 0 0 0 0 0 0 0 -75 0 0 -76 0 0 -75 0 0 0 0 0 0 0 0 -73.6667 -73.6667 0 -75 -75 -75 -74 -74 -74 0 0 0 0 0 -73 -72 0 0 0 -73 -73 -73 0 0 0 -72 0 0 0 0 0 0 -71 -71 -70 0 0 -71 -71 -71 0 0 0 -70 -70 -70 -70 0 0 -70 -70 -70 0 0 -69 0 0 0 -68 0 0 0 -69 -69 0 0 0 0 0 0 -68 -68 -68 -68 0 0 -67 -67 -67 0 0 0 -66 0 0 -66 0 0 0 0 0 0 -66 -66 0 -65 0 0 0 0 0 0 -64.3333 -64.3333 0 -95 -64 0 0 0 0 0 0 0 -22.4 0 0 0 0 0 0 0 0 0 0 81.9 0 0 0 0 0 0 0 0 0 0 0 0 0 0 0 -50 0 0 0 -65 0 0 0 0 0 0 -97.1667 -97.1667 0 0 -59 0 -59 0 0 0 0 0 0 0 0 0 0 0 0 0 0 0 0 0 0 -51.25 0 0 0 -61.1429 -56 0 0 0 0 0 0 -61.1429 -64 -51 -70.6667 -70.6667 0 0 0 0 -50.9529 -91.6667 -84.5556 0 -48 0 -56.5 -88.3333 -88.3333 -56 -9 0 -57 -55 0 0 0 0 -55 0 -55 0 -55 -55 -55 -55 0 -55 0 -54 0 -55 0 0 0 -53 0 -54 -53 -53 -53 0 -54 0 0 0 0 -54 -54 -54 -54 -53 -53 -53 -53 0 0 0 -53 -53 0 -53 -52 0 -53 -52 0 0 0 0 0 -52 -51 -51 -51 -51 0 -52 0 0 0 -51 -50 0 -51 0 0 0 -50 0 -51 -50 -50 -49 -49 0 0 0 0 0 0 -49 -49 -49 0 -48 -48 0 0 -48 0 -48 -48 0 -49 -48 0 0 0 0 -47 -47 -47 0 -48 -47 0 -48 -46 0 -47 -47 -47 0 -47 -47 0 -47 -46 -45 0 0 0 0 -46 -46 -46 -46 0 -44
-24.7423 -24.7423 -24.7423 -24.7423 -24.7423 -24.7423 -24.7423 -24.7423 -24.7423 -24.7423 -24.7423 -24.7423 -24.7423 -24.7423 -24.7423 -24.7423 -24.7423 -24.7423 -24.7423 -24.7423 -24.7423 -24.7423 -24.7423 -24.7423 -24.7423 -24.7423 -24.7423 -24.7423 -24.7423 -24.7423 -24.7423 -24.7423 -24.7423 -24.7423 -24.7423 -24.7423 -24.7423 -24.7423 -24.7423 -24.7423 -24.7423 -24.7423 -24.7423 -24.7423 -24.7423 -24.7423 -24.7423 -24.7423 -24.7423 -24.7423 -24.7423 -24.7423 -24.7423 -24.7423 -24.7423 -39.3549 -39.3549 -39.3549 -42.8107 -24.7423 -24.7423 -24.7423 -24.7423 -24.7423 -24.7423 -24.7423 -24.7423 -41.4493 -42.8107 -41.4493 -41.4493 -41.4493 -39.3549 -24.7423 -24.7423 -24.7423 -24.7423 -24.7423 -24.7423 -42.8107 -42.8107 -42.8107 -42.8107 -42.8107 -42.8107 -42.8107 -42.8107 -42.8107 -42.8107 -42.8107 -42.8107 -24.7423 -24.7423 -24.7423 -24.7423 -24.7423 -24.7423 -71.4537 -71.4537 -71.4537 -24.7423 -24.7423 -42.8107 -42.8107 -42.8107 -42.8107 -42.8107 -63.9897 -63.9897 -63.9897 -63.9897 -24.7423 -42.8107 -42.8107 -42.8107 -42.8107 -42.8107 -42.8107 -42.8107 -24.7423 -24.7423 -24.7423 -42.8107 -90.1818 -90.8749 0 0 0 0 -95.9714 0 0 0 0 -92.125 -64.75 0 -59 0 0 0 -61.5833 -61.5833 -90.8749 0 -58.3333 -58.3333 0 0 -96 -82.5 -82.5 0 0 0 -59.4667 -86 -77.2222 -87.5641 0 0 0 0 -86 0 -85 -85.5 -85.5 -86 -86 -85 -85 0 0 0 -85 0 -85 0 0 0 0 0 -84 0 0 0 0 -84.5 -84.5 0 -84 0 -83 -83 -83 0 0 -83 -83 0 0 -82 0 0 0 0 -82 -82 0 -81 0 0 0 0 0 0 0 -81 0 -80 0 0 0 0 -81 0 -81 0 0 -80 -80 0 0 -80 -80 -80 0 0 0 0 0 0 0 0 -79 -79 0 0 0 0 -78 -78 -78.6667 -78.6667 0 -78 -78 0 -77 0 -77 0 0 0 0 0 -77 0 0 0 0 0 0 0 -75 -75 -75.5 -75.5 -76 0 0 0 -75 0 0 0 0 -74 -74 0 0 0 -73.6667 -74 -74 0 0 0 0 0 -74 -74 -73 0 0 0 -72.5 -72.5 0 0 -73 -73 0 0 0 0 0 0 0 0 0 0 0 0 0 0 0 0 0 -71 0 0 0 -70 -70 -70 -70 -70 -70 0 0 -70 -70 -70 0 -69 0 0 -70 -69 0 0 0 -68 -85.3333 0 -69 0 0 0 0 -68 -68 -68 -68 0 0 -67 -67 -67 0 0 0 0 -66 0 0 0 -66 0 0 0 0 0 0 0 -66 -66 -65 0 -65 0 -64.5 -65.5 -64 0 -64 0 -22.4 -22.4 0 0 0 0 0 0 0 0 -16 0 0 0 0 0 0 0 0 0 0 0 0 0 0 0 0 0 0 0 0 0 0 0 -89 0 0 0 0 0 0 0 0 -88 0 -60.3333 0 -59.5 0 0 0 -87.5 0 -60 0 -59 0 -59 -59 -59 0 0 0 0 0 0 0 -42.9826 0 0 0 0 0 0 0 0 0 -61.1429 -35.9375 0 0 -92 -51 -51 -51.25 0 -64 -73.1 0 -83.8636 -76.9375 0 -54 -70 -54 -56.0833 -56.0833 0 0 -95.3333 -56 0 0 -57 -56 -55 -55 -55 -55 -55 0 0 0 0 0 0 0 0 -55 0 -54 0 -54 0 -55 0 -53 0 -54 -53 -53 0 0 0 -54 -54 -54 0 -54 -54 -54 -54 0 0 -53 -53 0 -53 0 -53 -53 0 -53 0 -53 -53 0 0 -51.5 -51.5 -53 0 -51 0 0 0 0 0 -51 -51 0 0 -51 -50 0 -51 -50 -50 0 -50 0 -51 -50 -50 0 0 0 -49 -49 -49 -49 -49 -49 -49 0 0 -48 0 -48 -48 -48 0 -48 -48 0 -49 0 0 -47 -47 0 -47 -47 0 0 -48 0 0 0 0 0 0 -47 -46 0 -47 -47 0 -47 -47 0 -46 -46 -46 -46 -46 -46 -46 -46 -45.5 0
-24.7423 -24.7423 -24.7423 -24.7423 -39.3549 -39.3549 -39.3549 -39.3549 -39.3549 -39.3549 -24.7423 -24.7423 -24.7423 -24.7423 -24.7423 -24.7423 -24.7423 -24.7423 -24.7423 -24.7423 -24.7423 -24.7423 -24.7423 -24.7423 -24.7423 -24.7423 -24.7423 -24.7423 -24.7423 -24.7423 -24.7423 -24.7423 -24.7423 -24.7423 -24.7423 -39.3549 -39.3549 -39.3549 -24.7423 -24.7423 -24.7423 -24.7423 -24.7423 -24.7423 -24.7423 -24.7423 -24.7423 -24.7423 -24.7423 -24.7423 -24.7423 -24.7423 -24.7423 -24.7423 -24.7423 -24.7423 -24.7423 -24.7423 -24.7423 -24.7423 -24.7423 -24.7423 -24.7423 -24.7423 -24.7423 -24.7423 -24.7423 -39.3549 -39.3549 -39.3549 -24.7423 -24.7423 -24.7423 -24.7423 -24.7423 -24.7423 -24.7423 -24.7423 -24.7423 -24.7423 -24.7423 -24.7423 -24.7423 -42.8107 -42.8107 -42.8107 -42.8107 -42.8107 -42.8107 -42.8107 -24.7423 -24.7423 -24.7423 -24.7423 -24.7423 -24.7423 -24.7423 -71.4537 -71.4537 -71.4537 -24.7423 -24.7423 -24.7423 -24.7423 -24.7423 -24.7423 -24.7423 -63.9897 -63.9897 -63.9897 -24.7423 -24.7423 -24.7423 -42.8107 -42.8107 -42.8107 -42.8107 -42.8107 -42.8107 -24.7423 -24.7423 -24.7423 -63.0392 -72.6667 0 0 -85.8 -85.8 0 85.75 81.8 -94.4029 0 0 0 0 -59 0 -82.2156 -82.2156 -92.9394 0 0 -96.875 0 0 0 0 -92.7273 -88.3202 -82.5 -82.5 0 0 0 0 0 -77.2222 -88.9418 -88.9418 0 0 0 -86 -86 0 0 0 0 -86 -85 -85 0 0 0 0 0 0 0 0 0 0 0 0 0 0 0 0 0 0 0 0 0 -83 0 0 -82.5 -82.5 -83 -83 0 0 -82 0 0 0 0 0 0 0 -81 0 -81 0 0 0 0 0 0 0 -80 -80 -80.5 -80.5 0 -80 0 -81 0 0 0 0 0 0 0 -80 -80 0 -79 0 0 0 0 0 0 -79 -79 -79 0 0 -78 0 0 -78.5 -78.6667 0 -78 -78 0 0 -77 -77 0 0 0 0 0 0 0 0 0 0 -75.5 0 0 0 0 0 0 0 -76 0 0 -75 0 0 0 0 -74 -74 0 0 0 0 0 0 -74 0 -74 -74 -74 0 0 0 -73 -73 -73 -72.5 -72.5 0 0 0 -73 0 0 0 0 -72 0 0 0 0 0 -71 -71 -71 -71.5 -71.5 0 0 0 0 0 0 0 -70 -70 -70 -70 -70 0 0 -70 -70 -70 0 0 0 0 -68.6667 -69.5 -69.5 0 -26 0 -82.75 -68 0 0 0 -68 0 -68 -68 0 -68 0 0 -67 -67 -67 0 0 0 -66 0 -67 0 0 -4.33333 0 0 0 0 -66 -66 0 0 0 0 0 0 0 0 0 0 0 0 0 0 0 0 -23.5 0 0 0 0 0 0 0 0 0 0 0 0 0 0 0 0 0 0 0 0 0 0 0 0 0 0 0 0 0 -62 0 0 0 0 0 0 0 0 -63 0 0 0 0 -59.5 0 0 0 0 -97.3333 0 -59 0 -59 -59 0 0 0 0 0 0 0 0 0 0 0 -43 -69 0 0 0 0 -47.5 0 -61.1429 0 0 0 0 0 -61.5 -60 -61 0 0 0 0 -51.25 -65.25 -33.6429 -73.1 0 -48 -56 0 0 -57.3333 -97.4 4.66667 -56 -56 0 -55 -55 0 0 0 -55 -55 0 -55 -55 -55 -55 -55 -55 0 0 0 -55 0 -55 0 -53 0 -54 0 0 -53 0 0 -54 -54 0 0 0 0 0 0 -53 0 -53 -53 0 0 0 -53 -53 0 -53 -52 0 -53 -52 0 -51.5 -51.5 -53 0 0 -51 -51 0 -51 0 -51 -51 0 0 0 0 0 -51 -50 -50 0 -50 0 -51 -50 -50 -49 0 -50 -49 0 -49 -49 0 0 0 -49 -49 -49 0 -48 -48 0 -48 -48 -48 0 -49 -48 0 -47 -47 0 -47 0 -47 0 -47 0 -48 -48 0 -47 -47 -47 0 -47 -47 -46 0 -47 -47 0 -46 -46 -46 -46 -46 -46 0 0 0 -44
-24.7423 -24.7423 -24.7423 -24.7423 -39.3549 -39.3549 -39.3549 -39.3549 -39.3549 -39.3549 -39.3549 -24.7423 -24.7423 -24.7423 -24.7423 -24.7423 -24.7423 -24.7423 -24.7423 -24.7423 -24.7423 -24.7423 -24.7423 -24.7423 -24.7423 -24.7423 -24.7423 -24.7423 -24.7423 -42.8107 -42.8107 -42.8107 -42.8107 -42.8107 -39.3549 -39.3549 -39.3549 -39.3549 -41.4493 -41.4493 -42.8107 -42.8107 -42.8107 -42.8107 -42.8107 -24.7423 -24.7423 -24.7423 -24.7423 -24.7423 -24.7423 -24.7423 -24.7423 -24.7423 -24.7423 -24.7423 -24.7423 -24.7423 -24.7423 -24.7423 -24.7423 -24.7423 -24.7423 -24.7423 -24.7423 -24.7423 -24.7423 -24.7423 -39.3549 -24.7423 -24.7423 -24.7423 -24.7423 -24.7423 -24.7423 -24.7423 -24.7423 -24.7423 -24.7423 -24.7423 -24.7423 -24.7423 -24.7423 -42.8107 -24.7423 -42.8107 -42.8107 -42.8107 -42.8107 -42.8107 -42.8107 -24.7423 -24.7423 -24.7423 -42.8107 -42.8107 -42.8107 -88.083 -88.083 -42.8107 -24.7423 -24.7423 -24.7423 -24.7423 -24.7423 -24.7423 -24.7423 -42.8107 -42.8107 -42.8107 -42.8107 -42.8107 -42.8107 -42.8107 -42.8107 -42.8107 -42.8107 -42.8107 -42.8107 -42.8107 -42.8107 -42.8107 -42.8107 -89.5 0 0 -98.1667 -98.1667 -79 72.8333 0 0 0 0 0 0 0 0 -66.5 -66.5 -88.083 0 0 -86.2353 0 0 0 0 -92.7273 -88.3202 -88 -74.5 -74.5 -68 0 0 -59.4667 -93.4857 -89.85 -89.85 0 0 -86 -86 -86 0 0 0 0 -86 0 -85 -84.5 -84.5 -85 0 0 0 -85 -84 -84.5 -84.5 0 0 0 -84 0 -83 0 0 0 0 -84 0 -83 0 -83.5 -83.5 -83 -83 0 0 0 0 0 0 0 0 0 0 0 0 0 0 0 0 0 0 0 0 -80 -80 -80.5 -80.5 0 -80 0 -80 0 0 0 0 0 0 -80 0 0 0 -79 0 0 0 0 -79 0 0 0 0 0 0 -78 -78 -78.3333 0 -78.5 0 -78 -78 -78 0 -77 -77 -76 0 -76.5 -76.5 -77 -77 -77 0 0 0 0 0 0 -75 -75.5 -75.5 -76 -76 -76 0 0 0 0 0 0 0 0 0 0 0 0 0 -74 0 0 0 0 0 0 -74 -74 0 -73 -73 0 0 -73 0 0 0 0 0 0 0 0 0 -34 0 0 0 0 0 0 0 0 0 0 -71 0 0 0 0 0 -70 -70 -70 -70 -70 0 -69 0 -70 -70 0 -70 0 0 -69.5 -69.5 -72 0 0 0 -38.6667 0 0 0 -68 -52.75 -68 0 -68 -68 -68 0 0 0 -67 -67 0 0 0 0 -67 0 0 37 0 0 -65 0 0 0 0 0 -24 8 -8.75 0 -17.5 39 0 0 -26 0 -26 0 0 0 0 0 0 0 0 0 0 0 0 -74 0 0 0 0 0 0 0 0 0 0 0 -42.8107 -83.1788 0 0 0 0 0 0 0 0 0 0 -32 0 0 0 0 0 0 0 0 0 0 0 0 0 -63 0 0 0 0 0 -59 -59 0 -60 -61 -60 -65 0 -57.8333 -57.8333 -73.1 -42 -42 -55 -42.9826 0 0 -62.869 -62.869 -42.85 -56 0 -92 -86.5 -85.5 0 0 0 0 0 -46 0 -51.0867 0 -38.7647 -73.1 0 0 -80 -80 -56.0833 0 0 0 0 -95.6667 -56 0 0 -57 -56 0 -55 -55 0 -55 -55 -55 -55 0 0 0 -55 0 0 -54 0 -55 0 -55 0 -53 0 -54 -53 -53 -53 0 0 0 0 -54 -54 -54 -54 -54 -54 0 -53 -53 -53 0 -53 0 -53 -53 0 -53 -52 0 -53 -52 0 -51.5 -51.5 -51 0 -52 -51 -51 0 0 0 0 0 0 -51 -51 -50 0 -51 -50 0 0 -50 -50 0 -50 0 -50 0 -49 -49 -49 -49 0 0 -49 -49 -49 -49 -49 0 -48 -48 0 0 0 -48 0 -48 -48 0 0 0 0 -47 -47 -47 0 -48 0 0 -47 0 0 0 0 0 0 0 -47 0 -47 -47 0 -46 -46 -46 -46 -46 0 -46 -46 -46 -44
-24.7423 -24.7423 -24.7423 -24.7423 -24.7423 -24.7423 -24.7423 -24.7423 -24.7423 -24.7423 -24.7423 -24.7423 -24.7423 -24.7423 -24.7423 -24.7423 -24.7423 -24.7423 -24.7423 -24.7423 -24.7423 -24.7423 -24.7423 -24.7423 -24.7423 -24.7423 -24.7423 -24.7423 -24.7423 -24.7423 -24.7423 -24.7423 -24.7423 -39.3549 -39.3549 -39.3549 -39.3549 -39.3549 -39.3549 -39.3549 -39.3549 -41.4493 -41.4493 -42.8107 -24.7423 -24.7423 -24.7423 -24.7423 -24.7423 -24.7423 -24.7423 -24.7423 -39.3549 -39.3549 -39.3549 -39.3549 -39.3549 -39.3549 -42.8107 -42.8107 -24.7423 -24.7423 -24.7423 -24.7423 -24.7423 -42.8107 -42.8107 -42.8107 -24.7423 -24.7423 -24.7423 -24.7423 -24.7423 -24.7423 -42.8107 -24.7423 -24.7423 -24.7423 -24.7423 -24.7423 -24.7423 -24.7423 -24.7423 -24.7423 -24.7423 -24.7423 -24.7423 -24.7423 -24.7423 -24.7423 -24.7423 -24.7423 -24.7423 -24.7423 -24.7423 -42.8107 -42.8107 -42.8107 -42.8107 -42.8107 -24.7423 -24.7423 -24.7423 -24.7423 -24.7423 -24.7423 -24.7423 -24.7423 -24.7423 -24.7423 -24.7423 -42.8107 -42.8107 -42.8107 -42.8107 -42.8107 -42.8107 -42.8107 -42.8107 -42.8107 -42.8107 -42.8107 -42.8107 -42.8107 0 0 0 0 -81.3 -41.0559 -63.0392 -87.6587 -40 -40 -38 -73.3333 -79.4667 0 -69.3333 -69.3333 -64.75 -74.8182 -74.8182 0 0 0 0 -68 -78.0616 -80 -90.625 -90.625 -90.625 -76.875 0 -93.4857 -90.92 0 0 0 0 0 0 -86 0 -86.5 -86.5 0 0 0 -85 -85 -84.5 -84.5 -85 0 0 0 0 -84 -84.5 -84.5 -85 -84 0 0 0 0 0 -84 0 0 -84 0 0 0 0 0 -83 -83 -82 0 0 0 0 0 -82 -82 -82 0 0 0 0 0 0 0 0 0 -81 0 -80 -80.5 -80.5 -81 0 -80 0 -80 0 0 0 0 0 0 0 -80 -80 0 0 0 0 0 0 0 0 -79 -79 -79 0 -79 -78 -78 -78.3333 -78.3333 -79 0 -78 0 -78 -77 -77 0 0 0 0 0 0 0 -77 0 0 0 -75.5 0 0 0 -75.5 -75.5 -76 -76 0 0 0 -75 0 0 0 0 -74 0 0 0 0 0 0 -74 -74 0 0 0 0 0 -74 0 -73 -73 -73.5 -73.5 0 0 0 0 -73 0 0 0 0 9 -78.5 0 0 0 -71 -71 -71.5 -71.5 -72 -71 0 0 0 0 0 0 0 0 0 -70 -70 -70 -70 0 0 0 -70 0 -70 0 0 0 -53.5 0 0 0 -92.6667 0 -62 0 0 -67 -39.6667 0 -69.25 0 -68 -68 0 0 0 0 0 -66 0 0 0 0 -4.83333 -4.83333 0 36 0 0 40 -21.5 -7 -7 -7 -72 7 7 -24.5 -17.5 -17.5 -26 -24.3333 0 0 -25 0 0 0 -10 0 0 0 -8.25 0 0 0 0 0 0 0 0 -79.4667 -88.083 0 0 0 0 0 97.7143 0 0 0 0 0 0 0 0 0 -62.869 0 0 0 -65 0 0 0 0 0 0 0 0 0 0 0 0 -63 0 0 0 -60.5 0 0 0 -59 0 0 0 0 0 -57.8333 -57.8333 -42 -42 -65 -45.5 -50.886 -32.9524 -41.1365 -51.56 -42.85 -42.85 -42.85 0 0 0 -85.5 -85.5 0 -42 0 0 0 0 -77 0 0 -46.4333 -43.5 -50.9529 -83.8636 -75.2222 0 0 -54 -56 -75.3333 -56 -56 0 0 0 -56 -55 -55 -55 -55 0 0 0 0 0 -55 0 -55 -55 0 -54 0 0 0 -54 -54 -53 0 -54 -53 0 -53 0 -53 0 -54 -54 0 -54 -54 0 0 0 0 0 -53 0 -53 0 -53 -53 0 -53 -52 0 -53 0 -53 -51.5 -51.5 0 0 -52 0 0 0 -51 0 -51 0 -52 -51 -51 -50 0 -51 -50 0 -51 -50 0 -51 -50 0 -50 0 0 0 0 0 -49 0 -49 -49 -49 -49 0 0 0 -48 -48 0 -48 -48 0 -48 -48 0 -47 -47 0 -48 -47 0 -48 0 0 0 0 0 -47 -47 -47 0 -47 -47 -46 0 0 0 0 -46 -46 -46 -46 -46 -46 -46 -46 -46 0
-24.7423 -24.7423 -24.7423 -24.7423 -24.7423 -24.7423 -24.7423 -24.7423 -24.7423 -24.7423 -24.7423 -24.7423 -24.7423 -24.7423 -24.7423 -24.7423 -24.7423 -24.7423 -24.7423 -24.7423 -24.7423 -24.7423 -24.7423 -24.7423 -24.7423 -24.7423 -24.7423 -24.7423 -24.7423 -24.7423 -24.7423 -24.7423 -24.7423 -24.7423 -24.7423 -24.7423 -24.7423 -24.7423 -24.7423 -24.7423 -24.7423 -24.7423 -41.4493 -42.8107 -24.7423 -24.7423 -24.7423 -24.7423 -24.7423 -24.7423 -24.7423 -24.7423 -39.3549 -39.3549 -39.3549 -39.3549 -39.3549 -39.3549 -42.8107 -42.8107 -24.7423 -24.7423 -24.7423 -24.7423 -24.7423 -42.8107 -42.8107 -42.8107 -24.7423 -24.7423 -42.8107 -42.8107 -24.7423 -24.7423 -42.8107 -24.7423 -24.7423 -24.7423 -42.8107 -42.8107 -42.8107 -42.8107 -42.8107 -42.8107 -42.8107 -42.8107 -42.8107 -42.8107 -41.4493 -41.4493 -42.8107 -24.7423 -24.7423 -24.7423 -24.7423 -24.7423 -24.7423 -24.7423 -42.8107 -24.7423 -24.7423 -24.7423 -24.7423 -24.7423 -42.8107 -42.8107 -42.8107 -24.7423 -24.7423 -24.7423 -24.7423 -24.7423 -24.7423 -42.8107 -42.8107 -42.8107 -42.8107 -42.8107 -42.8107 -42.8107 -42.8107 -42.8107 -42.8107 -42.8107 0 -73.5263 -73.5263 0 0 0 -44 -42.8107 -42.8107 0 -39 -73.3333 -49.0952 -38.5 0 0 -97.0152 -94.4029 -74.8182 0 0 0 0 0 0 0 -66 0 0 -76.875 -90.8595 -90.92 -86.875 -84.0111 -93.4857 -93.4857 0 0 0 -86 -86 -86.5 -86.5 -86 0 0 0 0 0 0 0 -86 0 0 0 0 0 0 -85 -84 0 -84 0 0 0 0 0 -84 -84 -83 0 0 0 0 -83 0 -82 0 -82 0 0 0 0 0 0 0 -81 0 0 0 0 0 -81 0 0 0 -80 -80.5 -80.5 0 0 -80 0 0 0 0 -79 0 0 0 0 0 0 0 0 0 0 0 0 0 0 0 -79 -79 0 -78 -78 -78 -78.5 -78.5 0 0 -78 0 0 0 0 0 0 0 0 -77 -77 -77 0 0 0 0 0 0 0 0 0 0 -76 -76 0 0 -75 -75 0 0 0 0 -74 0 0 0 0 0 0 0 0 0 0 -74 -74 -74 0 0 0 -73.5 -73.5 -74 0 0 -73 -73 -73 0 0 0 0 0 -33 -55 0 0 -71 0 0 0 0 -71 0 0 0 0 0 0 0 0 -70 0 -70 -70 0 0 0 0 0 -19 0 -74.5 4.33333 4.33333 0 -54 0 0 0 0 -62 0 0 -96.3333 0 -86.5333 -86.5333 0 -67.5 0 -68.3333 -67 0 -67 0 0 0 -86.5 0 -45.6667 -22.3333 -54 -50.8333 -50.8333 -43.1 -43.1 -22 0 -24 -23.5 -23.5 0 0 0 0 -25.5 -24.5 -73 -24.3333 -24.3333 -25 -25 0 0 0 -88.3333 34.3333 -25 0 0 0 0 0 0 0 0 0 0 0 0 -38.381 0 0 -29.9643 0 0 0 0 0 0 -54.3333 0 0 0 0 0 0 0 0 0 0 0 0 0 -62 0 0 0 0 0 0 0 0 0 -58 -57 -58 -57 0 0 0 0 0 0 0 0 0 -61.3333 -42.85 0 -34.9435 -50.886 -50.886 -41.1365 -37.7473 -58 -56.5 -56.5 -85.5 -42 0 0 0 0 0 -76 -42 0 -65.25 -60 0 -96 0 -83.8636 -65 0 -61 -57 -97 -55.5 0 0 -97.4 0 0 0 0 -57 -56 0 -55 0 0 -55 -55 -55 -55 0 -55 0 0 0 0 -55 0 -55 0 -54 -54 -53 0 0 0 0 -53 0 -53 0 -54 -54 0 0 0 -54 -54 0 0 -53 -53 0 0 0 -53 -53 0 -53 -52 0 -53 -52 0 0 0 -51 0 -51 -51 -51 -51 -51 0 -51 0 -52 -51 0 0 0 -51 -50 0 -50 -50 0 -51 -50 0 -50 -49 -49 -49 0 -49 -49 0 0 0 0 0 -49 0 -48 -48 0 -48 -48 0 0 0 0 0 -49 0 -48 -48 -47 0 0 -47 -47 0 -47 -47 -47 -47 -46 0 -47 -47 0 0 -47 -47 -46 -46 -46 -46 -46 -46 -46 -46 -46 0 -44
-24.7423 -24.7423 -24.7423 -24.7423 -24.7423 -24.7423 -24.7423 -24.7423 -24.7423 -24.7423 -24.7423 -24.7423 -24.7423 -24.7423 -24.7423 -24.7423 -24.7423 -24.7423 -24.7423 -24.7423 -24.7423 -24.7423 -24.7423 -24.7423 -24.7423 -24.7423 -24.7423 -24.7423 -24.7423 -24.7423 -24.7423 -24.7423 -24.7423 -24.7423 -24.7423 -24.7423 -24.7423 -24.7423 -24.7423 -24.7423 -24.7423 -24.7423 -24.7423 -24.7423 -24.7423 -24.7423 -24.7423 -24.7423 -24.7423 -24.7423 -24.7423 -24.7423 -24.7423 -24.7423 -24.7423 -24.7423 -24.7423 -24.7423 -24.7423 -24.7423 -24.7423 -24.7423 -24.7423 -24.7423 -24.7423 -24.7423 -24.7423 -24.7423 -24.7423 -24.7423 -24.7423 -42.8107 -24.7423 -24.7423 -42.8107 -42.8107 -42.8107 -24.7423 -24.7423 -24.7423 -42.8107 -42.8107 -42.8107 -42.8107 -42.8107 -42.8107 -42.8107 -42.8107 -41.4493 -41.4493 -42.8107 -24.7423 -24.7423 -24.7423 -24.7423 -24.7423 -24.7423 -24.7423 -24.7423 -24.7423 -24.7423 -24.7423 -42.8107 -42.8107 -42.8107 -42.8107 -42.8107 -24.7423 -24.7423 -24.7423 -24.7423 -24.7423 -24.7423 -24.7423 -24.7423 -24.7423 -24.7423 -63.0392 -88.083 -71.4537 -71.4537 -71.4537 -24.7423 -24.7423 -71.4537 -73.5263 -73.5263 0 -37 -66.5 0 0 0 -75.5 -98.2222 0 -78.0616 -92.9394 0 0 -97.0152 -94.4029 0 0 0 0 -50 0 0 0 0 -92.9394 -92.9394 0 0 -80 -89.5 -93.9 -93.9 0 0 0 -86 0 0 0 0 -86 -86 0 0 0 0 0 0 -86 0 0 0 0 0 -85 0 -84 -84 -84 0 -83.5 -83.5 -84 0 0 0 0 -83 -83.5 -83.5 0 0 0 0 0 0 0 0 0 0 0 0 0 0 0 0 0 0 0 0 0 0 0 -80 -80.5 -80.5 0 0 0 0 0 0 -79 -79.5 -79.5 -80 -80 0 0 0 0 0 0 0 0 0 0 -79 -79 -79 -79 0 -78 -78 0 0 0 0 0 -78 0 -78 -77 0 0 0 0 0 0 -77 -77 -77 0 0 0 0 0 0 0 0 -76 -76 -76 -75 0 -75 -75 0 0 0 0 0 0 0 0 0 0 0 -74 0 0 0 0 0 0 -74 0 -73 -73.5 -73.5 -74 0 0 0 -73 0 0 0 0 0 0 9 -55 -12.6667 0 -71 -71.5 -71.5 -72 0 0 0 0 -71 -71 0 0 0 -71 -71 -70 -70 0 0 -44.5 -44.5 0 -33 -60.8333 0 0 0 0 -6.5 0 0 -61.6667 -45.9167 0 0 -64.5 0 0 -96.3333 0 -26 -67.5 -86.5333 0 0 -67 0 0 -11 -27 -27 -27 -23 0 -54 -22.5 -22.5 -43.1 -43.1 0 0 0 0 -22.5 0 0 0 -25 -25.5 -24.5 7 7 -25 -26 0 0 0 0 0 -27 34.3333 -26.5 -75 0 0 0 0 0 0 0 -24.5 0 -44.2074 0 0 0 0 0 0 0 -17 0 0 0 0 0 0 0 0 0 0 -78 0 0 0 0 0 0 0 0 0 0 0 0 0 0 -61 -63 0 0 0 -56 0 -60.5 0 0 0 0 -57 0 0 -61.3333 -66.6 -38.7647 -38.7647 0 -39.8182 -73.1 -35.9375 0 -85.5 0 -51.25 -48 0 0 0 0 0 0 -62.869 0 -50.1429 0 0 0 0 -83.8636 -83.8636 0 0 0 0 -55 -55.8333 0 -97.4 0 0 0 -56 -56 -56 -56 -55 0 -55 -55 -55 -55 -55 0 0 0 -55 -54 -55 -55 0 -55 0 0 0 0 0 -54 -53 -53 -53 0 -53 0 0 0 -54 -54 -54 -54 -54 0 -54 0 0 0 -53 0 -53 -53 0 -53 -52 0 0 -52 0 -53 -52 -53 0 -52 0 0 0 -51 0 0 0 0 0 0 -50 0 -51 -50 0 0 0 0 -51 -50 0 -50 -49 -49 -49 0 0 0 0 -49 -49 0 -49 -49 -49 0 0 0 0 0 -48 0 -48 -48 0 -49 0 0 0 0 -48 -48 -47 0 -48 -47 -47 -47 -46 0 0 0 0 0 -47 -47 -47 -46 -46 -46 0 0 0 -46 -46 -46 -46 -44
-24.7423 -24.7423 -24.7423 -24.7423 -24.7423 -24.7423 -24.7423 -24.7423 -24.7423 -39.3549 -39.3549 -24.7423 -24.7423 -24.7423 -24.7423 -24.7423 -24.7423 -24.7423 -24.7423 -24.7423 -24.7423 -24.7423 -39.3549 -39.3549 -39.3549 -24.7423 -24.7423 -24.7423 -24.7423 -24.7423 -42.8107 -41.4493 -41.4493 -41.4493 -41.4493 -24.7423 -24.7423 -24.7423 -24.7423 -24.7423 -24.7423 -24.7423 -24.7423 -24.7423 -24.7423 -24.7423 -24.7423 -24.7423 -24.7423 -24.7423 -39.3549 -39.3549 -39.3549 -39.3549 -24.7423 -24.7423 -24.7423 -24.7423 -24.7423 -24.7423 -24.7423 -24.7423 -44.6538 -44.6538 -24.7423 -24.7423 -24.7423 -24.7423 -24.7423 -24.7423 -24.7423 -24.7423 -24.7423 -24.7423 -24.7423 -24.7423 -24.7423 -24.7423 -24.7423 -24.7423 -24.7423 -24.7423 -24.7423 -24.7423 -24.7423 -24.7423 -24.7423 -24.7423 -41.4493 -42.8107 -24.7423 -24.7423 -24.7423 -24.7423 -24.7423 -42.8107 -41.4493 -41.4493 -24.7423 -24.7423 -24.7423 -24.7423 -24.7423 -42.8107 -42.8107 -42.8107 -42.8107 -24.7423 -24.7423 -24.7423 -24.7423 -24.7423 -24.7423 -24.7423 -24.7423 -24.7423 -42.8107 -63.0392 -88.083 -71.4537 -71.4537 0 -24.7423 -24.7423 -24.7423 -88.083 -88.083 0 -66.5 -81.3 -83.1788 0 0 0 -94.4029 -53.375 -42.8107 -92.9394 -92.9394 0 -88.083 -94.4029 0 -49.0952 -55.3636 -55.3636 0 0 0 -86.2353 -93.65 -93.65 -89.6488 -73 -85.6667 -90.8595 0 0 0 0 0 0 -86 0 -86.5 -86.5 0 0 0 0 0 -85.5 -85.5 0 0 0 -85 -85 0 0 0 0 0 0 0 -84 0 -83.5 -83.5 -84 0 0 0 0 -83 0 0 -83 0 -83 0 0 0 0 0 -82 0 -82 0 0 0 -81 0 0 0 0 0 0 -81 0 0 -80.5 -80.5 0 0 -80 0 0 0 0 0 0 -80 0 -79 0 0 0 0 0 -79.5 -79.5 0 0 -79 -79 -79 -79 0 -78 -78 -78.5 -78.5 0 0 0 -78 0 -78 -77 0 -77 0 0 0 0 0 0 0 0 0 -76 -76 0 0 0 0 0 0 -76 0 -75 -75 -75 0 0 0 0 -74 0 0 0 0 0 0 0 -74 0 0 0 -74 -74 -74 0 0 0 -74 -74 0 0 0 -73 0 0 0 0 0 -72 0 0 28 0 0 0 0 -72 -72 -72 0 0 0 0 -71 -71 0 0 0 0 0 0 -61.8333 -61.8333 -40.6667 -76 -74.5 4.33333 22.5 22.5 0 -6.5 -21 -21.5 0 27 0 -2.33333 0 0 0 -39 -67.5 0 -86.5333 -67.5 -69.25 0 0 0 0 0 0 -27 0 -21.5 -21.5 0 0 0 0 0 0 0 0 0 0 0 0 0 0 0 -23.25 -23.25 0 0 0 0 -29.5 34 0 0 -27.3333 -26 -26 -11.25 0 0 0 0 0 0 0 0 0 0 0 0 0 0 0 0 0 0 0 0 0 0 0 -76.7436 0 -1.73333 0 0 0 0 0 -11.875 -11.875 -88.788 0 0 0 0 0 0 0 0 0 0 -59 -53 0 0 0 0 0 -57 0 0 -61.3333 0 0 0 0 0 -52.5 0 -38.7647 -29.1905 -44.2074 -44 -90 0 0 0 -71 0 0 0 0 0 0 0 -66.6 0 0 0 0 0 0 0 -49.6667 -73.5 -95 0 0 0 0 -55.8333 -97.4 -25.3333 0 -56 -56 0 0 0 -56 -55 0 -55 0 0 0 0 -55 0 -55 0 -55 0 0 0 0 -55 -54 0 0 -54 0 -53 -53 0 -53 -53 0 -54 0 -54 0 0 0 0 0 -53 -53 -53 -53 0 -53 -53 0 0 0 0 -53 0 -53 0 -52 -54 0 -52 -51 0 -51 0 -52 -51 0 -52 -51 0 -50 0 0 0 0 -50 -50 0 -51 -50 0 -50 -50 -49 0 -49 -49 -49 0 -49 -49 0 -49 -49 0 -48 -48 0 -48 -48 0 -48 -48 -48 0 -49 0 -48 -47 0 -48 -48 -47 0 0 0 0 0 0 0 -47 -47 -46 0 -47 -47 -47 0 0 -46 0 -46 -46 -46 -46 -46 -46 -45.5
-24.7423 -24.7423 -24.7423 -24.7423 -24.7423 -24.7423 -24.7423 -24.7423 -24.7423 -24.7423 -24.7423 -24.7423 -24.7423 -24.7423 -24.7423 -24.7423 -24.7423 -24.7423 -24.7423 -24.7423 -24.7423 -24.7423 -24.7423 -24.7423 -24.7423 -24.7423 -24.7423 -24.7423 -24.7423 -24.7423 -24.7423 -41.4493 -41.4493 -41.4493 -41.4493 -41.4493 -41.4493 -41.4493 -39.3549 -39.3549 -39.3549 -39.3549 -39.3549 -39.3549 -41.4493 -41.4493 -41.4493 -41.4493 -24.7423 -24.7423 -24.7423 -39.3549 -39.3549 -39.3549 -39.3549 -39.3549 -39.3549 -39.3549 -39.3549 -39.3549 -39.3549 -39.3549 -42.8107 -42.8107 -42.8107 -24.7423 -24.7423 -24.7423 -24.7423 -24.7423 -24.7423 -24.7423 -24.7423 -24.7423 -24.7423 -24.7423 -24.7423 0 -24.7423 -24.7423 -24.7423 -24.7423 -24.7423 -24.7423 -24.7423 -24.7423 -24.7423 -39.3549 -24.7423 -24.7423 -24.7423 -24.7423 -24.7423 -42.8107 -42.8107 -42.8107 -42.8107 -42.8107 0 -24.7423 -24.7423 -24.7423 -24.7423 -24.7423 -24.7423 -24.7423 -24.7423 -42.8107 -42.8107 -42.8107 -24.7423 -24.7423 -24.7423 -39.3549 -39.3549 -24.7423 -24.7423 -24.7423 -24.7423 -71.4537 -71.4537 -24.7423 -42.8107 -24.7423 -24.7423 -42.8107 -42.8107 0 -71.9286 -95.8182 -95.8182 0 0 0 -94.4029 -53.375 -42.8107 -92.9394 -92.9394 -97.0152 -74.9048 -89.8794 -89.8794 -87.5641 0 0 0 -62.5 -94.4029 -86.076 -86.076 -86.076 -83.1788 0 81.9 -52.75 -83 0 0 -89.5 0 0 -86 0 -86.5 -86.5 0 0 0 0 0 -85.5 -85.5 0 0 0 0 0 0 0 0 -85 -85 0 0 -84 0 0 0 -84 0 -84 -84 -84 0 0 0 0 0 -83 -82 0 0 0 0 0 0 -82 0 0 0 0 0 0 0 0 -81 -81 -81 0 0 0 0 0 0 0 0 0 0 0 -79.5 -79.5 -80 0 0 0 -79 -79 0 -78 0 0 0 0 -80 -79 -79 -79 0 0 0 0 0 0 -79 0 -78 -77 0 0 0 0 0 0 0 0 -77 -77 -77 0 0 -76 -75 0 0 0 0 -76 -76 0 -76 0 0 0 0 0 0 0 -74.5 -74.5 0 0 0 -74 -74 0 0 0 0 -73 0 -74 -74 0 0 0 -74 0 0 0 0 -73 0 0 0 0 0 0 -55 7 0 -72 0 0 0 0 0 0 0 0 0 0 -36.5 26 -56 -61.25 -40.6667 -29 0 -5 -33.5 -33.5 0 24.375 24.375 24.375 24.375 24.375 -5 -67 -32.5 -32.5 -33.3333 22.5 22.5 -61.6667 0 0 -2 -39.6667 -52.75 0 0 0 -39 0 0 0 0 -26.5 -57.6667 0 0 -22 -24 0 0 -23 -22.5 -24.25 -23.25 0 -23.5 -25.25 -25.25 -22.3333 0 -18 -24.25 -26 0 0 -82.6 0 -82.6 -12 0 0 0 -27 -88.3333 34.3333 -26.5 -11.25 -70.5 0 -13.4167 -29.1905 0 0 0 0 0 0 0 0 0 -54.3333 0 -46.375 -46.375 0 0 0 0 0 0 0 0 -35.16 0 0 0 0 0 0 -46.2637 -54.2833 -46 0 0 0 0 -11.5 -75.3333 0 0 -51 0 0 0 0 0 0 0 0 0 -29 -42.3333 0 0 -43.5 -57 0 0 0 -38.7647 0 -29.1905 0 -24.5 -52.7083 -51 0 -42.4182 -40 -32.375 0 0 0 0 -42 0 -42.85 -52 86.5 86.5 0 -54.2 0 0 0 0 0 0 0 0 0 -56 -25.3333 -56 -56 -56 -56 -56 -56 0 -55 -55 -55 -55 -55 -55 0 0 0 0 0 -55 -54 0 -55 0 -55 -54 0 -54 0 -53 -53 -53 0 -53 -53 0 0 0 0 -54 -54 -54 0 -54 0 0 0 0 0 0 -53 0 -53 -52 0 -53 0 -53 0 0 -51 0 -51 0 -52 -51 0 0 0 0 0 0 0 0 0 -50 -50 0 -50 -50 0 -50 -50 -50 -50 -50 -49 0 -49 -49 -49 0 0 0 0 0 0 0 -48 -48 0 -48 -48 0 0 0 -48 0 -48 0 -48 -47 0 0 -47 0 0 -48 -47 -47 -47 -46 0 -47 -47 0 0 0 0 0 0 -46 -46 0 -46 -46 -46 0 0 0 -45.5
-24.7423 -24.7423 -24.7423 -24.7423 -24.7423 -24.7423 -39.3549 -24.7423 -24.7423 -24.7423 -24.7423 -24.7423 -24.7423 -24.7423 -24.7423 -24.7423 -24.7423 -24.7423 -24.7423 -24.7423 -24.7423 -24.7423 -24.7423 -24.7423 -24.7423 -24.7423 -24.7423 -24.7423 -24.7423 -24.7423 -24.7423 -41.4493 -41.4493 -41.4493 -41.4493 -41.4493 -41.4493 -39.3549 -39.3549 -39.3549 -39.3549 -39.3549 -39.3549 -39.3549 -39.3549 -41.4493 -41.4493 -41.4493 -24.7423 -39.3549 -39.3549 -39.3549 -39.3549 -39.3549 -39.3549 -39.3549 -39.3549 -39.3549 -39.3549 -39.3549 -39.3549 -39.3549 -42.8107 -42.8107 -42.8107 -42.8107 -42.8107 -42.8107 -42.8107 -24.7423 -24.7423 -24.7423 -24.7423 -42.8107 -42.8107 -42.8107 -24.7423 -24.7423 -24.7423 -24.7423 -24.7423 -24.7423 -24.7423 -24.7423 -24.7423 -42.8107 -42.8107 -42.8107 -56.1465 -24.7423 -24.7423 -24.7423 -56.3979 -24.7423 -56.1465 -56.1465 -42.8107 -42.8107 0 -35.9372 -24.7423 -24.7423 -24.7423 -24.7423 -24.7423 -24.7423 -24.7423 -42.8107 -42.8107 -42.8107 -42.8107 -39.3549 -39.3549 -39.3549 -39.3549 -24.7423 -24.7423 -24.7423 -24.7423 -24.7423 -24.7423 -42.8107 -42.8107 -24.7423 -42.8107 -42.8107 -42.8107 -79 0 -54.3333 0 0 0 0 -93.65 -79.4667 -79.4667 -79.4667 -79.4667 0 0 -83.1788 0 0 0 0 -62.25 0 -79.4667 0 0 0 -66 -76.3333 0 0 0 0 0 -52.75 0 0 0 0 -86.6667 -86.6667 0 -86 0 0 0 -85.5 -85.5 0 0 0 -85 0 0 0 0 0 0 0 -84 -84 0 0 0 0 0 -84 0 0 0 0 0 0 0 0 0 0 -82.6667 -82.6667 0 0 0 0 0 0 0 0 0 0 0 0 -81 -81 -81 0 0 0 -81 0 0 0 0 0 0 0 0 0 0 0 -79 -79 0 0 0 0 0 0 0 0 -80 -79 -79 0 0 0 -78.5 -78.5 -79 0 0 0 0 -77 0 -77 -77 -77 -77.5 -77.5 0 0 0 0 -77 -76 -76 -76 -75 0 0 0 -76 -76 -76 -75 -75 0 0 0 0 0 0 0 0 0 0 0 0 0 0 -74 0 0 0 0 -73 0 -74 0 0 0 -74 0 0 0 0 0 0 0 -96 -72.5 -72 0 0 -17 -45.5 7.75 7.75 0 -73 -73 0 0 0 0 -47.8333 -47.8333 -3.5 -33 -3 0 -31.8333 0 0 -31.8333 -31.8333 -47 -31 24.375 24.375 24.375 -33.5 -33.5 -32 -33 0 -33.3333 0 -45.9167 0 -55.8333 0 0 -2 0 0 -9.66667 0 0 -69.25 0 0 -82.5 -91.3333 -26 -57.6667 0 0 -22 -22 -22 0 0 -18 0 -23.25 0 0 0 0 0 0 0 0 0 0 -18 4.5 4.5 0 0 0 0 -26 -27 -27.3333 -27.3333 0 0 0 0 0 0 0 0 0 0 0 0 0 0 0 0 0 0 0 0 0 0 0 0 0 0 0 0 0 0 0 0 0 -32.7083 -23.125 -21.8 0 0 0 -61 0 -22 -26 0 0 0 0 0 0 0 -54 0 0 0 0 -72.75 0 0 0 -91 0 0 0 0 -38.7647 0 0 -32.9524 0 0 -52.7083 -42.4182 -42.4182 0 0 0 0 0 0 0 0 -73.1 0 0 -74 0 72 0 0 0 0 0 0 0 0 0 0 0 0 -56 -56 0 -56 0 -56 -56 0 0 0 -55 -55 -55 -55 0 -55 -55 0 -54 0 -55 0 -55 0 -55 -54 -54 -53 -53 -53 0 0 -53 0 0 0 -54 -54 -54 -54 -54 -54 0 -53 -53 -53 0 -53 -52 0 -53 0 0 0 0 0 0 -52 -51 0 -51 0 -52 0 0 -51 -51 0 -51 -51 0 -50 0 -50 -50 0 -50 -50 0 -50 -50 0 -50 -50 -49 0 -49 0 0 0 -49 -49 0 -49 -49 -49 0 0 0 0 0 0 -48 -48 -48 0 -48 0 -48 -47 0 -48 -47 -47 0 -48 -47 0 -47 -46 0 0 0 -46 0 -47 -47 -47 0 -46 -46 0 -46 0 0 0 -46 -46 -45.5
-24.7423 -24.7423 -24.7423 -39.3549 -39.3549 -39.3549 -39.3549 -24.7423 -24.7423 -24.7423 -24.7423 -24.7423 -24.7423 -24.7423 -24.7423 -24.7423 -24.7423 -39.3549 -39.3549 -24.7423 -24.7423 -24.7423 -24.7423 -24.7423 -24.7423 -24.7423 -24.7423 -24.7423 -24.7423 -24.7423 -24.7423 -24.7423 -24.7423 -24.7423 -24.7423 -24.7423 -24.7423 -24.7423 -24.7423 -24.7423 -24.7423 -24.7423 -24.7423 -24.7423 -24.7423 -24.7423 -24.7423 -24.7423 -24.7423 -24.7423 -24.7423 -24.7423 -24.7423 -24.7423 -24.7423 -24.7423 -24.7423 -24.7423 -39.3549 -39.3549 -39.3549 -24.7423 -24.7423 -42.8107 -42.8107 -42.8107 -42.8107 -42.8107 -42.8107 -24.7423 -24.7423 -24.7423 -24.7423 -24.7423 -42.8107 -42.8107 -24.7423 -24.7423 -24.7423 -24.7423 -24.7423 -24.7423 -24.7423 -24.7423 -42.8107 -42.8107 -42.8107 -42.8107 -56.1465 -24.7423 -24.7423 -24.7423 -56.3979 -24.7423 -56.1465 -56.1465 -56.1465 -56.1465 -24.7423 -24.7423 -42.8107 -42.8107 -42.8107 -42.8107 -42.8107 -42.8107 -42.8107 -56.1465 -56.1465 -56.1465 -24.7423 -24.7423 -24.7423 -24.7423 -35.9372 0 0 0 -39.3549 -39.3549 -56.1465 -56.1465 -56.1465 -73.8846 0 0 -92.9394 0 62.8182 -54.3333 0 0 0 0 0 0 0 -92.9394 -92.9394 -38 -78.5 0 -91.1111 0 0 0 0 0 0 0 -90.8595 -90.8595 0 -58.2857 0 -87.6667 -52.75 0 0 -85.25 0 0 0 0 0 -86.6667 0 -86 -86 0 0 -85.5 -85.5 0 -85 0 -85 0 0 0 -85 0 0 0 -84 -84 0 0 0 0 0 -84 -83.5 0 0 0 0 0 0 0 0 0 0 -82.6667 0 0 -82 -82 -82 0 0 0 0 0 0 0 -81 0 -81 0 0 0 -81 -81 0 -80 0 0 0 0 0 0 0 0 -79 -79 -79 0 0 -78.5 -78.5 0 0 0 0 0 0 0 0 0 -78.5 -78.5 0 0 0 -79 0 0 0 0 -77 -77.5 -77.5 -78 0 -77 -77 -77 0 0 -76 -76 -75 0 0 0 0 0 -76 -75 -75 0 -76 0 0 0 0 -74.5 -74.5 0 0 0 0 0 -74 -74 0 0 0 0 -73 0 0 0 0 0 -74 0 0 0 0 0 -1 0 0 0 -90 -35 0 32 0 -28.5 7.75 0 0 0 -78.5 -36 0 -33 0 -32 -33 26 26 -31.8333 -31 -10.6667 0 -11.6667 -1.5 -31 -30.3333 0 0 0 -32 0 0 0 -30 0 -2.33333 0 0 -75 0 0 -20 0 -73.25 0 0 -69.25 0 0 0 0 0 0 0 -22.5 0 0 -23 -22 -22 0 0 0 0 0 0 0 0 0 0 0 0 0 0 0 0 0 0 0 0 -26 -25 -25 0 -49 -49 0 -24 0 0 -52.5 0 0 0 0 0 0 0 0 0 0 0 0 0 0 0 0 0 0 0 -11.875 0 0 0 0 0 0 0 0 0 0 0 0 0 0 0 0 -49.381 -37.5714 -61 0 0 0 -61 -57.8333 -42 -61 -82 0 -37.7473 -28.875 -28.875 -50.886 0 0 0 0 0 0 -28.875 0 -95 0 0 0 -26.6 -42.4182 -42.4182 -60.5 0 0 0 0 -33.6429 0 -46.4333 0 0 0 -61.6667 -42.3056 -47.75 0 0 0 0 0 0 0 0 0 0 -56.8333 0 0 -56.5 -56.5 -56 0 -56 -56 -55 -55 -55 -55 -55 0 -55 0 -55 0 0 0 0 0 0 0 0 -55 -54 0 -53 -53 -53 0 -53 -53 -53 0 0 -54 0 0 0 0 0 0 -53 -53 -53 0 -53 0 0 0 -52 0 -53 0 -53 0 -52 0 0 -51 0 -52 -51 0 -51 -51 -51 0 0 0 0 0 -50 -50 -50 0 0 -50 -50 -50 -50 -50 -50 -49 0 -49 -49 -49 0 -49 -49 0 -49 -49 0 -48 -48 0 -48 -48 0 -48 -48 -48 0 -48 -48 -48 -47 0 -48 -47 -47 0 -47 -47 0 0 0 0 -47 -47 -46 0 -47 -47 -46 0 0 0 0 0 -46 -46 0 -46 -46 -45.5
-24.7423 -24.7423 -24.7423 -39.3549 -39.3549 -39.3549 -39.3549 -24.7423 -24.7423 -24.7423 -24.7423 -24.7423 -24.7423 -24.7423 -24.7423 -24.7423 -39.3549 -39.3549 -39.3549 -39.3549 -24.7423 -24.7423 -24.7423 -24.7423 -24.7423 -24.7423 -24.7423 -24.7423 -24.7423 -24.7423 -24.7423 -24.7423 -24.7423 -24.7423 -24.7423 -24.7423 -24.7423 0 -24.7423 -24.7423 -24.7423 -24.7423 -24.7423 -24.7423 -24.7423 -24.7423 -24.7423 -24.7423 -24.7423 -24.7423 -24.7423 -24.7423 -24.7423 -24.7423 -24.7423 -24.7423 -24.7423 -24.7423 -24.7423 -24.7423 -24.7423 -24.7423 -24.7423 -24.7423 -24.7423 -24.7423 -24.7423 -24.7423 -24.7423 -24.7423 -24.7423 -24.7423 -24.7423 -24.7423 -24.7423 -24.7423 -24.7423 -24.7423 -24.7423 -24.7423 -24.7423 -24.7423 -24.7423 -24.7423 -24.7423 -24.7423 -24.7423 -24.7423 -56.1465 -24.7423 -24.7423 -24.7423 -56.3979 -24.7423 -56.1465 -56.1465 -56.1465 -24.7423 -42.8107 -42.8107 -42.8107 -42.8107 -42.8107 -42.8107 -42.8107 -42.8107 -42.8107 -42.8107 -35.9372 -24.7423 -24.7423 -24.7423 -24.7423 -24.7423 -35.9372 -39.3549 -39.3549 0 -39.3549 -39.3549 -24.7423 -24.7423 -56.1465 -56.1465 0 0 -92.9394 0 62.8182 0 -76 -76 0 -84.0111 -42.8107 -88.9418 -41.4493 -41.4493 -42.8107 -86.076 0 0 -53.5 0 0 -95.1618 -49.0952 0 0 0 -36.3143 -36.3143 -36.3143 -57.848 0 0 0 0 0 -57.848 0 -86 -86 0 0 0 0 0 0 0 0 0 0 0 0 -85 -85 0 0 0 -85 0 0 -84 0 0 0 0 -84 0 0 0 0 0 0 0 0 -83 0 -83 -82 0 0 0 0 -82 -82 -82 0 0 0 0 0 0 0 0 -81 0 -81 0 0 0 0 0 0 -80 0 -80 -80 0 0 -80 0 0 0 -79 -79 0 0 -78.5 -78.5 0 0 0 0 -79 -79 0 0 0 0 0 0 0 0 -79 -78 0 0 0 0 0 0 -78 0 -77 0 -77 -77 -76 -76 -76 -75 0 0 0 -76 0 -76 -76 -75 -75 0 -75 0 0 0 0 0 0 0 0 0 0 -74 -74 -74 0 0 0 -73 0 -73.5 -73.5 0 0 0 0 -32 -10.3333 0 -59.1667 0 0 -1 0 0 0 0 -31 31.1667 0 -28.5 -31 0 -58 -30 0 -31 -15 -15 -8.33333 -30.3333 -30.3333 -33.5 0 -32.5 -31 0 0 -30.5 -30.5 -25 -28.6667 -28.6667 -29 0 31.5 0 0 -32 0 0 0 -31 26 -31.5 -3.5 0 -59 -59 0 -31.6667 -74.5 -25 0 0 0 0 0 -23.5 -24 -22 0 0 -20.5 -20.5 -21 -21 0 0 0 0 0 0 0 0 0 -2.5 0 0 -24 0 -25 -25.3333 0 -26 0 -24.5 0 -25 -25 -25 -49 0 -25 0 0 0 0 -27 0 0 0 -5 0 0 0 0 0 0 0 0 0 0 0 0 0 0 0 0 -75.1667 0 0 0 0 0 0 -46.375 0 0 0 0 0 0 0 0 0 0 0 0 -37 -8.25 -32.9524 0 0 -37.7473 -28.875 -57.8333 -50.886 0 -47.8889 -39.2867 -28 -39 0 0 0 -52.7083 0 -52.7083 -52.7083 0 -42.4182 0 -42.4182 -52.7083 0 0 0 0 -61.6667 0 -50.0571 -48.335 0 0 -48.335 -38.1619 -1.73333 21.2857 0 0 0 0 0 0 0 0 0 0 0 0 0 -56 0 -56 0 -56 0 -55 -55 -55 0 -55 0 0 -55 0 -54 0 -55 0 -55 0 -55 0 0 -53 -53 -53 0 -53 -53 -53 -53 0 -54 -54 -54 0 -54 -54 0 -53 0 0 0 0 -53 0 -53 0 -53 -53 0 -52 0 -52 -51 0 -51 0 -51 -51 0 0 0 0 -51 -51 -51 -51 -50 -50 0 -50 -50 -50 0 -50 -50 -50 0 0 -49 -49 -49 -49 -49 -49 -49 0 0 0 0 0 -48 -48 -48 -48 -48 0 -48 -48 0 0 0 0 -48 -47 0 -48 -47 -47 0 -47 -47 -47 0 -47 0 -47 -47 -46 0 -47 0 0 0 -46 -45 -46 -46 -46 -46 0 -46 -46 -45.5
-24.7423 -24.7423 -24.7423 -39.3549 -39.3549 -39.3549 -39.3549 -24.7423 -24.7423 -24.7423 -39.3549 -39.3549 -24.7423 -24.7423 -24.7423 -24.7423 -39.3549 -39.3549 -39.3549 -39.3549 -24.7423 -24.7423 -24.7423 -24.7423 -39.3549 -24.7423 -24.7423 -24.7423 -24.7423 -24.7423 -24.7423 -24.7423 -39.3549 -24.7423 -39.3549 -39.3549 -39.3549 -39.3549 -39.3549 -39.3549 -39.3549 -39.3549 -24.7423 -39.3549 -39.3549 -39.3549 -39.3549 -39.3549 -39.3549 -39.3549 -39.3549 -24.7423 -24.7423 -24.7423 -24.7423 -24.7423 -24.7423 -24.7423 -42.8107 -42.8107 -42.8107 -24.7423 -24.7423 -24.7423 -24.7423 0 0 -42.8107 -24.7423 -24.7423 -42.8107 -42.8107 -24.7423 -24.7423 -24.7423 -24.7423 -24.7423 -24.7423 -24.7423 -24.7423 -24.7423 -24.7423 -24.7423 -24.7423 -24.7423 -24.7423 -24.7423 -24.7423 -56.1465 -24.7423 -24.7423 -24.7423 -39.3549 -39.3549 0 -41.4493 -41.4493 -41.4493 -24.7423 -24.7423 -24.7423 -24.7423 -24.7423 -24.7423 -24.7423 -24.7423 -24.7423 -24.7423 -24.7423 -24.7423 -39.3549 -39.3549 -24.7423 -24.7423 -24.7423 -39.3549 -39.3549 -39.3549 -39.3549 -39.3549 -39.3549 -42.8107 -42.8107 -56.1465 0 0 -27 0 0 -49 0 0 -31 -62 -82.2156 46 -88.9418 -88.9418 -88.083 -86.076 -54.25 -79.1333 -89.6488 -78.0616 -78.0616 -95.1618 -78.0616 -98 0 0 0 0 -42.8107 0 -90 0 0 0 -77.5 0 0 -86 -86 0 0 -87 0 0 0 -85 -85.5 -85.5 -86 0 0 0 0 0 -85.5 -85.5 -85 0 -85 0 0 -84.5 -84.5 0 0 0 0 -84 0 -83.5 -83.5 0 0 0 0 -83 -82 -82 0 0 0 -82 -82 -82 -81 0 0 0 0 0 0 -82 0 0 0 0 0 0 -81 0 0 0 0 0 0 0 0 0 -80 -80 -80 0 -79 0 0 -78.5 -78.5 -79 -79 0 0 0 0 0 0 0 0 -79 0 0 0 0 0 -78 -77 0 -77 -77.5 -77.5 -78 0 0 0 0 -77 0 -76 -76 -75 0 0 0 -76 0 -76 -76 -75 0 0 0 0 0 0 -74.5 -74.5 -75 0 0 0 0 0 0 -74 0 0 -73 -73 -73 -72.5 -72.5 0 0 -78 0 -32 -15.5 32 -80 0 0 -78.8333 31 0 0 0 31.1667 31.1667 31.1667 -16.5 -57.8333 0 0 -30 0 0 -33.5 -8.66667 -8.33333 -30.3333 1 0 0 0 0 0 0 0 -28.5 0 0 -28.6667 0 -30 -30 -32.5 0 0 0 0 -32.5 0 -32 -32 -75 0 -2 -73.25 0 -31.1667 -25.3333 -25.3333 0 0 0 -23 0 0 0 -22 0 0 -21 -21 -21 -21 -21.3333 -19 -22 -22 0 0 0 -22 0 0 0 0 0 -25 0 -23.6 -28 0 0 -24 0 0 -27 -20.5 -72.5 0 -24.5 35 0 0 0 0 0 -28.5 0 0 0 0 0 0 0 0 0 0 0 0 0 0 0 0 0 0 0 0 0 0 0 0 0 0 -34.8333 0 0 0 0 0 0 0 -37.5714 0 0 -50.886 -50.886 -42 -32.9524 0 0 -37.7473 -42.25 -34.9435 -47.5 -43.3143 0 0 0 0 0 0 0 -35.9375 0 0 -73.1 -42.3333 0 0 -42.85 0 -45.75 0 0 -50.3929 0 21.2857 -50.0571 -48.335 -75.6667 -61.5 -48.1667 -69.1667 0 0 0 0 0 0 0 -48.8333 -17.5 0 0 0 0 0 -56 -56 0 -56 0 0 -55 -55 -55 -55 0 -55 0 0 0 0 0 0 0 0 0 0 0 -54 0 -53 -53 -53 0 -53 -53 -53 -53 0 -54 -54 -54 -54 -54 0 0 0 -53 -53 0 -53 -53 0 -53 0 -53 0 0 0 0 -52 0 -51 -51 0 -51 0 0 -51 -51 -51 -51 0 -51 -51 -50 0 0 0 0 0 -50 -50 0 -50 -50 0 -50 0 -49 -49 -49 0 0 -49 -49 -49 -49 0 -50 -48 0 0 0 0 0 0 -48 -48 -48 -48 -47 -47 0 -48 -47 0 -48 -47 -47 -47 0 -46 0 0 -47 0 0 0 -47 -46 0 -45.5 -45.5 -46 -46 0 0 0 0 0 0
-24.7423 -24.7423 -24.7423 -24.7423 -39.3549 -39.3549 -39.3549 -24.7423 -24.7423 -24.7423 -39.3549 -39.3549 -24.7423 -24.7423 -24.7423 -24.7423 -39.3549 -39.3549 -39.3549 -39.3549 -24.7423 -24.7423 -24.7423 -24.7423 -39.3549 -24.7423 -24.7423 -24.7423 -24.7423 -24.7423 -24.7423 -24.7423 -24.7423 -24.7423 -39.3549 -39.3549 -39.3549 -39.3549 -39.3549 -39.3549 -39.3549 -24.7423 -24.7423 -24.7423 -24.7423 -24.7423 -24.7423 -24.7423 -39.3549 -39.3549 -39.3549 -39.3549 -39.3549 -39.3549 -39.3549 -39.3549 -39.3549 -39.3549 -24.7423 -24.7423 -24.7423 -24.7423 -42.8107 -24.7423 -24.7423 -24.7423 -24.7423 -24.7423 -42.8107 -42.8107 -42.8107 -42.8107 -42.8107 -24.7423 -24.7423 -24.7423 -24.7423 -42.8107 -24.7423 -24.7423 -24.7423 -24.7423 -24.7423 -24.7423 -24.7423 -24.7423 -24.7423 -24.7423 -24.7423 -24.7423 -24.7423 -42.8107 -41.4493 -41.4493 -39.3549 -39.3549 -39.3549 -39.3549 -24.7423 -24.7423 -24.7423 -24.7423 -24.7423 -24.7423 -24.7423 -24.7423 -24.7423 -24.7423 -42.8107 -42.8107 -41.4493 -41.4493 -41.4493 -41.4493 -42.8107 -24.7423 -24.7423 -39.3549 -39.3549 -39.3549 -39.3549 -42.8107 -42.8107 -42.8107 -83.1788 -83.1788 0 0 0 0 0 0 0 -42.8107 -92.9394 -82.2156 -85.35 -85.35 0 -94.4 -76.875 -78.0616 -78.0616 -42.8107 -42.8107 -78.0616 -42.8107 0 -91.1111 0 0 0 0 0 0 -92.5972 -92.7273 -92.7273 -77.5 0 0 0 0 0 0 -87 0 -86 -86 0 0 0 0 0 -85 0 -85 -85.5 -85.5 0 0 0 0 0 0 -84.5 -84.5 0 0 0 0 0 0 0 0 0 0 0 0 0 0 0 0 -83 0 -82 -82 0 -81 0 0 0 0 -82 0 0 0 0 0 0 0 0 -81 0 0 -80 0 0 0 0 0 0 0 0 -80 0 -79 0 0 0 -79 -79 -79 0 0 -78 -78 0 0 0 0 0 -79 -79 0 -79 0 0 0 0 0 0 0 0 0 0 0 0 0 0 0 0 -76 0 0 0 -76 0 0 -76 -75 0 -75 -75 0 0 0 0 0 0 0 0 0 0 -74 -74 -74 0 -73 -73 0 0 0 0 0 0 -48 -32 32 -15.5 -31 32 -31.5 -31.5 0 0 0 0 -30 31.1667 31.1667 31 0 31 32 -32 -31 -30 31 0 -27.5 -25.5 -29 -29 0 0 0 -30 0 -29 0 -28 0 0 0 0 -30 0 0 0 0 0 0 0 0 0 -33 -60.3333 -60.3333 -31 -30.5 -30.5 -31.1667 -26 -25.3333 -24 0 0 0 0 0 -22 -22 -22 0 -21 0 0 -22 -21 -19 -21.5 -21.5 -21 0 -22 -22 -21.5 -21.5 0 -25 0 0 0 -27 -20.5 0 0 -25.5 -27 0 -25.5 -25.6667 -72 -24.5 -26 -26 35 0 0 0 0 0 0 0 0 0 0 0 0 0 0 0 0 0 0 0 0 0 -26.6 0 0 0 0 0 -95 43.3333 43.3333 0 0 0 0 0 0 -58 0 0 0 0 0 -61 -50.886 -41.1365 0 -43.375 -32.25 -51.0867 -43.3143 -41.1365 -37.7473 -56.1667 -32.9524 -46 0 0 0 -35.16 70 0 55 -32.9524 0 -69.25 0 -39 -37.5714 -51.0443 -52.7083 -21.8 0 -38.7632 -38.7632 21.2857 21.2857 -43.208 -29.5 0 0 0 0 0 0 1.5 0 0 0 0 0 0 -85.6667 -85.6667 0 0 -56 0 -56 -56 0 -56 -55 -55 0 0 0 0 0 0 -55 -55 -54 0 -55 0 -55 0 -55 -54 0 0 0 -53 0 -53 -53 -53 -53 -53 0 0 0 0 0 -54 -54 -54 -53 -53 0 0 0 0 0 0 0 -52 -53 -53 0 -52 -53 0 0 0 -51 0 -52 0 -51 -51 -51 0 0 0 0 -50 0 -50 -50 -50 -50 -50 0 0 0 0 0 0 0 -49 -49 -49 -49 -49 0 -49 -49 0 0 0 -48 -48 0 -49 -48 -48 -48 -48 -48 0 0 0 0 -48 -47 0 -48 -47 -47 -47 0 -46 0 -47 0 -46 0 -47 -47 -46 0 0 0 0 0 -46 -46 -46 -46 -46 -45.5
-24.7423 -24.7423 -24.7423 -24.7423 -24.7423 -39.3549 -39.3549 -24.7423 -24.7423 -24.7423 -39.3549 -39.3549 -39.3549 -39.3549 -39.3549 -39.3549 -39.3549 -39.3549 -39.3549 -39.3549 -24.7423 -24.7423 -24.7423 -24.7423 -24.7423 -24.7423 -24.7423 -24.7423 -24.7423 -24.7423 -24.7423 -24.7423 -24.7423 -24.7423 -24.7423 -24.7423 -39.3549 -39.3549 -39.3549 -24.7423 -24.7423 -24.7423 -24.7423 -24.7423 -24.7423 -24.7423 -24.7423 -24.7423 -39.3549 -39.3549 -39.3549 -39.3549 -39.3549 -39.3549 -39.3549 -39.3549 -39.3549 -24.7423 -24.7423 -24.7423 -24.7423 -24.7423 -24.7423 -24.7423 -24.7423 -24.7423 -24.7423 -24.7423 -24.7423 -24.7423 -42.8107 -42.8107 -42.8107 -24.7423 -24.7423 -24.7423 -24.7423 -42.8107 -24.7423 -24.7423 -24.7423 -24.7423 -24.7423 -24.7423 -24.7423 -24.7423 -24.7423 -42.8107 -24.7423 -24.7423 -24.7423 -24.7423 -24.7423 -24.7423 -24.7423 -24.7423 -24.7423 -24.7423 -24.7423 -42.8107 -42.8107 -42.8107 -42.8107 -42.8107 -24.7423 -42.8107 -42.8107 -42.8107 -42.8107 -63.0392 17.3296 -41.4493 -41.4493 -41.4493 -42.8107 -42.8107 -24.7423 -39.3549 -39.3549 -39.3549 -39.3549 -42.8107 -42.8107 -42.8107 -42.8107 -83.1788 -97.0152 -81.5 0 0 55.5 55.5 -38.381 0 -92.9394 -36.3143 0 0 0 0 0 0 -78.0616 -78.0616 -88.083 -88.083 -78.0616 -78.0616 -78.0616 -89.6488 -89.6488 -91 0 0 0 -92.5972 -92.7273 -92.7273 0 -97.5 0 0 0 0 0 -87 0 -86 0 0 0 0 -86 0 0 -85 -85 -85.5 -85.5 0 0 0 0 0 0 -84.5 -84.5 0 0 -84 0 0 0 -83.3333 0 0 0 0 0 -83 0 0 0 0 -82 0 -82 -82 0 0 0 0 -82 0 0 0 -80 0 -81 0 0 0 0 0 0 0 0 -80 0 0 -80 0 -80 -80 -80 0 -79 -79 0 0 -79 -79 0 0 -79 0 -78 -78 0 0 0 0 0 0 0 0 -78 0 0 -77 -77.5 -77.5 0 -78 0 -41 -41.3333 0 -53.5 -41.3333 -41.3333 -85.3333 0 0 0 0 -76 -76 -76 0 0 0 0 0 0 0 0 0 0 0 0 0 0 0 0 0 0 0 0 0 0 0 0 0 0 -32 -15.5 -31.6667 -31.6667 -32 33.5 33.5 0 -7 -30.5 -32 34 -30 -30 0 0 -30.5 -30.5 0 0 0 0 0 0 -31 0 0 -30 0 0 -28.5 0 0 0 0 -29 0 0 -29 0 0 0 0 -29 0 -29 0 -30 -29 -34 0 -31 0 -31 -31 -31 -31 -30 0 -26 0 0 0 0 0 0 0 0 0 0 0 -22 0 -23.5 -23.5 0 0 -23.5 -24 0 -22 0 -21.5 -21.5 -23 -25 -23.25 -23.25 0 0 -25.6667 -25.6667 0 -24.6667 39 0 7.16667 0 -70.5 7.16667 7.16667 0 34.3333 34.3333 26 0 -25.5 0 0 0 0 0 0 0 0 0 0 0 0 0 0 0 0 0 3.33333 0 0 0 0 0 0 0 0 0 0 0 0 -11.875 0 -42 0 -62 0 0 0 0 0 -42.9826 -37.7473 -32.9524 -32.25 0 -41.1365 0 0 0 0 0 -47.5 -17 0 -38.7632 -38.7632 -38.1619 71 -46.1429 -41.1365 -41.1365 -47.7895 8.6 8.6 -46.2637 -37.5714 0 0 0 0 -38.7632 -38.7632 -43.208 -38.7632 -50.3929 0 0 0 0 0 0 79.3333 -53.5 0 0 0 0 -81 0 0 0 0 -96 -10 -10 -56 0 0 0 -55 -55 0 -55 0 -55 -55 -55 0 0 -55 0 -55 0 0 0 0 -55 -53 -53 -53 -53 -53 0 -53 -53 0 -54 -54 0 -54 -54 -54 0 0 0 0 -53 -53 0 -53 0 -53 0 -53 -53 0 -53 -52 -51 -51 0 -51 0 -51 -51 0 -51 -51 0 -51 -51 -50 -50 0 0 0 0 0 0 0 -50 -50 -50 -50 0 -49 -49 -49 -49 -49 -49 0 0 0 -49 -49 -48 -48 -48 0 -48 -48 -48 0 0 0 0 -47 -47 0 -47 -47 0 -48 -47 0 0 0 -46 0 -47 -46 0 -47 -47 0 0 0 0 0 -46 -46 -46 -46 0 -46 -46 -45.5
-24.7423 -24.7423 -24.7423 -24.7423 -24.7423 -39.3549 -39.3549 -24.7423 -24.7423 -24.7423 -39.3549 -39.3549 -39.3549 -39.3549 -39.3549 -39.3549 -39.3549 -39.3549 -39.3549 -39.3549 -24.7423 -24.7423 -24.7423 -24.7423 -24.7423 -24.7423 -24.7423 -24.7423 -24.7423 -24.7423 -24.7423 -24.7423 -24.7423 -24.7423 -24.7423 -24.7423 -39.3549 -39.3549 -39.3549 -24.7423 -24.7423 -24.7423 -24.7423 -24.7423 -24.7423 -24.7423 -24.7423 -24.7423 -39.3549 -39.3549 -39.3549 -39.3549 -39.3549 -39.3549 -39.3549 -39.3549 -24.7423 -24.7423 -24.7423 -24.7423 -42.8107 -42.8107 -42.8107 -42.8107 -42.8107 -42.8107 -42.8107 -42.8107 -24.7423 -24.7423 -42.8107 -42.8107 -24.7423 -24.7423 -24.7423 -24.7423 -24.7423 -42.8107 -24.7423 -24.7423 -24.7423 -24.7423 -24.7423 -24.7423 -24.7423 -24.7423 -24.7423 -24.7423 -24.7423 -24.7423 -24.7423 -24.7423 -42.8107 -78.0616 -44.3736 -44.3736 -39.3549 -39.3549 -24.7423 -42.8107 -42.8107 -42.8107 -42.8107 -24.7423 -24.7423 -24.7423 -42.8107 -42.8107 -42.8107 -63.0392 17.3296 17.3296 17.3296 -42.8107 -42.8107 -42.8107 -24.7423 -24.7423 -24.7423 0 -44.6538 -44.6538 -24.7423 -39.3549 -39.3549 -65.0455 -81.437 0 -58.5 85.75 85.75 0 -38.381 -92.9394 0 -75.5 -83.9444 -83.9444 0 -95.6667 -42.8107 0 -88.083 -88.083 -88.083 -88.083 0 -89.6488 -78.0616 -89.6488 -89.6488 -79.6667 0 0 0 0 0 -88.3202 0 -92.7273 0 0 0 0 0 0 0 -86 0 0 -85.5 -85.5 0 0 0 -85 -85 -85.5 -85.5 0 0 0 -85 -84 0 0 0 0 -84 -84 0 0 0 -83.3333 -83.3333 0 0 -83 0 0 -82 0 0 0 0 0 -82 -82 0 0 0 0 0 0 0 0 -81 0 0 0 0 -81 -81 0 0 0 0 -80 -80.5 -80.5 -80 -80 -80 -80 0 0 -79 -79 0 0 -79 -79 0 0 0 -78 -78 -78 -78.5 -78.5 0 -79 -79 -79 0 0 0 0 0 -77 -77.5 -77.5 -78 -78 0 -26 -21 -38.6667 -23.5 0 -24 -11.6667 0 0 0 0 0 0 0 0 -75 0 0 0 0 0 0 0 0 0 0 0 0 0 -74 -74 0 0 0 0 0 0 0 0 0 0 -30.5 -31 0 -30 -30 0 0 -28 0 -31 -31 -30 0 0 0 0 -29.5 0 0 0 0 -30 0 0 -30 -30 -29 -29 0 -29 0 -29 -29 0 -29.5 -29.5 -30 -30 -30 -30 0 -30 0 0 0 0 0 0 0 0 0 0 0 0 0 0 0 0 -26 -25 0 0 -24 -28 -24.5 0 0 0 0 -23.5 0 0 0 0 0 -24 0 0 0 0 0 -24.5 0 -23 0 -23 -23.25 -24 -24.5 -24 0 -19 -23.5 0 0 -24 0 0 -24 0 0 -24 34.3333 -27.5 -29 0 0 0 0 0 0 0 0 0 0 0 0 0 -98 0 0 0 0 0 0 0 0 0 0 0 0 0 0 0 0 -11.875 -11.875 0 -66.5 0 0 0 0 0 0 0 -38.7632 -41.1365 -42.3056 -32.25 -66 0 0 0 0 69 -41.1365 -50.1429 -50.1429 -46.1429 -34.9435 -48.4333 -37 -38.7632 -48.4333 -48.4333 -46.2637 -48.335 -47.7895 -46.2637 -62.869 0 0 0 0 0 0 21.2857 0 -38.7632 -52 0 0 0 0 0 0 -78 -48.1667 79.3333 -5.66667 -48.8333 -55.5 -56 -59.5 -70.5 -53.5 0 -56 -10 -56 0 -56 -56 -55 -55 -55 0 0 0 0 0 0 -54 0 -55 0 0 0 -55 -54 0 -54 0 0 0 -53 -53 -53 -53 -53 0 -54 -54 0 0 0 0 -54 -54 -53 0 -53 -52 0 0 0 0 0 0 0 0 -52.5 -52 -51 -51 -51 -51 0 0 0 -51 -51 -51 0 -51 -51 0 0 0 -50 -50 -50 -50 -50 0 -50 -50 0 -50 0 -49 0 -50 -49 -49 0 -49 -49 -49 -49 -49 0 -48 0 0 0 0 0 0 -48 -48 0 -48 0 0 -47 -47 0 -48 -47 -47 0 -47 -46 0 -47 -46 0 0 0 -47 0 -47 -47 0 -46 -46 -46 0 0 0 0 0
-24.7423 -24.7423 -24.7423 -24.7423 -24.7423 -24.7423 -39.3549 -39.3549 -39.3549 -24.7423 -24.7423 -24.7423 -39.3549 -39.3549 -39.3549 -24.7423 -24.7423 -24.7423 -39.3549 -39.3549 -24.7423 -24.7423 -24.7423 -24.7423 -24.7423 -24.7423 -24.7423 -24.7423 -39.3549 -39.3549 -39.3549 -41.4493 -41.4493 -41.4493 -39.3549 -39.3549 -39.3549 -39.3549 -39.3549 -24.7423 -24.7423 -24.7423 -24.7423 -24.7423 -24.7423 -24.7423 -39.3549 -39.3549 -39.3549 -39.3549 -39.3549 -39.3549 -39.3549 -39.3549 -39.3549 -39.3549 -24.7423 -42.8107 -24.7423 -24.7423 -24.7423 -24.7423 -24.7423 -24.7423 -24.7423 -42.8107 -42.8107 -42.8107 -42.8107 -42.8107 -24.7423 -24.7423 -24.7423 -24.7423 -24.7423 -24.7423 -24.7423 -24.7423 -24.7423 -24.7423 -24.7423 -24.7423 -24.7423 -24.7423 -24.7423 -24.7423 -24.7423 -24.7423 -24.7423 -24.7423 -24.7423 -42.8107 -42.8107 -44.3736 -44.3736 -44.3736 -44.3736 -39.3549 -24.7423 -42.8107 -42.8107 -42.8107 -78.0616 -56.1465 -24.7423 -24.7423 -24.7423 -42.8107 -42.8107 -42.8107 -42.8107 17.3296 17.3296 -42.8107 -42.8107 -42.8107 -24.7423 -24.7423 -24.7423 -44.6538 0 -44.6538 -39.3549 0 0 0 0 -69.5 7 85.75 85.75 0 -90.9167 0 0 0 0 -83.9444 -90.8749 0 -79.964 0 0 0 0 -78.0616 0 0 0 0 -89.6488 -79.6667 0 0 0 0 0 -85 -91 -88.3202 0 0 -86.5 -86.5 0 0 -86 0 -86 0 0 -86 0 0 0 -85.5 -85 -85.5 -85.5 0 0 0 0 0 0 0 -85 0 0 -84 0 0 -84.5 -84.5 0 0 0 0 -83 -83 -82 0 0 0 0 0 -82 -82 0 0 0 0 0 0 0 -82 0 0 0 0 0 0 0 0 0 -80 0 -80.6667 -80.6667 0 -80 -80 -80 -80 0 -79 -79 0 0 0 0 -79 -79 0 0 -78 -78 0 0 0 0 0 0 0 -79 -78 -78 0 0 0 0 -78 0 -78 0 0 21 0 -53 0 2.4 2.4 -11.6667 0 0 -77 0 0 0 0 0 0 -75 -75 0 0 0 0 0 0 0 0 0 0 -74 -74 0 0 0 0 0 0 0 -32 -31 0 -32 -30 0 -29.5 -29.5 -30 0 0 0 0 -31 -31 0 0 -30.5 -30.5 0 0 0 0 -27 0 -29.5 -28.5 -28.5 0 -29 0 0 0 -29 -29 0 0 0 -30 -30 0 -29.6 -29.6 -30 0 0 0 0 0 -30 0 0 0 0 0 0 0 0 0 -26.5 0 0 0 0 -25 -25 -27 0 0 0 0 0 0 -24.5 -24.5 -23.5 -23.5 -24 0 0 0 0 0 0 0 -23.5 -23 -23.25 -23 0 -23.5 -24 -24 0 0 0 0 -20.5 -20.5 -24 -27 -88.3333 -9 0 -24 -57.3333 -57.3333 0 -30 0 0 0 -48.8333 0 0 0 0 0 0 0 0 0 0 0 0 0 0 -50.1429 0 0 0 -78.963 0 -26.6 0 -64.2 0 0 0 -54.2833 0 -28.5 0 -24 0 0 0 -35.16 0 -31.4167 0 -38.25 -51.25 0 -35.16 -35.16 0 0 0 0 0 0 -50.1429 0 0 0 0 0 0 -38.25 -60.4167 -46.3333 -35.9375 0 0 -32.375 0 0 0 21.2857 -50.3929 0 0 81.5 -62.869 0 -76.2 -76.2 -76.2 -49.6667 8.6 0 0 0 -56 -44 -59.5 0 0 0 0 0 0 -56 0 -56 -56 -56 -55 0 0 0 0 -55 -55 0 -54 0 -55 0 0 0 0 -54 0 0 0 -53 0 -53 -53 -53 -53 -53 -53 0 0 0 -54 -54 -54 -54 0 -53 0 0 0 0 -53 0 -53 0 -53 -52 0 -52.5 -52 0 -51 -51 -51 0 0 -51 0 -51 -51 -51 -51 0 0 -50 0 -50 -50 -50 -50 -50 -50 0 0 0 0 0 0 -49 0 -49 -49 0 -49 -49 0 0 -49 0 0 -48 0 -48 -48 -48 -48 -48 -48 0 0 0 0 0 0 0 -48 -47 0 -48 -47 -46 0 0 -46 0 -47 -47 -46 0 -47 -47 0 -46 0 0 0 -46 -46 -46 -45.5
-24.7423 -24.7423 -24.7423 -24.7423 -24.7423 -39.3549 -39.3549 -39.3549 -39.3549 -39.3549 -39.3549 -39.3549 -39.3549 -39.3549 -39.3549 -24.7423 -24.7423 -24.7423 -39.3549 -39.3549 -24.7423 -24.7423 -24.7423 -24.7423 -24.7423 -24.7423 -24.7423 -24.7423 -39.3549 -39.3549 -39.3549 -41.4493 -41.4493 -41.4493 -39.3549 -39.3549 -39.3549 -39.3549 -42.8107 -24.7423 -24.7423 -24.7423 -24.7423 -24.7423 -24.7423 -24.7423 -39.3549 -39.3549 -39.3549 -39.3549 -39.3549 -39.3549 -39.3549 -39.3549 -39.3549 -39.3549 -24.7423 -24.7423 -39.3549 -39.3549 -39.3549 -39.3549 -39.3549 -24.7423 -24.7423 -24.7423 -24.7423 -24.7423 -24.7423 -24.7423 -24.7423 -24.7423 -24.7423 -24.7423 -24.7423 -24.7423 -24.7423 -24.7423 0 0 -24.7423 -24.7423 -24.7423 -24.7423 -24.7423 -24.7423 -24.7423 -24.7423 -42.8107 -42.8107 -42.8107 -42.8107 -42.8107 -78.0616 0 0 0 -39.3549 -24.7423 -42.8107 -78.0616 -78.0616 -78.0616 -56.1465 -56.1465 -24.7423 -24.7423 0 -42.8107 -42.8107 -42.8107 -63.0392 -63.0392 -42.8107 -42.8107 -42.8107 -24.7423 -42.8107 -42.8107 -42.8107 -60.5245 -24.7423 0 0 0 0 -78.3 0 -90.625 -62.0833 -62.0833 0 0 0 0 0 0 0 -81.1746 -42.8107 -83.1788 -78.0616 -89.8794 -89.8794 -78.0616 -89.6488 -84.3333 0 0 0 -42.8107 -88.3202 0 0 0 0 0 -83 -86.5 -95.6667 0 0 -86.5 -86.5 0 0 -86 0 -86 0 0 0 -86 0 -85 -85 -85.5 -85.5 0 0 0 0 0 0 0 0 0 0 0 0 0 0 0 0 -84 -84 0 0 0 0 0 0 0 0 0 0 -82 -82 -81 0 0 0 0 0 0 0 -81 0 0 0 0 0 0 0 0 0 0 0 -80.6667 0 0 0 -80 0 0 -79 -79 0 0 0 -79 0 0 0 0 0 -78 0 0 0 0 -78 0 0 0 0 0 0 0 -77.5 -77.5 -78 -78 0 -82.75 -82.75 -63.8333 -53.5 -23.5 -39 18.6667 2.4 2.4 0 0 0 18.6667 18.6667 0 0 0 -76 0 0 0 0 0 0 0 -76 0 0 0 0 0 0 0 -36 -98 0 0 0 0 0 -31.5 -30 0 0 0 0 0 0 0 0 0 0 0 0 0 0 0 0 -30.5 0 0 0 0 -29.5 -29 -29 -30 -27 0 0 0 0 0 -28 0 0 0 -27 -29.6 -29.6 -29.6 0 0 -29 0 0 0 0 -31 -29.8 0 0 0 0 -29 -26 0 0 -26.5 -25 0 0 -24.5 -24 0 0 0 0 0 -24 -24 0 -24 -26 -24.5 -24.5 -24 -23.5 -23.5 -23.5 -23 0 -23 0 -24 0 -23 -23 -23.5 0 -24 -24 0 0 -24 0 0 0 0 0 0 -23.6667 0 0 0 0 0 4.66667 -28 0 0 0 0 0 -16 0 0 0 0 0 0 0 0 0 0 0 2.5 0 0 0 0 0 -50.886 0 0 0 0 -50.1429 -36.0714 -29.5 0 -51.25 0 0 -42 0 -50.886 0 0 -31.4167 -32.375 -37 -49.381 -48.335 -48.335 0 0 0 0 0 -54.2833 0 0 0 0 0 0 0 0 -60.4167 -60.4167 -60.4167 -48.7938 1.5 0 0 88.5455 0 -38.7632 0 0 -49.3333 -54.8333 -61.2754 0 0 -76.2 -76.2 0 79.3333 0 0 0 0 0 -53.5 -56 -58.5 0 -48 0 0 -56 -56 -56 -56 -56 -55 -55 0 -55 0 -55 0 0 0 0 0 0 -54 0 -55 -54 -54 -54 0 -53 -53 -53 -53 0 0 -53 -53 0 -54 0 -54 -54 -54 0 0 -52 0 -53 -52 0 -53 0 -53 0 -53 0 0 0 0 0 -51 -51 -51 0 -51 -51 -51 0 -51 0 -51 -51 0 -50 0 -50 0 0 0 0 0 -50 -50 -50 -50 0 -49 -49 -49 -49 -49 0 0 -49 -49 -49 -49 -49 -48 -48 -48 -48 -48 0 0 0 0 0 -48 -47 0 -47 -47 0 -48 -47 -47 0 0 0 0 -46 -46 0 -47 -47 -46 0 0 0 0 0 -46 -46 0 -46 -46 -46 -45.5
-24.7423 -24.7423 -24.7423 -39.3549 -39.3549 -39.3549 -39.3549 -39.3549 -39.3549 -39.3549 -39.3549 -39.3549 -39.3549 -39.3549 -24.7423 -24.7423 -24.7423 -24.7423 -39.3549 -39.3549 -24.7423 -24.7423 -24.7423 -24.7423 -24.7423 -24.7423 -24.7423 -24.7423 -39.3549 -39.3549 -39.3549 -41.4493 -41.4493 -41.4493 -41.4493 -41.4493 -39.3549 -39.3549 -42.8107 -42.8107 -24.7423 -24.7423 -24.7423 -24.7423 -24.7423 -24.7423 -24.7423 -39.3549 -39.3549 -39.3549 -39.3549 -39.3549 -39.3549 -39.3549 -39.3549 -39.3549 -39.3549 -24.7423 -24.7423 -39.3549 -39.3549 -39.3549 -24.7423 -24.7423 -24.7423 -24.7423 -24.7423 -24.7423 -24.7423 -24.7423 -24.7423 -24.7423 -24.7423 -24.7423 -24.7423 -24.7423 -42.8107 -42.8107 -24.7423 -24.7423 -24.7423 -24.7423 -24.7423 -24.7423 -24.7423 -24.7423 -24.7423 -24.7423 -24.7423 -24.7423 -24.7423 -42.8107 -42.8107 -39.3549 -39.3549 -39.3549 -39.3549 -41.4493 -42.8107 -42.8107 -42.8107 0 -78.0616 -56.1465 -56.1465 -24.7423 -24.7423 0 -24.7423 -24.7423 -42.8107 -42.8107 -42.8107 -42.8107 -24.7423 -24.7423 -39.3549 -24.7423 -24.7423 -24.7423 -30.5645 -39.3549 -37.2632 0 0 -67.8684 0 0 0 0 0 -88.788 0 -93.7778 0 -56.5 -56.5 -71.9333 0 -78.0616 -89.6488 -78.0616 -78.0616 -42.8107 -78.0616 -89.6488 -84.3333 -71.6111 -74.1333 -74.1333 -63.0392 -63.0392 -86 0 0 0 0 -86.5 -76 -88.5 0 0 0 0 0 0 -87 0 -86 0 0 0 0 0 -85 -85 -85.5 -85.5 0 0 -85 -85 0 0 0 0 0 0 -84 -84 0 0 -84.5 -84.5 0 0 -84 -83 0 0 0 0 -83 0 0 -82 0 -82 -81 0 0 -82 -82 -81 0 0 0 0 0 0 0 0 -81 0 0 -80 0 0 0 0 -80 -80 0 0 0 -79 -79 0 0 0 -79 -79 -79 0 0 0 0 0 0 0 0 0 0 -78 0 0 0 0 0 0 0 0 0 15 -83.5 -9 -9 -38 0 -39 18.6667 -52.75 -52.75 -62 18 -62 -39.6667 -9.66667 -26 0 0 0 0 0 0 0 0 0 0 0 33 0 -32.75 -24 0 -38.5 0 0 -30.5 0 0 -32 0 0 0 0 0 0 -30 0 -30 -27 -27.75 0 0 0 0 0 0 -31 -29 0 0 0 0 -28 0 0 -30 -30 -29 0 0 0 0 0 0 -27 -25.5 -25.5 -28.5 0 0 0 0 0 0 0 0 -29 -28.5 0 0 0 0 0 0 -29 0 -29 0 0 -25.5 0 -24 -25 0 0 0 -27 -27 -25 -25 0 -23 -25 0 -24 0 0 0 0 -23.5 0 -24 -23 0 0 0 0 0 0 0 0 0 -25 -25 0 -24 -23.5 -23.5 0 0 0 -23.6667 -23.6667 0 4.66667 0 0 0 35 0 -25.5 -25.5 0 0 0 0 0 0 24.5 0 0 0 0 0 0 0 0 0 0 0 0 0 -28.2 -23 0 0 0 0 0 0 -15.25 -45.75 -22.1667 -61.5 -54.2833 -43.3143 0 0 0 0 0 0 0 0 0 0 0 0 -71.9333 0 -43.0833 0 0 0 0 0 0 0 0 0 0 -69 -48.25 -69.1667 1.5 0 0 -48.4333 -38.7632 -61.6667 -50.1429 -61.6667 0 0 0 0 -48.5 0 0 0 76 0 -53.5 0 0 0 0 0 0 0 -34.75 -72.5 -69.5 -56 0 -56 -56 -56 -56 -55 0 0 0 -55 0 -55 -54 0 -54 0 0 0 0 0 0 0 0 0 0 -53 -53 -53 -53 -53 -53 -53 0 0 -54 -54 0 -54 0 -52 0 -53 0 -53 0 0 0 0 0 -52 0 -52.5 -52 0 -51 -51 0 0 0 0 0 -51 -51 0 -51 -51 -52 -50 0 -50 0 -50 -50 0 -51 -50 0 -50 -50 -50 -49 0 0 0 0 -49 -49 -49 -49 -49 -49 -49 0 -48 -48 -48 -48 0 -48 -48 -48 0 -48 0 0 -47 -47 0 -47 0 0 0 -47 -47 -47 -46 -46 0 -47 -46 0 -47 -47 -47 0 -46 -46 -45 0 -46 -46 0 0
-24.7423 -24.7423 -24.7423 -39.3549 -39.3549 -39.3549 -39.3549 -39.3549 -39.3549 -39.3549 -39.3549 -39.3549 -39.3549 -39.3549 -24.7423 -24.7423 -24.7423 -24.7423 -24.7423 -24.7423 -24.7423 -24.7423 -24.7423 -24.7423 -24.7423 -24.7423 -24.7423 -24.7423 -39.3549 -39.3549 -39.3549 -39.3549 -41.4493 -41.4493 -41.4493 -41.4493 -39.3549 -39.3549 -39.3549 -39.3549 -39.3549 -24.7423 -24.7423 -24.7423 -24.7423 -24.7423 -24.7423 -24.7423 -24.7423 -24.7423 -39.3549 -39.3549 -39.3549 -39.3549 -39.3549 -39.3549 -39.3549 -39.3549 -39.3549 -24.7423 -24.7423 -24.7423 -24.7423 -24.7423 -24.7423 -24.7423 -42.8107 -24.7423 -24.7423 -24.7423 -24.7423 -24.7423 -24.7423 -24.7423 -24.7423 -24.7423 -24.7423 -24.7423 -24.7423 -24.7423 -24.7423 -24.7423 -24.7423 -24.7423 -24.7423 -42.8107 -24.7423 -24.7423 -24.7423 -24.7423 -24.7423 -42.8107 -42.8107 -24.7423 -24.7423 -24.7423 -39.3549 -41.4493 -42.8107 -42.8107 -42.8107 0 -78.0616 -56.1465 -56.1465 -42.8107 -42.8107 -42.8107 -42.8107 -42.8107 -24.7423 -42.8107 -42.8107 -42.8107 -42.8107 -39.3549 -39.3549 -39.3549 -48.976 -41.4493 -88.788 -24.7423 -44.6538 -44.6538 -30.5645 0 0 -39.3549 -79.5 0 0 0 -38.75 62 -61.5833 -74 -74 -78.0616 -41.4493 0 -48 -78.0616 -78.0616 -42.8107 -42.8107 -78.2857 -78.0616 -78.0616 -74.1333 -74.1333 0 0 -87.6587 0 0 0 0 -88.5 -83 -88 0 0 -86.5 -86.5 -86 0 0 0 0 -85.5 -85.5 0 -86 0 0 0 0 0 0 0 0 0 0 0 0 0 0 0 -84 -84 0 -84 0 0 -84 0 0 -83 0 -83 -82.5 -82.5 -83 0 0 0 0 0 -82.5 -82.5 0 -82 0 0 0 0 0 0 0 0 0 0 0 0 0 -80 0 0 0 0 -80 -80 0 -80 0 -79 0 0 0 0 -79 0 -79 0 0 -78 -78 0 0 0 0 0 -78 0 -78 0 0 0 -78.5 -78.5 0 0 -40 -7 -7 0 0 -38 0 -51 18.6667 18.6667 -62 -39 0 0 -9.66667 19 -9.33333 -9.33333 -68.3333 0 0 0 -36.5 -36.5 0 0 0 0 -38.5 -38.5 0 -29.6 0 0 0 -30 -30 -30.5 -30.5 -31 -31.5 -31.5 0 0 0 -31.5 0 0 0 -30 -27.75 0 0 -31 0 0 -30.5 -30.5 -28.5 0 -28.5 0 -28 0 0 0 0 0 0 -27 -28 0 -27 -27 0 -28 -28 -27.5 0 0 -28 -27 -25.5 -25.5 -28.5 -28.5 0 -26 0 0 0 0 0 0 0 0 0 0 0 0 -26 -26 0 0 0 0 -26.5 -26.5 -27 0 0 0 0 0 -26 0 -24 -23.5 -23.5 -24 0 0 -24 0 0 -24 -23 0 -22 0 -23 0 0 0 0 -25 -25 0 0 0 0 0 0 35 -24.5 -26 -22.5 0 -26 0 0 0 0 0 -31.5 0 0 0 -96.5 0 0 0 0 0 0 0 0 0 21.2857 0 0 0 0 0 0 0 0 0 0 0 0 -37.1618 0 0 0 0 0 0 0 0 0 0 0 0 0 0 0 0 0 0 0 -43.0833 -43.0833 0 0 0 0 0 65 0 0 -86.5 -79 0 -59.5714 0 -51.0443 -42.9826 0 -35.9375 0 -54.6 -72.5 0 0 -51.0443 -48.335 -42 0 -63 -48.5 -61 -61 0 0 -78.6667 -86.6667 0 0 0 -34.75 0 0 -56 -56 0 -56 -56 -56 0 0 0 -55 0 -55 -55 -55 -54 0 0 0 -54 0 -54 -54 -54 -54 0 -54 -53 -53 -53 -53 -53 -53 -53 0 0 0 -54 -54 -54 -53 0 -54 0 0 0 0 -52 0 -53 0 -53 -52 0 -52.5 0 0 0 -51 -51 0 -51 -51 0 -51 -51 0 -51 0 0 -51 -50 -50 -50 -50 -50 0 -50 -50 0 0 0 0 0 -49 -49 -49 -49 0 -49 -49 -49 0 0 -49 -48 -48 -48 -48 -48 0 -48 -48 0 0 0 0 0 0 0 0 0 -47 0 -48 -47 -47 -47 -46 -46 0 -47 -46 0 -47 -47 -47 -46 -46 -45 0 0 0 0 0 -45.5
-24.7423 -24.7423 -24.7423 -39.3549 -39.3549 -39.3549 -39.3549 -24.7423 -24.7423 -39.3549 -39.3549 -39.3549 -39.3549 -24.7423 -24.7423 -24.7423 -24.7423 -24.7423 -24.7423 -24.7423 -24.7423 -24.7423 -24.7423 -24.7423 -24.7423 -24.7423 -24.7423 -24.7423 -39.3549 -39.3549 -39.3549 -39.3549 -39.3549 -41.4493 -41.4493 -39.3549 -39.3549 -39.3549 -39.3549 -39.3549 -39.3549 -39.3549 -24.7423 -24.7423 -24.7423 -24.7423 -39.3549 -39.3549 -39.3549 -24.7423 -24.7423 -39.3549 -39.3549 -39.3549 -39.3549 -39.3549 -39.3549 -39.3549 -39.3549 -24.7423 -24.7423 -24.7423 -24.7423 -24.7423 -24.7423 -42.8107 -42.8107 -42.8107 -42.8107 -24.7423 -24.7423 -24.7423 -24.7423 -24.7423 -24.7423 -24.7423 -24.7423 -24.7423 -24.7423 -24.7423 -42.8107 -41.4493 -42.8107 -42.8107 -42.8107 -24.7423 -24.7423 -24.7423 -39.3549 -39.3549 -39.3549 -41.4493 -42.8107 -24.7423 -24.7423 -24.7423 -42.8107 -42.8107 -42.8107 -42.8107 -42.8107 -24.7423 -78.0616 -56.1465 -24.7423 -42.8107 -42.8107 -42.8107 -42.8107 -42.8107 -42.8107 -42.8107 -42.8107 -42.8107 -42.8107 -24.7423 -39.3549 -39.3549 -48.976 -41.4493 -24.7423 -24.7423 -24.7423 -24.7423 -24.7423 105 0 -86.076 0 0 0 0 -76.875 69.5 -78.0616 -68.2961 -68.2961 -91.8556 -41.4493 0 -48 -79.1333 -79.1333 -88.9418 -42.8107 -41.4493 0 0 -91 -91 0 0 0 0 0 0 0 -86.5 -87.6667 -86.5 0 0 0 -87 -87 0 -87 0 0 0 0 -86 0 0 0 0 0 0 0 0 0 0 -85 0 0 0 0 0 -84 -84 0 -83.5 -83.5 -84 -84 0 0 -83 0 -83.5 -83.5 0 0 0 0 -82 0 0 0 0 0 0 0 0 0 0 -80 0 0 -82 0 0 0 0 0 -80 0 0 0 0 -80 -80 0 0 -79 -79 -79.5 -79.5 -80 0 0 0 0 0 0 0 -78 -78.5 -78.5 0 -78 -78 0 -78 0 0 0 0 -78.5 -78.5 0 19 0 0 -38 0 0 0 0 0 0 0 -96.3333 -33.5 0 0 0 -40 0 -68.3333 -40.5 -39 18 0 0 0 -36 -33 -33 -33 0 -38.5 -29.5 -29.6 0 -29.5 -31 -30 -32.5 -32.5 -31 0 0 0 0 0 0 -29.5 -28.3333 -28.3333 -30.4 -30.4 -27.75 -30.4 0 -30.5 -30.5 0 0 0 0 -28 0 0 -27.5 -27.5 0 -26 -28.6667 -29 -29 -28.5 -27.5 -27.5 -27 -27 0 -28.5 -28.5 -28.5 -28 0 -28 -28 0 -28 -26 0 0 -27.3333 -27.3333 0 -28 0 0 0 -27.5 -27.5 -27.5 -28 0 -26 0 -27 0 -26 0 -26 -26 -26 -27 -27.5 -27.5 -27.5 -24 -24.5 0 -24 0 -23.5 -23.5 0 0 0 0 0 0 0 0 0 -22 0 0 0 0 -23 0 0 -22 -24.5 -24.5 -24.5 -24.5 0 0 -22.3333 0 0 0 -22.5 -26 33 -23 -48.1667 -20 0 0 0 0 0 0 0 0 0 0 0 0 0 0 0 0 0 -48.5 0 0 0 0 0 0 0 0 0 -26.6 0 21.2857 -34.9435 0 0 0 -73.1 -73.1 -34.9435 0 -42.6667 0 0 -37.1618 -37.1618 -50.1429 0 0 0 0 -35.16 -57 0 0 0 0 0 0 0 -57.4 0 -83.8636 0 0 93.6667 81.5 -42.9826 -50.886 -35.9375 0 -54.2833 -78.3 0 0 0 -48.335 -42 0 -48.25 0 0 -69.1667 0 0 -38.1619 -86.6667 0 0 0 0 0 0 -10.5 -56 -56 -56 -56 -56 -56 -56 0 0 -55 -54 0 0 0 0 0 -55 -54 0 -54 -54 -54 -54 0 0 0 -53 -53 0 -53 -53 -53 -53 -53 0 -54 -54 -54 -53 0 0 0 -53 0 -53 -52 0 -53 0 -53 0 0 0 -52 0 -52 -51 -51 0 -51 0 -52 -51 0 -51 -51 0 -51 -51 -50 -50 -50 0 0 0 0 0 0 -50 -50 0 -49 0 -49 -49 0 0 0 0 0 -49 -49 0 -48 -48 -48 -48 0 0 0 -48 0 -48 -48 0 -47 -47 0 0 0 -47 0 -48 0 0 0 0 0 0 -47 -46 -46 0 -47 -46 0 -46 -45 0 -46 -46 -46 0 -45.5
-24.7423 -24.7423 -24.7423 -24.7423 -24.7423 -39.3549 -39.3549 -24.7423 -24.7423 -39.3549 -39.3549 -39.3549 -39.3549 -39.3549 -24.7423 -24.7423 -24.7423 -24.7423 -24.7423 -24.7423 -24.7423 -24.7423 -24.7423 -24.7423 -24.7423 -24.7423 -24.7423 -24.7423 -39.3549 -39.3549 -39.3549 -39.3549 -39.3549 -39.3549 -39.3549 -39.3549 -39.3549 -7.08582 -39.3549 -39.3549 -39.3549 -39.3549 -39.3549 -39.3549 -39.3549 -41.4493 -39.3549 -39.3549 -39.3549 -24.7423 -24.7423 -24.7423 -39.3549 -39.3549 -39.3549 -39.3549 -39.3549 -39.3549 -39.3549 -24.7423 -24.7423 -42.8107 -42.8107 -42.8107 -42.8107 -42.8107 -42.8107 -42.8107 -42.8107 -42.8107 -42.8107 -42.8107 -42.8107 -42.8107 -24.7423 -24.7423 -24.7423 -42.8107 -42.8107 -42.8107 -41.4493 -41.4493 -41.4493 -41.4493 -42.8107 -42.8107 -24.7423 -39.3549 -39.3549 -39.3549 -41.4493 -41.4493 -41.4493 -24.7423 -24.7423 -24.7423 -42.8107 -42.8107 -42.8107 -42.8107 -42.8107 -24.7423 -24.7423 -24.7423 -24.7423 -24.7423 -42.8107 -42.8107 -42.8107 -42.8107 -42.8107 -42.8107 -42.8107 -42.8107 -42.8107 -42.8107 -39.3549 -39.3549 -39.3549 -39.3549 -39.3549 -24.7423 -24.7423 -24.7423 -24.7423 -80.2222 -67.8684 -86.076 -93.65 -93.65 0 0 0 -94.4 -78.0616 -78.0616 -68.2961 -91.8556 -86.076 -77.5 0 -74 -74 -88.3202 0 0 0 0 0 0 -91 0 0 0 0 0 0 -87 -87.5 -89.3333 0 -86.5 -86.5 -87 0 -87 0 -86 0 0 0 0 0 0 0 0 -85.5 0 0 0 0 0 0 0 0 -85 -85 0 -84 -84 0 0 0 -84 -84 -84 0 -83 0 -83.5 -83.5 -83 -83 0 0 0 0 -82 -81.5 -81.5 -82 0 0 0 0 0 0 0 0 -82 0 0 -81 0 0 -80 0 0 0 -81 0 -80 0 0 -79 0 0 0 0 0 -79 0 -79 0 0 0 0 0 0 0 0 0 0 -78 0 0 0 0 0 0 0 19 0 0 -38 0 -38 -38 -82.5 -33.5 -33.6667 -33.6667 0 0 0 0 0 0 -40 0 -8 0 0 -36 -36 0 0 0 0 -30 -26 0 -32.75 0 0 0 -31 0 -34 -34 0 0 0 0 -29 -29 -29 -29 -28.3333 -29 -28 -30.4 -30.4 0 0 0 0 -31 0 0 -28 -27 -26 -28 -29 -31 -28 -26.8333 -28.6667 -29 0 0 -27 0 -27 0 0 0 0 0 0 0 0 -28 0 -25.5 -28 0 0 -27.3333 0 0 0 0 0 0 -25.5 0 0 0 0 -26 0 -27 -25.5 -25.5 0 0 -27.5 -27 0 -25.5 -25.5 0 0 0 0 0 -23 0 0 0 0 0 0 0 0 0 0 0 -21 0 -23.6667 -22 -22 0 0 -23.5 -23.5 0 -23 -24 -23 0 -22.5 0 -23 -23 -23.5 0 0 0 -24.5 -24.5 0 0 26 0 0 0 0 0 0 0 0 0 0 0 0 0 0 -41 -37.1618 0 0 0 0 0 0 0 -62.869 -27.5 -27.5 93.6667 93.6667 -62.869 0 0 0 -35.9375 -34.9435 -36.2222 -42.6667 -42.9826 -23 -54.8333 88.5455 -42.9826 -41.1365 -46.4167 0 0 0 -54.2 -54.4 -50.886 -50.886 0 0 -45 -73.8333 -72.5 0 -83.8636 -49.8 -54.2833 0 93.6667 8.6 -50.0571 -35.16 80 81.5 0 -61.1667 -48.5 -72.6667 -72.6667 -48.335 -35.16 93.6667 -47.5 0 -41 0 0 0 0 -81 0 0 0 0 -34.75 0 -56 -56 -56 -56 -56 -56 -56 0 0 0 0 -54 0 -55 -54 -54 0 -55 0 0 0 0 0 0 0 -54 -53 -53 -53 -53 0 -53 -53 -53 -53 0 -54 -54 -54 -54 0 -54 0 -53 -52 0 0 0 0 0 0 -52 0 -52.5 0 -52 -52 -51 0 0 0 0 0 -51 0 -51 -51 0 -51 -51 0 0 0 -50 -50 -50 -50 -50 -50 -50 -50 -50 -50 0 0 0 -49 -49 -49 0 -49.5 -49 -49 0 -48 -48 -48 -48 -48 0 -48 -48 0 -48 -48 -48 0 0 -47 0 -47 -47 0 -48 -47 0 -46 -46 -46 0 -47 -46 0 -47 -47 0 0 -46 -45 0 -46 -46 -45 0 -45.5
-24.7423 -24.7423 -24.7423 -24.7423 -24.7423 -39.3549 -39.3549 -24.7423 -24.7423 -24.7423 -39.3549 -39.3549 -39.3549 -39.3549 -24.7423 -24.7423 -24.7423 -24.7423 -24.7423 -24.7423 -24.7423 -24.7423 -24.7423 -24.7423 -24.7423 -24.7423 -24.7423 -24.7423 -39.3549 -39.3549 -39.3549 -39.3549 -39.3549 -39.3549 -39.3549 -39.3549 -39.3549 -7.08582 -39.3549 -39.3549 -39.3549 -39.3549 -39.3549 -39.3549 -39.3549 -41.4493 -39.3549 -39.3549 -39.3549 -24.7423 -24.7423 -24.7423 -39.3549 -39.3549 -39.3549 -39.3549 -39.3549 -39.3549 -39.3549 -24.7423 -24.7423 -42.8107 -42.8107 -42.8107 -42.8107 -42.8107 -42.8107 -42.8107 -42.8107 -42.8107 -42.8107 -42.8107 -42.8107 -42.8107 -24.7423 -24.7423 -24.7423 -42.8107 -42.8107 -42.8107 -41.4493 -41.4493 -41.4493 -41.4493 -42.8107 -42.8107 -42.8107 -41.4493 17.3296 17.3296 -41.4493 -41.4493 -41.4493 -24.7423 -24.7423 -24.7423 -42.8107 -42.8107 -42.8107 -24.7423 -24.7423 -24.7423 -24.7423 -42.8107 -24.7423 -24.7423 -42.8107 -42.8107 -42.8107 -42.8107 -42.8107 -42.8107 -42.8107 -42.8107 -42.8107 -42.8107 -56.1465 -56.1465 -41.4493 -39.3549 -39.3549 -24.7423 -24.7423 -24.7423 -24.7423 -80.2222 0 -42.8107 -94.4029 -94.4029 0 0 0 -94.4 -78.0616 -78.0616 -44.3736 -89.6488 -91.8556 0 -68.2961 0 0 -88.083 -97.0152 -95.75 100.667 0 0 0 0 -89.8794 -54.7143 -91.1111 0 0 0 -85 -87.5 -87.5 0 -86.5 -86.5 -87 0 0 0 -86 0 0 0 0 0 0 0 0 0 -85.5 0 0 0 0 0 0 0 0 -85 0 -84 -84 0 -84.5 -84.5 0 -84 -84 -84 -83 0 -83.5 -83.5 -83 -83 -83 0 0 0 0 0 0 0 0 -82 0 -81 0 0 0 0 0 0 0 -81 0 0 0 -80.5 -80.5 -81 -81 -80 -80 0 0 -79 -79 0 0 0 0 0 0 0 0 0 -78 -78.5 -78.5 -79 0 0 0 0 0 0 0 0 0 0 0 0 0 0 0 0 0 0 0 0 0 0 -33.6667 -37.5 -37.5 0 0 0 0 0 -37.6667 0 -36 -35.5 -35.5 -31 0 0 0 0 -32.75 -32.75 -36 0 0 -31 -31 0 -29.5 -29.5 0 -32 -28 0 0 -29 0 0 -29 0 0 -28 -30 0 0 -30 -30 -30 -31 -29 0 0 -28 0 0 -26.8333 -29 0 0 0 -29.5 0 -28 0 -26.5 0 0 0 0 -30 -28.5 0 0 0 -27.5 -27.5 -27 -28.5 0 -27 0 0 -25.5 -25.5 -26 0 -25.5 0 0 0 0 0 0 0 0 0 0 0 0 -27.5 -27 -27 0 -27 -27 -26 -24 0 -25 0 -23 -22.5 -22.5 -25 -22 0 0 -22 -24 -22 0 0 -22 -24 0 0 0 -23 0 0 0 0 0 0 -25 -97.4 0 0 -23.5 0 -25 0 -24.5 -24.5 -24 -23.5 0 -16.5 0 0 0 0 0 0 0 0 0 0 -11.875 0 0 0 -42.1333 -42.1333 0 0 0 0 0 0 0 0 -35.9375 -48.335 -41.8052 -41.8052 -42.25 0 0 0 -11.875 0 0 0 0 0 -48.7857 -48.4333 0 -42.9826 -41.8052 0 -43.0833 0 21.2857 -61.2754 -62.869 -35.16 0 0 0 -53.5 0 -54.6 -41.1365 0 -66.5 0 0 0 -61.6667 -1.73333 75 -1.73333 -48.335 -60 -45 0 -61.1667 -50.0571 0 0 0 0 0 0 0 0 0 -81 0 0 0 0 0 -55 0 -56 -56 -56 -56 -56 0 -56 -55 -55 0 -54 0 -55 0 0 0 0 -54 0 -54 -54 -54 -54 0 -54 -54 0 0 -53 0 -53 0 -53 -53 -53 0 0 -54 -53 0 -54 -53 0 -52 0 0 -53 -52 0 -53 -52 0 -52.5 0 0 0 -51 -51 0 -51 -51 0 -51 0 -51 -51 0 -51 -51 -50 -50 0 -50 -50 -50 -50 -50 -50 0 0 0 0 -49 -49 -49 0 -49 -49 -49 0 0 -49 0 -49 -48 -48 -48 -48 -48 -48 -48 -48 0 0 0 -47 -47 0 -47 -47 -47 0 0 -47 0 0 0 0 0 -47 -46 0 0 -46 -46 0 -46 0 -46 -46 -46 -45 0 0
-24.7423 -24.7423 -24.7423 -24.7423 -24.7423 -39.3549 -39.3549 -39.3549 -24.7423 -24.7423 -39.3549 -39.3549 -39.3549 -39.3549 -39.3549 -24.7423 -24.7423 -24.7423 -24.7423 -24.7423 -24.7423 -24.7423 -24.7423 -24.7423 -24.7423 -24.7423 -24.7423 -24.7423 -39.3549 -39.3549 -39.3549 -39.3549 -39.3549 -39.3549 -39.3549 -39.3549 -39.3549 -39.3549 -39.3549 -39.3549 -39.3549 -39.3549 -39.3549 -39.3549 -39.3549 -41.4493 -39.3549 -39.3549 -39.3549 -24.7423 -24.7423 -24.7423 -39.3549 -39.3549 -39.3549 -39.3549 -39.3549 -39.3549 -39.3549 -39.3549 -39.3549 -42.8107 -42.8107 -42.8107 -42.8107 -42.8107 -42.8107 -42.8107 -42.8107 -42.8107 -24.7423 -24.7423 -24.7423 -24.7423 -42.8107 -24.7423 -24.7423 -24.7423 -24.7423 -42.8107 -41.4493 -41.4493 -41.4493 -41.4493 -42.8107 -42.8107 -42.8107 -41.4493 -41.4493 17.3296 -41.4493 -41.4493 -41.4493 -24.7423 -24.7423 -24.7423 -42.8107 -42.8107 -78.0616 -78.0616 -56.1465 -56.1465 -24.7423 -42.8107 -42.8107 -42.8107 -42.8107 -42.8107 -24.7423 -24.7423 -42.8107 -42.8107 -42.8107 -42.8107 -24.7423 -24.7423 -56.1465 -56.1465 -41.4493 -42.8107 -42.8107 -24.7423 -71.4537 -71.4537 -24.7423 -73.8846 0 -95.4646 0 -94.4029 0 0 0 -49.0714 0 0 -49.0952 -93.7778 0 -91.8556 -68.2961 -68.2961 0 -88.083 -88.083 -95.75 100.667 -81.5 -81.5 0 0 0 0 0 -82.625 -82.625 -89.95 0 -86 -85.3333 0 0 0 0 0 0 0 0 0 0 0 0 0 0 0 0 0 0 0 0 -85 0 0 0 0 -85 0 0 -84 0 0 -84.5 -84.5 -85 -84 0 0 0 0 0 0 -83 -83 -83 0 -82 0 0 0 0 0 0 -82 0 -81 0 0 0 0 0 0 0 -81 0 0 -80.5 -80.5 0 0 0 0 -80 0 0 -79 -79.5 -79.5 -80 0 0 -79 0 0 0 0 0 -78.5 -78.5 -79 0 0 -78 0 -78 0 0 0 0 0 -42 -36.3333 0 0 0 0 -37 0 -37 0 -36.5 -36.5 0 -38.5 0 -37 -37 0 -37.6667 -37.6667 -37.6667 0 -36 0 0 -31 0 -34 -29 -32 -32 0 0 0 0 0 0 0 -29.5 -29.5 0 -28 0 0 0 0 0 0 0 0 0 0 -28 0 0 -30 -30 -30 0 0 -29 -29 -29 0 0 -29.5 -29.5 -29.5 0 0 0 -26.5 0 0 0 0 0 0 0 0 0 -26.5 -27 0 -27 0 0 -27 0 0 -28 0 -25.5 -25.5 0 -27.5 -29 0 0 0 -29.6667 0 0 0 0 0 0 -25 -21 -26.5 -26 0 0 0 0 0 0 -24 0 0 -23 0 0 0 -21 0 0 -22.5 0 0 0 0 -22 0 0 0 0 -22 0 0 -25 0 0 0 -25 0 -22.5 0 0 -24 0 0 -23.5 0 0 0 0 0 -27 0 0 0 0 0 0 0 0 0 0 0 -32.375 -37.1618 -21.8 0 0 0 0 0 0 0 0 0 -35.9375 -50.886 -41.1365 -37.1618 0 0 0 0 -11.875 0 0 0 0 0 0 0 0 -48.7938 -42.25 0 0 0 0 0 -62.869 -50.886 -50.0571 0 0 0 0 93.6667 -62.869 -50.886 81.5 0 0 0 0 -1.73333 -1.73333 0 -48.335 0 -48.7938 0 0 -46.1429 0 0 0 -96.5 0 -50.3929 -50.3929 0 0 0 -78.6667 0 0 0 0 0 0 -56 0 0 -56 -56 0 -56 0 -55 -55 -54 0 -55 0 -54 0 -55 -54 0 -54 0 0 0 0 0 0 -53 -53 -53 0 -53 -53 -53 -53 -53 0 0 -54 -53 0 0 -53 -52 0 -53 0 -53 -52 0 0 0 0 0 0 -52 -52 0 -51 0 -51 0 -52 0 0 -52 -51 0 -51 -51 0 -50 -50 -50 0 0 0 0 0 -50 -50 0 -50 -49 -49 -49 -49 0 0 0 -49 -49 -49 -49 -49 0 -48 -48 -48 -48 -48 0 -48 -48 -48 -48 -47 -47 0 0 0 0 0 0 0 0 -48 0 -47 -47 -46 -46 0 -47 -47 0 0 -46 0 -46 -46 -46 0 -46 -45.5
-24.7423 -24.7423 -24.7423 -24.7423 -24.7423 -39.3549 -39.3549 -39.3549 -39.3549 -24.7423 -39.3549 -39.3549 -39.3549 -39.3549 -39.3549 -24.7423 -24.7423 -24.7423 -24.7423 -24.7423 -24.7423 -24.7423 -24.7423 -24.7423 -24.7423 -24.7423 -24.7423 -24.7423 -39.3549 -39.3549 -39.3549 -39.3549 -39.3549 -39.3549 -39.3549 -39.3549 -39.3549 -39.3549 -39.3549 -7.08582 -39.3549 -39.3549 -39.3549 -39.3549 -39.3549 -41.4493 -39.3549 -39.3549 -39.3549 -24.7423 -24.7423 -24.7423 -24.7423 -24.7423 -39.3549 -39.3549 -39.3549 -39.3549 -39.3549 -39.3549 -39.3549 -24.7423 -24.7423 -42.8107 -42.8107 -42.8107 -42.8107 -42.8107 -42.8107 -42.8107 -24.7423 -24.7423 -24.7423 -24.7423 -24.7423 -24.7423 -24.7423 -24.7423 -24.7423 -42.8107 -42.8107 -42.8107 -42.8107 -42.8107 -42.8107 -42.8107 -42.8107 -41.4493 -41.4493 -41.1667 -41.4493 -41.4493 -42.8107 -24.7423 -24.7423 -24.7423 -42.8107 -42.8107 -56.1465 -56.1465 -56.1465 -56.1465 -24.7423 -42.8107 -42.8107 -42.8107 -42.8107 -42.8107 -24.7423 -24.7423 -42.8107 -42.8107 -42.8107 -24.7423 -24.7423 -24.7423 -24.7423 -80.0879 -88.083 -42.8107 -42.8107 0 0 -80.0879 -56.1465 -73.8846 0 -95.4646 0 0 50.7222 50.7222 50.7222 -49.0952 0 0 -49.0952 0 -91.8556 0 0 0 0 -71.9333 -51.0833 0 -78.0616 -78.0616 -78.0616 0 0 0 -95.1618 -82.625 -82.625 0 -88 0 -80.3333 -71.9333 0 0 -87 -87 0 0 0 0 0 0 0 -86 0 -85 0 0 0 0 0 0 -85 0 0 0 0 0 0 0 -84 -84 0 0 0 -85 -84 0 0 -83 0 0 0 0 0 0 0 -82 0 -82.5 -82.5 0 0 0 0 0 -81 0 -81.5 -81.5 0 -82 0 -82 -81 0 0 -80.5 -80.5 0 -81 -81 -80 0 0 0 0 0 0 0 0 0 0 0 0 0 0 0 0 -79 -79 0 0 -78 0 0 0 0 0 0 0 -42 -36.3333 -36.3333 -37 -37 -37 -37 -37.5 -37.5 -36.5 -36.5 -39 -38.5 -38 0 0 -38 -40 -33 0 0 -31.5 0 0 0 -30 0 -39 0 -34 -32 0 0 -31 0 0 -31 0 0 -29.5 -33 0 0 -27 -32 -34 0 -29 0 -29 -29 0 0 -28 -28.5 -28.5 0 0 0 0 0 -28.5 -28.5 0 0 0 0 -27 -27 0 0 -27 -26 0 0 0 0 0 0 0 -26.5 0 -27.5 -27 -27 0 -28 0 0 -27.5 0 0 0 0 -26 -27 0 0 0 0 -27.5 0 -25.5 0 -25.6667 -25.6667 0 0 -27.5 -28 0 0 0 -26 0 0 -26 0 -24 0 0 0 0 0 -21.5 0 0 0 -21.5 -22 0 -21.5 -23 0 -22 0 0 -22.5 0 -23.25 0 0 0 -23.25 -25 0 0 0 -25.3333 -24 -24 0 0 0 0 -23.5 -23.5 21 0 0 0 16.5 0 0 0 0 0 0 0 0 -41.1365 -43.208 -48.55 0 -11.875 0 0 0 0 -48.976 -11.875 -42.85 -62.869 -62.869 -62.869 0 0 -37 0 0 0 0 0 0 0 0 0 0 -43.208 -48.335 -37.7473 -41.625 -53.6667 0 0 0 0 -35.9375 -45.5 0 -31.4167 0 -62.869 -1.73333 93.6667 -60.5 -35.16 0 0 0 0 81.5 0 0 -38.7632 0 0 0 0 0 0 -39 0 -32.25 -50.3929 0 0 0 0 0 0 0 0 0 -22 0 0 0 0 0 -56 0 0 0 0 0 -55 -54 0 -54 0 -54 0 -54 0 0 0 -54 -54 -54 -54 -54 0 -53 -53 -53 -53 0 0 0 -53 -53 0 0 -54 0 -54 -53 -53 -52 0 0 0 0 0 0 -52 -52 0 -52.5 0 -52 -52 0 0 0 0 0 0 -51 0 -51 -51 -51 -51 -51 0 -50 -50 -50 0 -50 -50 -50 -50 -50 -50 0 0 0 0 0 0 -49 -49 -49 0 -49 -49 -49 -49 0 0 0 -48 -48 -48 -48 -48 -48 0 -48 0 0 0 -47 -47 -47 -47 -47 -47 0 -48 0 -47 -47 0 0 0 0 0 -46 0 -45 0 -46 -46 -45 0 -46 -45.5
-24.7423 -24.7423 -24.7423 -24.7423 -39.3549 -39.3549 -39.3549 -39.3549 -39.3549 -39.3549 -39.3549 -39.3549 -39.3549 -39.3549 -39.3549 -24.7423 -24.7423 -24.7423 -24.7423 -24.7423 -24.7423 -24.7423 -24.7423 -24.7423 -24.7423 -24.7423 -24.7423 -24.7423 -24.7423 -24.7423 -39.3549 -39.3549 -39.3549 -39.3549 -39.3549 -39.3549 -39.3549 -39.3549 -39.3549 -7.08582 -39.3549 -39.3549 -39.3549 -39.3549 -39.3549 -39.3549 -39.3549 -39.3549 -39.3549 -24.7423 -24.7423 -24.7423 -24.7423 -24.7423 -39.3549 -39.3549 -39.3549 -39.3549 -39.3549 -39.3549 -39.3549 -39.3549 -39.3549 -42.8107 -42.8107 -42.8107 -42.8107 -42.8107 -42.8107 -24.7423 -42.8107 -41.4493 -41.4493 -41.4493 -39.3549 -39.3549 -24.7423 -24.7423 -24.7423 -24.7423 -42.8107 -42.8107 -42.8107 -42.8107 -42.8107 -42.8107 -42.8107 -41.4493 -41.4493 -88.788 -42.8107 -42.8107 -24.7423 -24.7423 -24.7423 -24.7423 -56.1465 -56.1465 -56.1465 -56.1465 -56.1465 -24.7423 -24.7423 -42.8107 -42.8107 -42.8107 -42.8107 -41.4493 -39.3549 -24.7423 -24.7423 -42.8107 -42.8107 -24.7423 -24.7423 -24.7423 -24.7423 -24.7423 -88.083 -42.8107 -24.7423 -80.0879 0 -80.0879 -56.1465 -73.8846 0 0 0 0 0 50.7222 97.7143 0 -76.6111 -76.6111 -66.5 0 -91.8556 -58.3333 -77 -77 -74 -73.5263 0 -75.5 0 -83.9444 -83.9444 -88.3202 -76 -83 -76 0 0 0 0 -82.625 0 -71.9333 0 0 0 0 0 0 0 0 0 0 0 0 0 0 -85 0 0 -86 0 0 -85 0 0 0 0 0 0 0 -84 -84 0 0 -85 -85 0 0 0 0 0 0 -84 0 0 0 0 0 0 0 0 0 0 0 0 0 0 0 -81.5 -81.5 0 -82 0 -82 -81 0 0 -80.5 -80.5 0 0 0 -80 -80 0 0 -79 -79.5 -79.5 0 0 0 0 0 0 0 0 -78.5 -78.5 -79 -79 0 -78 0 -41.5 -41.5 -39 -37.5 0 0 0 0 0 -37 0 0 0 0 -37 -36 -36.5 -36.5 -36.5 0 -36 0 0 0 0 0 0 -31.5 -31 0 0 0 0 -32 0 0 0 0 -32 -32 -32 0 -31 0 -30.5 -30.5 0 -30 0 0 0 0 0 -27.6 -29 0 0 0 0 0 -29 -29 -29 -27 0 -28.6667 -29 -28.5 -29 0 0 0 0 -29 0 0 0 0 -27 0 0 -26.5 -26.5 -26.5 -26.5 0 0 0 0 -27 -27 -27 0 -23.5 -26.5 -26.5 0 -26 0 0 0 0 0 0 -26 0 0 0 -25 0 -26.5 -26.5 -25.6667 0 0 -24.5 -24.5 0 0 0 -27 -26.5 0 -26.5 0 0 0 0 -27 0 -25 0 0 0 -22 0 -21.5 0 0 0 -21 -23.6667 -23.6667 -20 -22.5 -23.6667 -23.25 -23.25 0 0 -26 0 -22.5 -25 0 -26.6667 0 -26.6667 -29 -29 -29 -23 -23.5 0 27.3333 0 -6 0 0 -50.3929 -38.7632 0 0 0 0 0 0 -50.886 0 -37.1618 0 0 0 0 0 0 0 0 0 0 0 0 0 0 0 0 28.0882 0 0 0 -38.75 -41.0559 0 0 0 0 0 0 0 0 0 0 0 0 0 0 0 -48.7938 0 -51.0443 0 0 0 0 -43.5 0 0 -50.0571 0 0 0 -54.2 -50.3929 0 -50.3929 0 0 -50.3929 0 0 0 -50.3929 0 0 0 0 0 0 0 0 0 0 0 0 0 0 -56 0 0 0 -56 0 -56 -55 -54 0 0 0 0 0 -55 -54 0 -54 -54 -54 -54 -54 -54 0 0 0 0 -53 -53 -53 -53 0 -53 -52 0 0 0 0 0 -54 0 0 -52 0 -52 -52 0 -52 -52 0 0 0 0 0 0 0 -52 -51 0 -51 -51 0 -51 -51 0 0 0 -51 -50 -50 -50 0 -50 -50 -50 -50 0 0 0 -50 -50 -49 -49 -49 -49 -49 0 0 0 0 0 0 -48 -48 -48 -48 -48 -48 -48 -48 -48 -48 0 -47 -47 0 -47 -47 0 -47 -47 -47 -48 -48 0 0 0 -46 -46 0 -47 -46 0 -47 -45 0 -46 -46 -45 0 -46 -45.5
