18 18.5 19.5 20 20 20 20 20 20 0 19.5 20.5 0 0 0 0 23 23 23.5 24 0 23.5 24 24.5 25.5 26 24.5 27 27 27 24.5 0 0 0 28.5 29 29.5 30 0 29.5 30 30 30 30.5 31 31.5 32 0 31.5 0 32.6667 33.5 34 34.5 35 35.5 35.5 35.5 0 34.5 35.5 36 0 36 0 36.5 37 37.5 38 0 39 39.5 39.5 39.5 39.5 40 40.5 41 0 40.5 0 0 0 43 43.5 43 43 44.5 45 45.5 0 0 44 44.5 45 45.5 0 46.5 47 47.5 48 48.5 0 48 48.5 49 49.5 50 0 0 0 0 50.5 51 0 52 52.5 53 0 52.3333 52.5 53 0 0 54.5 55 55.5 56 0 55 57 57.5 58 0 57 0 0 0 0 58 58 58.5 0 59.5 60 60 60.5 61 61.5 62 0 0 0 0 64 0 64 64 0 64 64.5 65 65 65.5 66 0 0 67 67.5 5.5 0 0 0 0 0 0 0 0 0 74.7909 71.4375 56.1432 0 68.5833 38.4578 0 72.0895 72.0895 80.6154 0 0 0 41.4348 41.7889 62.7419 71.9721 77.4625 54.0621 54.0621 73.9883 60.3676 0 63.5833 66.9286 46.0476 46.0476 16.425 66.9643 58.6999 0 0 0 0 66.9286 73.9883 83.8405 83.8405 58.6999 80.6154 0 80.6154 72.0895 72.0895 72.0895 72.0895 55.5985 52.5762 52.5762 55.9598 55.9598 52.5762 52.5762 73.9883 0 0 0 0 41.4348 41.4348 58.8788 62.4048 60.3676 58.6999 55.9598 88.8261 57.2683 53.9498 72.0895 65.625 5.4293 5.4293 5.4293 5.4293 5.4293 5.4293 5.4293 5.4293 81.2148 5.4293 5.4293 -77.535 5.4293 56.1432 56.1432 56.1432 0 42.6667 54.0408 72.0895 56.1432 39.9643 39.9643 57.2683 37 -21.25 0 41.75 41.75 76.5 21.6667 22 0 0 0 0 0 0 0 0 23.1351 0 23.1351 23.1351 23.1351 23.1351 23.1351 23.1351 23.1351 23.1351 -45.25 0 23.5333 0 27.4722 0 -19.6667 -19.6667 -66.6667 -66.6667 0 30 5.5 0 18.8333 22.6667 22.6667 26.5 29.5 28 31.6667 31.6667 27.5 27.5 25.5 23.5 23.5 23.5 29.5 24.25 24.25 0 24.3333 24.3333 0 0 0 0 24 19 24.75 25.8333 0 0 0 0 0 27 23.25 17.25 29.5 24 24 30.5 25.5 0 24 0 0 24.8333 0 29 0 0 0 0 0 0 0 0 24 28.5 29 26.1667 0 0 0 29 29 29 32 29.5 28.5 28.5 28.5 28.5 0 0 0 0 0 30 30 0 0 0 29.5 30.5 35 30 28.3333 0 0 38.5 0 35.5 31.1 31.1 31.1 31.1 33 0 33 0 0 0 0 36.5 35.5 35.5 0 40.1667 40.1667 0 40.1667 34 34 35 0 35 0 43 34 34 0 0 0 0 0 27.5 0 44 46.5 46.5 47 47 47.5 49 47 0 54.5 54.5 0 57 55 57 0 59.5 0 69 0 68 0 0 0 0 0 0 0 0 0 0 0 0 0 0 0 0 0 0 0 0 0 0 0 0 0 0 0 0 0 0 0 0 0 0 0 0 0 0 0 -162.578 0 -211.029 -211.029 0 -162.578 -49.8 -36.0921 -47.5269 -48.7669 0 0 0 -47.5269 -276.698 0 -276.698 0 -20.913 -276.698 0 -130.429 -5.58427 -5.58427 -281.962 0 0 0 0 -209.569 -139.951 -276.698 -162.578 -162.578 -30.2134 -30.2134 -36.0921 -47.5269 -48.7669 -282.983 0 0 0 0 -130.429 0 0 0 0 -33.3968 0 0 -48.7669 0 0 0 0 -162.578 0 -48.7669 0 -44.6644 -281.962 65.6 0 0 0 0 0 0 0 0 0 0 0 0 -47.5269 -48.7669 0 0 0 -48.7669 -200.983 -238.5 -129.682 88.8261 0 0 -47.5269 0 -58.8511 0 0 0 0 0 -256.754 -256.754 -257.09 0 -241.051 0 -125.634 -29.3182 0 -275.67 0 0 0 0 0 0.666667 0 -42.24 -275.67 -165.46 -50.5288 -49.8493 0 -86.8407 -257.09 -257.09 -257.09 0 -281.962 0 -70.318 0 -188.525 -96.3071 0 -125.634 -271.398 0 0 0 -262.243 -162.578 0 0
0 19 19.5 20.5 20.5 20.5 20 20 20 0 19.5 20.5 21 23 23 22.5 22.5 0 0 0 0 23.5 24.3333 24.6667 25.5 26 26.5 27.2 27.2 27.2 0 26.5 27 27.5 0 0 0 30 0 29.5 30.3333 30.5 30.5 30.5 31 31.5 32 0 31.5 32.5 0 0 0 34.5 35 35 35 35 0 34.5 35.5 36 36.5 36.5 0 0 0 0 0 0 0 39 39 39 39.5 40 40.5 41 0 40.5 41.5 42 42.5 0 0 0 44 44 45.5 0 0 44 44.5 45 45.3333 45.6667 0 0 0 47.5 48 48.5 0 48 48.5 49 49.5 50 0 0 0 0 50.5 51 0 52 52.5 53 0 52.3333 52.6667 53 54.5 54.5 0 0 0 56 0 55 57 57.5 58 58 0 57 57 57 57.5 0 0 59 0 59.5 60 60 60.5 61 61.5 62 0 0 0 0 0 0 0 65 0 64.3333 64.5 65 0 66 66 66.6667 0 67 0 26 26 5 0 0 0 0 0 0 0 66.2754 0 61.4624 0 41.3056 41.3697 0 0 54.0408 0 0 0 58.8788 45.8333 52.5762 52.5762 52.5762 -29.7692 69.3793 57.2683 52.5762 51.9694 41.7889 67.5 0 0 43.1667 77.6818 56.6667 0 44.5308 55.9598 55.9598 55.9598 56.1432 56.1432 72.0895 72.0895 54.3162 5.4293 52.5762 52.5762 52.5762 52.5762 5.4293 5.4293 52.5762 55.9598 58.6999 55.9598 55.9598 55.9598 52.5762 60.3676 52.5762 52.5762 58.8788 0 78.3 0 58.6999 58.6999 -208.587 -208.587 -208.587 -129.682 5.4293 5.4293 5.4293 -12.4425 74.2849 72.5625 57.2683 52.5762 52.5762 52.5762 52.5762 52.5762 56.1432 56.1432 0 0 0 0 57.2683 57.2683 -21.0556 55.8428 52.5762 52.5762 5.4293 5.4293 5.4293 -66.4933 60.3676 0 52.5762 52.5762 -129.682 83.4667 -272.071 0 0 -46 0 0 0 0 0 -4.5 0 0 0 0 0 23.1351 23.1351 23.1351 23.1351 23.1351 -26.4538 23.1351 0 23.5333 0 0 -61 -61 -61 -66.6667 33 33 0 0 18.8333 27.5 27.5 27.5 27 28 26.5 28 28 28 31.6667 26 27.5 27.5 0 23.1667 0 0 23.1667 23.1667 23 0 0 27.6667 27.6667 21 0 25.5 25.8333 25.8333 25.8333 24.7143 0 24.7143 24.7143 22 24.7143 28.1667 25 0 25 24 0 25.5 26.5 26.5 30 30 30 29 24.8333 25 26 29 26.5 29 27 0 0 0 29.5 28.5 28.5 27 29.5 0 0 30 29 29 29 29 27.5 0 29.5 29.5 31.5 0 0 0 0 0 28 0 0 0 0 29.9333 0 0 0 0 31.1 31.1 31.1 31.1 0 35.5 0 35 35 35 34 0 34 0 0 0 0 35.5 35.5 34 34 0 35 0 0 35 40 38 0 0 0 0 27.5 43 44.5 0 0 0 0 48 0 0 0 0 0 0 0 0 0 0 0 0 0 0 0 0 0 0 0 0 0 0 0 0 0 0 0 0 0 0 0 0 0 0 0 0 0 0 0 0 0 0 0 0 0 0 0 0 0 0 -162.578 30 0 0 -22.6471 -20.5507 -211.029 -211.029 -211.029 -130.429 0 -3.09091 -47.5269 -48.7669 -48.7669 0 0 0 -47.5269 0 0 0 0 0 -262.243 0 -130.429 -36.0921 0 -281.962 -188.525 -241.051 -188.525 0 -209.569 0 0 -47.5269 -47.5269 -36.0921 -36.0921 -36.0921 -47.5269 0 -275.67 -275.67 -275.67 0 -235.978 -36.6667 0 0 0 0 -188.525 0 0 -48.7669 0 -252 0 -27.2292 0 0 -48.7669 -86.8407 -44.6644 -281.962 17.8482 0 -70.318 -70.318 -70.318 0 0 0 -241.051 -241.051 0 -47.5269 0 -36.0921 0 0 0 0 -241.051 -282.983 0 -118.5 0 -282.983 -282.983 0 -48.7669 -48.7669 -47.5269 0 -282.983 0 -48.7669 0 8.38597 0 78.5116 0 -252 -86.8407 -164.556 -164.556 -86.8407 -86.8407 0 0 0 0 -70.318 0 0 0 -165.46 -50.5288 0 -277.688 0 -257.09 0 0 0 -257.09 -209.569 -201.417 -281.962 -188.525 -62.85 0 0 0 -5.4 0 0 0 0 0 0
18.5 0 19.5 20.5 20.5 20.5 20.5 21 21 21 0 20.5 21 21.5 22.5 22.5 22.5 22.5 23.5 0 23 0 0 0 25.5 26 24.5 26.75 26.75 26.75 24.5 26.5 27 27.5 28.5 29 29.5 30 30.5 0 30.5 30.5 30.5 30.5 31 31.5 32 32.5 0 32.5 33 33.5 34 0 0 35 35 35.5 0 35 35.5 36 0 35.5 36 36.5 37 37.5 39.5 40 0 0 0 0 0 40.5 41 41.5 0 41 41.5 42 42.5 43 43.5 0 0 0 45.1667 0 0 44 44.5 45 45.3333 45.6667 0 0 0 47.5 48 48.5 0 48 48.5 49 49.5 50 50.5 0 0 50 0 0 0 0 52.5 53 0 52.5 53 53 53.5 54 54.5 55 55.5 0 0 0 57 57.5 0 58 0 0 57 58.5 0 58 58.5 0 0 59.5 60 60.5 61 0 61.5 62 62 0 61.5 62 0 0 0 0 0 0 0 65 0 66 66 66.3333 0 67 67 67 5 0 69 0 0 0 0 0 0 66.2754 66.2754 51.9694 65.8377 44.5962 0 0 0 0 54.0408 0 0 0 48.125 0 44.5308 52.5762 0 70.0286 46.0476 55.5985 0 77.4625 0 71.9721 0 0 0 87.0317 35.4643 44.5308 55.9598 55.9598 55.9598 55.9598 56.1432 72.0895 73.9883 54.3162 5.4293 52.5762 52.5762 52.5762 52.5762 5.4293 5.4293 0 55.9598 55.9598 55.9598 55.9598 52.5762 52.5762 65.3959 -66.4933 81.2148 0 0 0 80.7875 81.2148 -98.8556 52.7813 60.3676 60.3676 52.5762 5.4293 5.4293 5.4293 54.3162 60.792 60.792 52.5762 52.5762 52.5762 52.5762 52.5762 -129.682 56.1432 56.1432 57.2683 57.2683 57.2683 57.2683 -19.6644 -19.6644 5.4293 5.4293 5.4293 5.4293 5.4293 5.4293 5.4293 -57.2 60.9343 0 60.9343 0 0 -239.579 0 0 0 0 0 0 0 0 0 0 0 0 0 0 23.1351 0 -45.25 -45.25 23.1351 0 23.5333 0 0 -61 0 0 0 0 29 0 -40.25 0 -23.5 -40.25 -40.25 -23.5 27.5 27.5 33 27 0 27.6 27.6 0 35 27.5 27.5 0 0 0 0 0 28 27.5 29.5 0 34.5 16.5 23.5 0 24.3333 23.9286 23.9286 23.9286 23.9286 23.5 24.7143 27 28.1667 24 24.7143 23.5 0 0 0 0 23 26 0 0 30 30 30 0 22.8333 22.8333 0 29 28 26.5 29 26.5 26.5 29 28.5 29 26.5 0 26.5 28 29 27.5 27.5 0 0 28 30 0 0 0 0 0 0 33.5 23 31.5 0 0 0 0 0 29.9333 0 37 0 0 0 24.5 26 0 0 0 0 0 0 0 0 34 0 0 0 0 0 0 0 0 0 0 0 0 0 35.5 35.5 35.5 41 39 0 42 41 39 0 0 46 0 0 47.5 47.5 49.8333 0 0 0 0 0 0 0 0 0 0 0 67 0 0 0 0 0 0 0 0 0 0 0 0 0 0 0 0 0 0 0 0 0 0 0 0 0 0 0 0 0 0 0 0 0 0 0 0 0 80.5 0 0 -2.7 0 -275.67 0 -47.5269 -47.5269 -275.67 0 -282.983 -48.7669 0 0 0 0 0 -188.525 0 0 0 0 -262.243 -276.698 -188.525 0 0 0 -188.525 0 -42.6567 0 -47.5269 -47.5269 -47.5269 -47.5269 -47.5269 -47.5269 -36.0921 -47.5269 -47.5269 0 0 0 0 0 -209.569 -275.67 -188.525 0 0 0 -188.525 0 0 -48.7669 0 0 0 0 -5.4 -48.7669 0 0 0 0 0 0 0 0 0 -188.525 0 0 -241.051 0 0 0 -282.983 -40 0 0 0 0 -188.525 -188.525 0 0 0 0 0 -282.983 -282.983 -282.983 -47.5269 -47.5269 0 0 0 0 0 0 -50.5288 0 0 -252 0 0 0 0 0 0 0 -50.5288 -209.569 0 0 0 0 0 -44.6644 0 0 -275.67 0 0 0 0 -40 0 -153.481 -188.525 -188.525 -282.983 0 0 0 0 0 0 -47.5269 0 0
18.5 19 0 0 0 0 0 21.5 0 0 20 20.5 21.3333 21.6667 22.5 22.5 22.5 22.5 23.5 24 0 23.5 24.5 25 0 26 26.5 27 27 27 0 26.5 27 27.5 28.5 29 29.5 0 0 0 0 0 30 30.5 31 31.5 32.5 33 33.5 0 33 33.5 34 34.5 35 0 0 0 0 35 35.5 36 0 36 0 36.5 37 37.5 38 39.5333 39.5333 39 39 39.5 40 0 41 41.5 0 41 41.5 42 42.5 43 43.5 0 0 0 45.1667 45.1667 0 44 44.5 45 45.5 46 47.5 47.5 47 0 0 0 49 0 48.5 49 49.5 50 50.5 0 0 50.5 51 51 0 50.5 0 0 0 0 53 53.5 54 54 0 55 55.5 56 0 55.5 57 57.5 58 0 57 57 57 57 0 58 58.5 59 59 0 0 0 61 0 61.5 62 62.5 0 61.5 62 64 0 63 0 0 64.5 65 0 0 0 66 66.5 0 67 67 67 67 0 0 0 0 0 0 0 92.4286 0 0 65.8377 65.8377 61.3667 61.3667 0 0 0 78.3 78.3 78.3 41.75 48.125 23.3077 23.3077 80.6154 54.0408 0 49.5652 66.9286 0 39.9643 72.0895 44.5308 81.9891 -65.5625 41.75 66.9643 66.9643 55.8428 55.8428 71.9721 77.4625 77.4625 77.4625 80.6154 80.6154 44.5308 55.9598 56.1432 58.6999 58.6999 0 69.7826 69.7826 -12.4425 -12.4425 54.3162 54.3162 5.4293 5.4293 5.4293 5.4293 69.3793 37 70.0286 70.0286 54 54 54 70.0286 0 0 77.6818 -138.5 74.2849 74.2849 0 59.1 56.1432 56.1432 55.9598 -44.6014 -44.6014 5.4293 5.4293 0 56.1432 56.1432 48.6596 48.6596 48.6596 -70.318 -70.318 0 61.4211 61.4211 61.4211 61.4211 61.4211 61.4211 73.9883 74.2849 39.9643 0 0 0 0 28.5 0 0 0 -38 0 0 -38 0 -40.1667 0 0 0 -42.9 23.1351 23.1351 0 0 0 0 23.5333 35 0 0 -1.5 -68.8333 30.5 30.5 30.5 33.5 33.5 29 0 0 0 27 0 28 29 0 0 29.6667 22 31.5714 0 0 27.6667 33 33 31.5714 26.8667 0 0 0 0 24 0 0 0 27.25 28 0 25 0 0 23.9286 23.9286 23.9286 25 25 24 24 24 0 0 24 23.6667 23 24.5 0 0 0 0 28.5 0 24 28.5 26 26 28.5 0 28 27.5 0 28.5 0 0 24.6 0 28.5 29 0 0 0 27.5 0 28.5 0 31.3333 31.3333 0 26.6667 0 0 0 0 0 0 0 0 0 0 0 0 31.1 0 0 35.5 0 0 30 0 0 0 0 26 24.5 0 0 0 0 0 35 0 0 38 34.5 34.5 34.5 0 0 0 34 34 34 0 0 0 0 0 0 0 45 0 0 0 0 49.8333 49.8333 49 0 0 0 0 0 54.5 54.5 0 0 0 67 68 0 0 0 0 0 0 0 0 0 0 0 0 0 0 0 0 0 0 0 0 0 0 0 0 0 0 0 0 0 0 0 0 0 0 0 0 0 0 0 0 0 0 -48.7669 -44.6644 -276.698 -262.243 0 -18.3 0 0 0 0 0 0 -227.751 -241.051 -188.525 -47.5269 -38.6429 0 0 -227.751 -275.67 0 -209.569 0 0 -241.051 0 0 -188.525 0 0 0 0 -47.5269 0 0 0 0 0 0 0 -145.688 -257.09 0 0 -256.754 -209.569 -188.525 -188.525 0 0 0 0 0 0 0 0 0 0 0 0 0 0 0 -48.7669 0 0 0 -188.525 0 0 0 0 -282.983 0 0 0 0 0 -282.486 0 0 88.8261 0 0 0 -282.983 -282.983 -118.5 0 0 -50.5288 -276.698 -276.698 -241.051 -282.983 -282.983 0 0 -211.029 -211.029 0 0 0 0 0 0 0 0 -18.3684 0 0 -281.962 0 -44.6644 -44.6644 -44.6644 0 0 0 88.8261 -162.917 0 0 0 0 0 0 -48.7669 -262.243 0 -42.9 -50.5288 -24.0645 -230.113 -129.682 0 0
18.5 19 19.5 20 20 20 20.5 0 0 0 0 20.5 21.5 22 22.5 23 23 23 23.5 24 0 23.5 24.5 25 25.5 0 27 27 27 27 0 26.5 27.5 28 28.5 29 29.5 30.5 30.5 31.5 0 0 0 0 0 0 32 32 0 32.5 33 33.5 34 34.5 35 35 35 35.5 0 0 0 0 0 0 0 36.5 37 37.5 38.3333 39.5333 39.5333 39.5333 39 39.5 40 0 41 41.5 0 41 41.5 42 42.5 43 43.5 0 44 44 0 0 0 0 0 45 45.5 46 46.5 47 47 46.5 48 48.5 0 0 0 0 0 50 0 0 0 49 51 51 0 50.5 52.5 53 0 52.5 53 53.5 54 54 0 0 55.5 56 0 55.5 57 0 0 0 0 0 0 58.6667 0 58 58.5 59 59.3333 0 60 60.5 0 0 0 0 62.5 0 62 62 64 0 63 65 0 64.5 65 65 0 0 66 66.5 67 67 67 67 67 0 0 0 0 0 0 0 66 55.2591 54.0621 65.8377 65.8377 68.0326 0 0 0 34.75 58.8788 58.8788 51.7263 51.7263 62.7991 58.6999 71.0682 54.0408 44.5962 49.5652 56.1432 72.0895 77.6818 61.4624 72.0895 52.5762 73.0452 -83.0917 55.5985 60.792 66.9643 55.8428 55.8428 71.9721 76.6 77.4625 77.4625 39.9643 39.9643 0 44.5308 55.9598 55.9598 0 0 69.7826 68.0326 -12.4425 5.4293 5.4293 5.4293 5.4293 -21.0556 5.4293 52.7132 52.5762 60.9343 62.4048 0 71.8323 65.8377 57.2683 57.2683 0 0 0 0 43.1667 62.7991 77.6818 71.2456 83.4667 41.4348 41.4348 0 -44.6014 5.4293 5.4293 -209.569 56.1432 56.1432 48.6596 0 0 -70.318 -58.8511 -58.8511 0 11.5882 -20.5507 -20.5507 21.6667 73.9883 74.2849 0 0 0 0 0 0 0 -245 0 0 0 0 0 0 0 0 -4.5 23.1351 -45.25 -45.25 23.1351 23.1351 23.1351 23.1351 56.3571 0 0 0 0 0 0 -68.8333 -68.8333 0 0 32.3333 32.3333 32.3333 0 30.5 30.5 30.5 26 26 26 26.5 27 0 0 0 0 31.5714 27.1667 31.5714 27.1667 33 27.1 27.1 0 27.6 27.6 27.6 24 0 26.8667 27.25 28 27.25 27.25 0 28.5 0 26.5 23 25 25 25 25 25 0 24 24 23.6667 23.6667 24.5 25.5 0 28.5 26 0 30 26 26 26 25 28.5 0 0 24.5 0 24.5 24 24 0 0 29 31 27 28.5 27 31 0 0 0 0 0 28 0 0 0 0 0 0 0 0 0 0 0 0 33 0 0 31.3333 35.5 33 29.8333 29.8333 0 0 0 0 27.6667 0 32 0 0 0 0 0 0 35 0 0 0 34.6667 37 0 0 0 0 0 42 0 0 0 33.5 0 41.5 41.5 0 0 0 0 0 50 50 50 0 0 0 54 54.5 0 0 0 0 0 0 0 0 0 0 0 0 0 0 0 0 0 0 0 0 0 0 0 0 0 0 0 0 0 0 0 0 0 0 0 0 0 0 0 0 0 0 0 -107.5 0 -270.111 0 0 -22.6471 0 0 0 0 48 0 0 0 0 0 0 0 -267.946 -188.525 -275.67 -275.67 0 0 0 -165.46 -275.67 -275.67 -209.569 0 -241.051 0 0 -188.525 -188.525 0 0 0 0 0 0 0 0 0 0 0 -145.688 -257.09 0 0 17.8482 -209.569 0 0 -48.7669 -48.7669 0 0 0 -3.23529 0 -27.2292 0 -282.983 -204.8 0 0 -47.5269 0 -241.051 -241.051 -282.983 0 -188.525 -188.525 0 0 0 0 -272.738 -272.738 0 0 -282.486 -256.754 -256.754 -256.754 -23.75 -48.7669 -266.709 -266.709 -281.962 17.8482 0 -14.8182 0 0 -282.983 -282.983 -282.983 -282.983 -282.983 0 0 0 0 0 0 0 -31.9143 0 -162.578 -47.5269 -86.8407 0 -186.762 -272.738 0 -125.634 -282.983 -282.983 -282.983 -48.7669 -48.7669 0 0 -200.983 0 0 0 -209.569 -282.983 -161.039 0 0 -30.3585 0 0 -188.525 0 -48.7669 0 0
18.5 19 19.5 20 20 20 20 20 20.5 0 0 0 22.5 22.5 22 22 22.5 23 23.5 24 0 23.5 24.5 25 25.5 26.5 0 0 0 0 0 0 27.5 28 28.5 29 29.5 30.5 31 31.5 0 0 29.5 29.5 31.3333 31.6667 0 0 0 0 0 33.5 34.3333 34.6667 35 35 35 0 0 0 0 0 0 0 0 36.5 37 37.5 38.3333 39.5 39.5 39.5 39 39.5 40 40.5 0 41.5 0 41 41.5 42 42.5 43 43.5 0 43.5 43.5 45 45 45 0 44.5 0 45.5 46 46.5 47 0 47 47 49 0 48 48.5 49 49.5 0 0 0 0 50.5 51 51.5 0 51 51 53 53.5 0 53 53.5 0 0 0 55 55.5 56 0 55.5 56 57.6667 58 0 0 56.5 57 0 0 0 58.5 59 59.5 60 60 60.5 61 0 61.5 62 0 0 0 62 64 0 63.5 64 0 64.5 65 65 65.5 66 66.5 67 84.8 84.8 0 56.8333 0 51.5 0 0 0 0 0 0 0 0 0 66.2754 66.2754 0 0 35 34.75 0 0 58.8788 41.4348 0 0 72.5625 43.1667 58.6999 16.425 16.425 45.8333 66.9643 66.9643 52.5762 52.5762 60.3676 71.9721 55.8428 74.2342 74.2342 52.5762 58.6999 73.9883 60.3676 52.5762 52.5762 52.5762 65.3959 44.5308 52.5762 60.3676 52.5762 55.9598 55.9598 55.8428 52.5762 52.5762 88.6857 60.6667 74.2849 74.2849 0 0 0 0 62.7333 62.7333 0 0 52.5762 52.5762 52.5762 0 52.5762 52.5762 52.5762 0 -44.6014 -77.535 0 0 -58.8511 -14.8182 0 52.5762 52.5762 52.5762 52.5762 52.5762 52.5762 52.5762 52.5762 52.5762 52.5762 52.5762 -129.682 0 0 0 0 0 -129.682 0 0 -44.6644 0 0 0 0 0 0 0 -252.321 0 0 0 0 0 0 66.9286 0 -45.25 -45.25 -45.25 -45.25 -45.25 23.1351 23.1351 0 0 0 32.5 32.5 0 0 0 0 31 31 0 0 0 28.5 0 31 31 28.8333 32.3333 0 33.5 33.5 0 25.8333 0 0 0 0 27.1667 31.5714 31.5714 29.6667 31.5714 0 22 22 22 21.5 0 26.8667 27.1 0 25.5 25.5 25.1667 0 0 0 0 25 0 0 0 26.5 0 23.3333 24 24 23.3333 0 0 25.2 25.2 32.5 29.5 28 23.5 0 24 25 0 25.5 0 0 24.5 0 0 29.3333 0 0 28.5 29.6667 29.6667 29.6667 29.6667 29 28 0 28 0 31.3333 0 0 0 0 0 0 0 0 0 0 0 0 0 28 0 31.3333 31.3333 0 0 29.8333 29.8333 0 29.5 37 0 27.6667 27.6667 31.5 31.5 0 30 0 0 32.5 32 0 0 0 0 0 0 0 0 0 0 0 0 0 0 0 0 0 42 0 0 0 0 0 49 0 49 54 0 54 52.5 53.5 53.5 58 0 0 65 0 0 0 0 0 0 0 0 0 0 0 0 0 0 0 0 0 0 0 0 0 0 0 0 0 0 0 0 0 0 0 0 0 0 0 0 -49.8493 0 0 0 0 0 0 0 -20.5507 -164.556 -20.5507 -20.5507 0 0 0 0 0 0 -24.1071 0 0 0 0 0 0 0 0 0 0 -129.682 -129.682 -100.938 0 0 0 0 0 0 -33.3968 -33.3968 0 0 0 0 -47.5269 -282.983 0 -48.7669 -23.75 0 0 -209.569 -145.688 0 0 0 0 0 0 0 0 0 0 0 -31.0556 -47.5269 0 0 0 0 -35.193 -35.193 -241.051 -86.8407 0 0 0 0 0 0 0 -200.983 -147.952 0 -145.688 0 -23.75 -256.754 0 0 -48.7669 -266.709 -281.962 -281.962 -209.569 0 0 -48.7669 0 -48.7669 -241.051 0 -48.7669 0 -276.698 -282.983 -145.688 -241.051 0 0 -272.738 -35.193 0 0 -211.029 0 -257.09 -161.039 0 0 -282.983 -282.983 -282.983 -282.983 -48.7669 -48.7669 0 0 0 0 0 0 -145.688 -47.5269 -281.962 0 -238.5 -238.5 0 -282.983 0 -257.09 -48.7669 0 0
18.5 19 19.5 20 20 20 20.5 21 21 0 20 20.5 21.5 0 0 0 0 23 23.5 24.5 25 0 24.5 25 25.5 26.5 25.3333 25.3333 26.7 26.7 25.3333 26.5 0 0 28.5 29.5 30 30.5 0 29.6667 29.8333 29.8333 29.5 29.5 31.5 32 0 0 0 0 0 33.5 34.3333 34.6667 35 35 35 0 34.5 35 35.5 36 36.5 0 0 0 37.5 38 38.5 39.5 39.5 39.5 0 39.5 40 40.5 41 0 0 0 0 42 42.5 43 0 42.5 43 43.5 43.5 44.5 45 0 44.5 45 0 0 0 0 0 46.5 48.5 49 0 48 48.5 49 49.5 50 50 50 0 50.5 51 51.5 0 51 51.5 53 0 52.5 53 53.5 54 54.5 0 0 0 56 56.5 0 56 58 57.5 57.5 0 56.5 57 57.5 58 58 0 0 0 60 0 60.5 61 0 62 62 0 61.5 62 62 0 0 63.5 64 0 64.5 65 65 0 66 66.5 66.5 66.5 66 0 61.25 0 0 56.4667 0 0 0 0 0 0 0 0 0 0 0 0 0 55.9598 63.5833 16.425 0 0 71.2456 0 69.3793 0 65.625 65.625 0 72.8333 72.8333 0 52.5762 52.5762 52.5762 60.792 91.53 74.2342 72.9995 51.9694 72.0895 72.0895 72.0895 73.9883 52.5762 52.5762 52.5762 60.3676 83.8405 81.9891 0 0 55.9598 55.9598 52.5762 52.5762 74.2849 74.2849 0 74.2849 0 0 56.6667 88.6857 0 0 52.5762 52.5762 55.9598 55.9598 52.5762 52.5762 0 79.5 60.792 52.5762 52.5762 -77.535 0 -1.93421 48.6596 48.6596 -282.983 52.5762 52.5762 52.5762 52.5762 52.5762 52.5762 52.5762 -129.682 -129.682 52.5762 52.5762 0 0 0 5.4293 52.5762 52.5762 -129.682 -129.682 -129.682 0 5.4293 0 52.5762 0 -230.113 0 0 20.4 0 0 0 0 0 0 65.625 0 0 23.1351 -45.25 -45.25 -45.25 -45.25 -45.25 -45.25 36 0 28 28 0 0 0 0 0 0 0 37.5 0 31 28.5 0 28.9615 28.8333 32.3333 32.3333 28 0 28.5 25.8333 25.8333 25.8333 25.8333 0 0 26 0 22 26 0 0 29.6667 0 0 27.1667 27.1 27.1 25 0 24.5 24 0 0 28 28 25.1667 0 0 0 0 0 0 0 23.3333 25.1429 25.5 25.5 25.1667 25.1667 25.2 25.1667 26.5 0 0 24 25 28 29.5 27 0 0 0 31 24.1667 24.5 29.3333 24.5 0 29.6667 0 0 0 27 0 29.6667 24.5 0 0 0 0 0 0 0 0 0 0 0 0 0 0 28.5 29 36.3333 29.8333 0 0 36.3333 0 0 0 0 0 0 0 31 31 31.5 31.5 31.5 0 31.5 31.5 27 0 0 0 34.5 33 0 0 42.3333 0 0 34.5 0 0 34.5 0 0 0 0 42.5 42.5 0 0 0 0 0 0 0 0 0 54.8333 54.8333 0 0 0 0 0 0 0 0 0 0 0 0 0 0 0 0 0 0 0 0 0 0 0 0 0 0 0 0 0 0 0 0 0 0 0 0 0 0 0 0 0 0 0 -47.5269 0 -162.578 20.75 -3.23529 -162.578 -20.5507 -164.556 -164.556 0 -164.556 0 -48.7669 0 -24.1071 -24.1071 -24.1071 0 0 0 0 -31.0556 -44.6644 0 -241.051 -282.983 0 0 -188.525 0 0 0 0 -188.525 -188.525 0 -33.3968 0 -47.5269 -47.5269 -282.983 -282.983 -47.5269 -47.5269 -47.5269 0 -86.8407 -257.09 -209.569 -209.569 -209.569 0 0 -282.983 -282.983 0 0 8.38597 0 0 0 -48.7669 -48.7669 0 0 -281.962 -35.193 34.717 -96.3071 -241.051 -48.7669 0 -282.983 0 0 0 -282.983 -266.709 -48.7669 -48.7669 -48.7669 0 0 0 0 0 0 -48.7669 -281.962 -281.962 0 0 0 0 0 -23.75 -23.75 0 0 0 0 -162.578 0 -209.569 -47.5269 0 -24.1071 0 0 -100.938 -188.525 -211.029 -275.67 -257.09 -165.46 -275.67 0 0 0 -282.983 -282.983 -86.8407 -48.7669 0 0 0 0 0 0 -145.688 -47.5269 -281.962 0 0 -238.5 -282.983 -257.09 -275.67 0 -145.688 0 0
18.5 18.5 18.5 18.5 19 19 21 21 21 21.3333 0 20.5 21.5 22 22 22 22.5 0 0 24.5 25 0 24.5 25.5 26 26.5 25.3333 25.3333 26.7 26.7 25.3333 27 27.5 28 0 29.5 30 30.5 0 29.6667 29.6667 29.8333 29.5 29.5 31.5 32 32.5 0 33 0 33 33.5 34.5 35 35 35 0 34 34.5 35 35.5 36 36.5 37.5 0 36.5 0 0 0 0 0 38 38 39.5 40 40.5 41 41.5 0 41 41.5 0 0 0 0 0 0 43 43 44.5 0 45 0 45 45.5 46 46.5 47 0 0 47 49 0 48.5 49 49.3333 49.6667 49.5 49.5 49.5 0 50.5 51 0 0 0 0 52 0 52.5 53 53.5 54 54.5 0 55 55.5 0 0 0 0 0 57.5 57.5 0 56.5 57 57.5 58 58 58.5 59 59.5 0 60 0 61 0 62 62 0 61.5 63 0 64 0 0 0 0 64.5 65 65 67 0 66 66 66 66 66.5 67 0 0 0 0 0 0 0 0 0 0 0 0 57.2683 52.5762 0 0 48.125 0 0 0 0 0 61.4624 72.0895 54.0408 54.0408 72.0895 39.9643 41.4348 41.4348 41.4348 70.0286 70.0286 56.1432 57.2683 57.2683 57.2683 87.9583 87.9583 77.4625 52.5762 60.792 55.9598 56.1432 56.1432 0 0 0 0 0 31.9358 60.9343 52.5762 67.5122 60.3676 -244.1 -276.698 54.3162 54.3162 55.9598 5.4293 -48.0571 0 69.6161 55.9598 55.9598 55.9598 52.5762 5.4293 -44.6014 49.8418 -44.6014 -44.6014 -44.6014 60.3676 0 69.3793 44.5308 0 -58.8511 -58.8511 28.5 28.5 -6.1 21.6667 0 0 52.5762 52.5762 52.5762 52.5762 60.3676 0 -244.894 -244.894 0 0 28.5 -58.8511 -58.8511 -19.6644 -19.6644 0 0 0 0 0 0 0 0 0 0 0 0 0 0 0 0 0 0 -45.25 0 0 0 -45.25 -45.25 11.3889 0 0 0 0 0 0 0 0 0 0 0 0 0 0 33.6667 28.9444 32.5 32.5 28.9444 28.8333 28 17 43.5 28.9615 28.9615 28.9615 16.5 21.25 21.25 21.25 25.8333 0 0 0 25.8333 0 0 26.5 0 25.6667 27.5 27.5 25.6667 25.5 0 0 0 0 0 24 25.3333 25.3333 0 23.5 0 25.25 25 25 0 26 0 0 0 0 0 25 25 25.5 25.5 27.5 0 0 0 0 0 0 0 26.3333 24.1667 0 0 0 0 0 0 0 26 0 0 22.5 22.5 0 0 0 0 0 0 0 0 0 0 0 0 0 0 29 29.8333 29.5 0 0 36.3333 27 0 33 0 0 38 31 33 0 0 0 38.3333 0 0 31 0 0 0 0 0 39.5 33 0 0 0 34 0 0 0 33.5 0 42.3333 42.3333 0 0 0 48.5 0 0 0 0 0 0 59 0 0 0 0 0 0 0 65 0 0 0 0 0 0 0 0 0 0 0 0 0 0 0 0 0 0 0 0 0 0 0 0 0 0 0 0 0 0 0 0 0 0 0 0 20.75 0 -86.8407 -20.5507 0 -31.0556 56.4 -162.578 -162.578 0 0 -164.556 -48.7669 -282.983 0 0 0 -270.111 -270.111 -47.5269 -47.5269 -27.2292 -27.2292 -31.0556 -31.0556 0 -282.983 8.38597 0 -50.5288 0 0 0 -282.983 -100.938 -188.525 -188.525 -188.525 -49.8493 -49.8493 -47.5269 -47.5269 0 -271.398 -276.698 0 0 0 -275.67 -275.67 -209.569 -209.569 0 0 -0.1 -209.569 -19.6644 -262.243 0 0 0 0 0 0 0 0 -38.6429 -229.985 -188.525 -96.3071 0 -241.051 -48.7669 0 0 0 0 0 0 0 0 0 0 0 0 0 0 -209.569 0 0 -281.962 -281.962 0 -48.7669 0 0 0 0 -282.486 -128 -128 -282.486 0 -169.939 -50.5288 17.8482 -18.3684 0 0 0 -281.962 0 0 -275.67 -282.983 -282.983 0 0 0 0 0 0 0 -275.67 0 -281.962 0 0 -282.983 0 0 -282.983 -48.7669 0 0 0 0 0 0 0 0 0 0 0
0 0 0 0 19 19 21 0 21 21 0 20.6667 21.5 21.6667 21.8333 21.8333 22.5 23 23.5 0 0 0 0 0 26 26.5 25.3333 25.3333 26.7 26.7 25.3333 27 27.5 28 0 0 0 0 0 29.5 29.5 29.5 29.5 29.5 31.5 32 32.5 0 33 0 33 33.5 34.5 0 0 0 0 34 34.5 35 35.5 36 36.5 37.5 0 37 37.5 38 38.5 38.5 38.5 0 0 0 40 40.5 41 41.5 0 41 41.5 42 42.5 43 0 42.5 42.5 42.5 0 0 0 45.2 0 45 45.5 46 46.5 47 0 46.5 48.5 0 49.5 0 49 49.5 50 50 50 50 0 50.5 51 51.5 0 51 51.3333 0 0 0 0 53.5 54 54.5 0 55.5 56 56 0 55.5 56 56 56 0 0 0 0 57.5 58 58 58.5 59 59.5 60 60 60.5 61 0 62 62 0 61.5 62 62.5 64 0 63.5 64 0 0 0 0 0 0 0 0 0 0 66.5 67 67 0 0 0 0 0 0 0 0 0 0 0 56.1432 51.9694 0 0 0 0 0 0 63.5833 58.6999 55.9598 55.9598 0 0 61.4624 41.4348 41.4348 39.9643 80.6154 71.2456 71.2456 71.2456 61.4624 0 0 0 0 57.2683 54.0621 41.4348 39.9643 22 22 0 0 55.9598 74.2342 -44.6014 5.4293 52.5762 52.5762 52.5762 60.3676 83.8405 55.9598 54.3162 56.1432 56.1432 55.9598 -77.535 0 52.5762 55.9598 55.9598 54.3162 -44.6014 -44.6014 5.4293 5.4293 52.7132 -44.6014 -44.6014 5.4293 52.5762 52.5762 0 52.5762 0 41.331 41.331 41.331 0 87.65 87.65 0 0 5.4293 52.5762 52.5762 52.5762 55.5985 90.8734 0 -20.5507 -164.556 0 0 0 0 0 0 0 0 0 0 21.6667 0 -6.1 0 0 0 0 0 -56 0 -68 0 0 0 0 0 0 11.3889 0 0 -32.8 0 0 -61 0 0 0 -61 0 0 0 0 0 0 0 26.5 -32.3333 -32.3333 26.5 29.6 31 0 21.8333 33.6667 28.9615 28.9615 28 28.9615 28.9615 28.9615 28.9615 28.9615 28.9615 24.4583 24.4583 0 0 26 26 27 29 0 31 30 0 0 25.6667 0 25.5 25 28.5 28.5 28.5 0 25.3333 23 0 26.5 26.5 25.5 25.5 0 25 25 25 26 26 0 24 0 0 0 23.5 24.5 27.5 25 25 0 0 0 24.5 24.5 24.5 25 0 0 28 0 24 22.8333 26.6 0 0 0 0 0 0 0 0 0 0 0 29 0 27 27 0 29.8333 0 38 27 27 0 23.5 0 0 33 33 0 0 38 0 37.3333 0 0 34.8333 34.8333 0 0 0 33.5 33 33 33 0 0 47.3333 0 39.5 0 0 0 0 37 37 37 0 0 0 0 0 0 0 55 57 57 57 56 0 0 0 65 0 0 0 0 0 0 0 0 0 0 0 0 0 0 0 0 0 0 0 0 0 0 0 0 0 0 0 0 0 0 0 0 0 0 0 0 0 0 0 -272.738 0 0 -15.25 -15.25 20.75 0 -125.634 -164.556 0 0 0 -130.429 0 0 -47.5269 -70.318 -47.5269 -31.0556 0 -31.0556 -31.0556 -47.5269 -47.5269 -282.983 -282.983 -209.569 -50.5288 -50.5288 0 0 -282.983 -100.938 -188.525 -188.525 -188.525 -49.8493 -49.8493 0 0 0 0 -276.698 -129.682 0 -47.5269 0 0 0 0 -130.429 0 -209.569 -145.688 -19.6644 -276.698 0 0 -91.4667 0 0 0 0 0 0 -275.67 -188.525 -241.051 -241.051 0 0 -25.1429 -30.3585 0 0 0 -282.983 0 0 0 0 0 0 0 -24.1071 0 0 -40 -281.962 -35.193 -282.983 -282.983 -244.894 0 0 0 0 0 -282.486 -282.486 0 0 0 0 0 0 -282.983 -266.709 -202.293 -48.7669 0 0 0 0 0 0 0 0 -276.698 -276.698 -275.67 -257.09 -266.709 0 0 0 -282.983 0 0 0 0 -244.894 0 0 0 0 -40.6364 0 -281.962 17.8482 0 0
18.5 19.5 19.5 19.5 0 0 0 0 20 20 0 21 21.5 21.6667 21.6667 21.8333 22.5 23 23.5 0 0 0 0 0 26 26.5 25.3333 25.3333 27 27 25.3333 27 27.5 28 28.5 29.5 30 30.5 0 29.3333 29.3333 29.5 30.5 31 31.5 32 32.5 0 32 32.5 33.5 34 34.5 34.5 34.5 34.5 35 0 34.5 35 35.5 36.6667 37 37.5 0 37 37.5 38 38.5 0 0 0 39 39.5 0 0 41 41.5 0 41 41.5 42 42.5 43 0 42.5 42.5 42.5 42.5 44.5 0 44 0 45 45.5 46 46.5 47 0 46.5 47 49 49.5 0 0 49.5 49.5 49.5 49.5 0 49 50.5 51 51.5 0 51 51.5 52 52.5 0 53 0 0 0 0 55.5 56 56 0 55.5 56 57.5 57.5 0 56.5 57 57 57.5 0 58.5 59 59 59.5 60 60.5 61 61 0 62 0 0 0 0 0 64 0 63.5 64 64 64.5 65 65.5 0 65.5 65.5 65.5 66 66 0 0 67.5 0 0 0 0 0 69 0 0 0 0 0 59.5714 0 0 0 0 0 76.6 76.6 72.0895 46.0476 16.425 55.9598 68.0326 68.0326 55.9598 55.9598 55.9598 58.8788 58.8788 52.5762 52.5762 52.5762 52.5762 52.5762 52.5762 55.9598 52.5762 57.2683 57.2683 54.0621 55.8428 0 0 52.5762 -44.6014 74.2342 74.2342 57.2683 54.0621 55.8428 52.5762 74.2342 52.5762 57.2683 52.5762 74.2342 57.2683 0 0 55.5985 59.1333 59.1333 55.8428 52.5762 52.5762 74.2342 74.2342 74.2342 51.9694 51.7263 0 52.5762 52.5762 52.5762 52.5762 5.4293 5.4293 5.4293 52.5762 52.5762 52.5762 52.5762 74.2342 74.2342 74.2342 74.2342 55.5985 52.5762 52.5762 52.5762 16.425 16.425 16.425 -281.962 -282.983 0 -162.578 0 -206 0 0 0 0 0 0 0 0 -6.1 -58.125 0 0 0 0 0 0 0 0 17.2222 0 0 0 0 0 0 0 -32.8 0 0 0 0 0 -66.7143 0 -66.7143 -66.7143 30 0 0 0 0 0 28.75 -28.5 26.5 29.6 30.5833 30.5833 29.6 27 25.4167 29.6 30.5833 30.5833 33.6667 21.8333 21.8333 25.3333 22.3333 22.3333 27.15 27.15 27.15 0 26 21.8333 27 0 0 0 12 25.8333 27 27 26.5 28 27.5 27.5 27.5 0 0 25.5 25 25.5 25.5 0 25.5 25.5 25.8333 27 0 0 0 0 24.3333 0 0 0 27 29 25.5 27.5 0 27 25.5 0 0 0 0 0 0 0 27.5 24.5 24.5 26 22.8333 30 0 0 0 0 0 0 0 0 0 0 0 28.5 28.5 28.5 0 29.8333 29.8333 0 29.8333 29.8333 30 0 0 0 29.1667 29.1667 0 0 0 0 0 37.3333 37.3333 37.3333 32.25 0 33.0667 0 0 0 0 33.5 0 0 0 39.3333 0 0 0 35 0 0 0 0 0 40.5 0 0 49 0 0 0 57.3333 57.3333 58 0 57.5 57.5 0 0 0 66 0 0 0 0 0 0 0 0 0 0 0 0 0 0 0 0 0 0 0 0 0 0 0 0 0 0 0 0 0 0 0 0 0 0 0 -49.8493 -165.46 -169.939 -23.6782 0 64 0 0 0 0 0 -256.754 -256.754 -145.688 0 0 0 -48.7669 -48.7669 -44.6644 0 0 0 -48.7669 -48.7669 -47.5269 0 0 -209.569 -50.5288 0 -241.051 -241.051 -282.983 -188.525 -188.525 0 0 0 0 0 0 -47.5269 0 -276.698 0 0 -47.5269 0 -257.09 0 0 -130.429 -130.429 0 -282.983 0 0 -47.5269 0 0 0 0 -281.962 -209.569 -282.486 0 -275.67 0 0 0 0 0 0 0 -50.5288 -282.983 -256.754 -282.983 0 0 0 0 0 0 0 -241.051 0 -209.569 -281.962 0 0 -282.983 -282.983 -282.983 0 0 0 0 -145.688 -145.688 -145.688 0 -188.525 -241.051 -241.051 0 -48.7669 -282.983 -282.983 -44.6644 -282.983 -282.983 -282.983 -24.1071 -24.1071 -280.059 0 0 -164.556 -276.698 -276.698 -276.698 -282.983 -241.051 -266.709 0 0 0 -282.983 0 0 0 -244.894 0 0 0 -96.3071 -267.946 -267.946 -229.985 0 0 0
18.5 19.5 19.5 19.5 0 0 0 0 20 20 0 21 21.5 22 22 22 22.5 23 23.5 24.5 0 24 24.5 25.5 0 0 0 26 27 27 0 27 27.5 28 28.5 29.5 30 30.5 0 0 29.3333 0 0 0 31.5 32 32.5 0 32.3333 32.6667 33.5 34 34.5 34.5 34.5 34.5 0 0 0 0 0 0 0 0 37.5 37.5 37.5 38 38 38 0 0 37.5 39.5 40 40.5 0 0 0 41.5 42 42.5 43 43.5 44 0 44 44 44 45 45.5 44 0 0 45.5 46 46.5 47 0 46.5 47 49 49.5 0 49 0 0 0 0 0 0 51 51 51.5 0 51 53 53.5 54 0 53 53.5 54 54.5 0 0 56 56 0 55.5 55.5 55.5 57 0 56.5 57 57 57.5 0 0 0 59 59.5 60 60.5 61 61 0 62 62.5 0 61.5 62 62.5 0 0 0 0 0 65 65 65.5 0 65 65 65.5 66 66 66.5 68 67.5 0 68 0 0 0 0 0 0 0 0 0 77.4625 71.9721 0 0 61.2647 0 0 58.8788 78.3 -0.511111 63.5833 66.9643 66.9643 66.9643 55.9598 75.4337 60.3676 60.3676 60.3676 52.5762 52.5762 0 0 52.5762 52.5762 0 0 57.2683 57.2683 0 0 71.9721 73.9883 60.3676 74.2342 60.3676 0 57.2683 55.8428 55.8428 52.5762 55.9598 55.9598 52.5762 52.5762 74.2342 0 0 0 65.3959 74.2342 65.3959 52.5762 52.5762 88.84 88.84 0 74.2342 52.5762 51.9694 52.5762 52.5762 52.5762 52.5762 52.5762 52.5762 52.5762 5.4293 5.4293 5.4293 -44.6014 74.2342 74.2342 52.5762 52.5762 52.5762 52.5762 52.5762 -129.682 78.5116 0 16.425 55.9598 52.5762 -147.952 -129.682 -58.8511 0 0 0 0 0 0 0 0 0 0 0 0 0 0 0 0 63.5833 0 0 0 0 0 0 0 0 0 0 0 0 0 0 0 0 0 0 0 0 0 0 0 67.25 67.25 67.25 -7 0 0 0 27.6667 28.5 31 30.5833 30.5833 25.4167 25.4167 29.6 30.5833 22.1667 30.5833 0 22.1667 30.5833 21.8333 28.5 28 27.15 27.15 0 25.5 25.5 0 0 0 16.5 21.25 24.4583 21.8333 21.8333 25.6 25.6 25.6 0 25.6 25.6 24 25.5 25.5 0 25.5 25.5 25.8333 25.8333 27 0 26 26 28 30.1667 30.1667 27.5 27.5 28.6667 29.75 29.75 29.75 24 0 0 29.75 27.5 0 0 0 0 0 0 25.3333 29.5 22.5 0 0 0 0 0 0 0 0 0 0 0 28.5 28.5 28.5 28.5 28 30 36.5 30.5 36.3333 27 0 0 0 0 0 0 0 33 0 0 0 0 38.5 32.6667 0 32.6667 35 0 0 0 0 37.3333 33.0667 0 0 0 0 38 0 36 0 40.5 40.5 0 39.3333 39.3333 41 0 0 0 0 0 0 0 57.3333 0 0 0 0 0 61 0 0 0 0 0 0 0 0 0 0 0 0 0 0 0 0 0 0 0 0 0 0 0 0 0 0 0 0 0 0 0 0 0 0 0 0 0 0 0.375 -15.25 0 0 0 -22.6471 0 0 0 0 -282.486 0 -282.983 0 0 0 -48.7669 -48.7669 -31.0556 -31.0556 -47.5269 0 0 -282.983 0 0 0 -70.318 -121.893 0 0 -241.051 -282.983 -188.525 -188.525 0 0 -47.5269 -47.5269 0 0 -48.7669 -48.7669 -282.983 -282.983 -48.7669 -48.7669 -86.8407 -257.09 0 0 -130.429 -130.429 -23.6782 -282.983 -282.983 0 0 0 0 -70.318 -34.1633 0 -209.569 -282.486 0 -257.09 0 0 0 0 -204.8 0 -129.682 0 0 0 0 0 0 -30.2134 0 -282.486 -70.318 0 0 0 -209.569 -70.318 0 0 -241.051 -282.983 -282.983 0 0 0 0 0 0 -282.983 0 -35.193 -188.525 -270.111 0 0 -282.983 -282.983 -44.6644 0 0 -24.1071 0 0 0 0 -241.051 -164.556 -20.5507 -162.578 -227.751 0 -48.7669 0 0 0 0 -282.983 -48.7669 -145.688 0 -282.983 -282.983 -257.09 -275.67 -211.029 0 -267.946 -281.962 -259.778 0 0
18.5 19 19 19 19.5 20.5 21 0 0 0 0 21 21.5 22 22 22 22.5 23.5 24 24.5 0 24 24.5 25.5 26 0 0 0 0 0 0 27 27.5 28.5 29 29.5 30 30.5 0 0 29 29.5 30.5 31 0 0 0 0 0 33 33.5 34 34 34 34 34.5 0 34 34.5 35.5 36 36.3333 0 36 0 0 0 38 39 39 39 38 38 39.5 40.5 41 41.5 42 0 0 42 42.5 44 44 43 43 43 43.5 43.5 45 0 44.5 0 45 0 0 0 0 0 46.5 48.5 49 0 48.5 49 49 49 49 49.5 0 50.5 0 0 0 0 0 53 53.5 54 0 53.5 54 54 54.5 55 55.5 56 56.5 0 56 55.5 55.5 55.5 0 56.5 57 57 57.5 0 58.5 59 0 0 0 60.5 61 0 61.3333 62 62.5 0 62 62 62.5 64 0 63.5 64 0 0 0 65 65 0 65 65.5 66 66.5 0 66 72.75 0 0 0 0 0 0 0 0 0 0 -26.4538 55.7632 53.9498 71.9721 55.7632 58.6999 0 58.8788 9.71429 0 0 16.425 68.2857 0 66.9643 0 57.2683 73.9883 73.9883 73.9883 58.6999 0 0 0 43.1667 43.1667 60.6667 56.6667 52.5762 52.5762 52.5762 55.8428 62.7991 74.2849 73.9883 52.5762 52.7813 52.7813 60.3676 52.5762 52.5762 52.5762 68.0326 68.0326 0 0 62.4048 0 0 41.331 0 -79.5826 -79.5826 -44.6014 5.4293 65.3959 65.3959 74.2342 52.5762 5.4293 5.4293 5.4293 -44.6014 -44.6014 5.4293 73.0452 80.7875 80.7875 72.0895 -44.6014 -44.6014 -44.6014 -282.983 0 52.5762 52.5762 52.5762 5.4293 5.4293 5.4293 0 -47.5269 0 0 0 0 0 0 0 0 0 0 0 0 -48.5 0 0 0 0 0 0 0 0 0 0 0 0 0 0 0 -42.9 0 0 -42.9 0 0 0 0 0 0 0 0 0 0 -66.7143 0 -24 -24 27.5 28 28 28 0 22.5 24.5 27 0 29 27.9 30.5833 0 0 27.8667 27.8667 27.6667 27.6667 24 27.8667 27.8667 30.5833 30.5833 0 29.3333 0 0 0 30.5 0 37.5 17 28.9615 22.3333 0 0 21.8333 27.25 29 27.25 0 27.25 27.25 25 25 24 0 25.5 25.5 26 26 26 0 26 28 0 0 29 25.8 25.8 25.8 0 27 26.6667 0 0 0 0 0 26.5 26.5 0 26.5 26.5 25.3333 25.3333 25.5 24.5 22 26.5 0 29 29 0 0 0 28.5 0 28 0 28.5 27 0 28 0 36.75 0 36.3333 31.5 31.5 0 34.3333 31.3333 36.3333 29 27 29.8333 0 32 0 0 0 38.5 37.6667 32.6667 35 0 36.8333 0 0 0 0 0 0 33.0667 0 0 0 37 0 0 0 0 0 0 40 0 0 0 0 0 0 45.5 0 58 0 0 0 63.1667 63.1667 0 66 0 0 0 0 0 0 0 0 0 0 0 0 0 0 0 0 0 0 0 0 0 0 0 0 0 0 0 0 0 0 0 0 0 0 0 -23.6782 0 0 0 0 0 0 0 -184.333 0 -24.1071 -188.525 0 -276.698 -162.578 -271.398 -27.2292 -48.7669 -48.7669 -31.0556 -31.0556 -31.0556 -31.0556 -31.0556 -50.5288 -50.5288 -50.5288 -44.6644 -70.318 -121.893 -257.903 -282.983 0 0 -100.938 0 0 0 -47.5269 0 -25.1429 -25.1429 -282.983 -282.983 -282.983 -282.983 -48.7669 -47.5269 -86.8407 0 0 0 0 0 17.8482 -282.983 -282.983 0 0 0 0 -70.318 0 0 -145.688 0 0 0 -282.983 0 0 0 0 0 0 -16.3385 0 0 0 -31.9143 -1.46154 0 0 0 0 -162.578 0 0 -209.569 -209.569 0 0 -31.9143 -96.3071 0 0 0 -145.688 -209.569 -47.5269 0 -50.5288 0 0 0 0 0 0 -40.6364 -282.983 0 -257.09 0 0 0 -70.318 0 -282.983 -282.983 0 -20.5507 -271.398 0 0 0 0 0 0 0 0 0 -209.569 0 0 0 -11.625 -257.09 -161.039 0 0 0 0 0 0
18.5 19 19 19 19.5 20.5 21 21.6667 0 20.8333 20.8333 0 0 22 22 22 22.5 23.5 24 24.5 0 24.3333 24.6667 25.5 26 26 26 27.6 26.1667 26.1667 0 0 0 0 29 29.5 30 0 29 29 29.3333 29.6667 30.5 31 31.5 32 0 31.5 32.5 0 0 0 35.5 35.5 35 34 0 34.5 35 35.5 36 36.5 36.5 36.5 37.5 37.5 0 0 39.5 39.5 0 38.5 39.5 40 40.5 41 41.5 42 0 41.5 42 0 0 0 0 0 0 44 44.5 45 0 44.5 45 45.5 46 46.5 47 47 0 0 0 0 0 48.5 49 49 49 49 0 50 50.5 51 51 0 50.5 52.5 0 0 54 0 53.6667 54 54.3333 54.6667 55 55.5 56 56.5 0 55.5 55.5 0 0 0 0 57 57.5 59 0 58.5 59 59.3333 59.6667 60 0 0 0 0 0 62.5 0 62 62 62.5 64.5 0 64 65.5 0 65 65 0 0 0 65.5 0 66 66.5 67 0 0 0 0 0 70 0 0 0 0 0 0 24.4 65.8377 -19.6538 0 77.4625 58.6999 58.6999 55.9598 41.331 44.5308 55.9598 16.425 58.6999 56.1432 72.0895 60.9343 52.5762 60.3676 62.7991 62.7991 58.6999 58.6999 0 66.9643 66.9643 60.792 60.792 60.792 60.792 52.5762 52.5762 52.5762 74.2849 87.0317 0 69.3793 52.7813 52.7813 60.3676 52.5762 52.5762 55.9598 55.9598 55.9598 58.6999 80.6154 0 0 56.1432 56.1432 52.5762 52.4123 0 -44.6014 5.4293 52.5762 0 0 55.9598 5.4293 5.4293 -44.6014 -44.6014 -44.6014 73.0452 80.7875 61.4211 72.0895 72.0895 5.4293 5.4293 -44.6014 0 5.4293 52.5762 52.5762 52.5762 5.4293 5.4293 5.4293 -44.6014 -282.983 -130.429 0 0 54.3162 44.5308 -55.4 0 0 0 0 -183.2 -19.6644 0 0 0 57.2683 0 0 0 0 0 0 0 0 0 0 0 -42.9 -42.9 -42.9 0 32.9 32.9 0 -66.7143 -66.7143 0 32.9 0 0 0 0 -66.7143 74 27 27 27.5 28 28 28 0 0 31.5 0 0 27.9 27.9 27.9 27.9 0 0 0 0 30 30 24.5 21.3333 27.8667 18.3333 28.4667 28.5 29.6 0 24.5 0 23.75 29.6 0 22.1667 0 0 25.3333 23 23 23 23 25 25 0 0 0 0 24 26 26 26.5 26.5 27 26.5 26.5 0 27 25.8333 24.5 27 25.8 25.8 24 27 0 29 24 26.6667 26.6667 26.5 26 26.5 26.5 0 25.5 27 0 27.3333 25 22 27.3333 0 27 29 0 0 0 0 0 0 28 0 0 28 28 0 0 36 0 33.75 33.75 34.3333 34.3333 36 0 26.8333 26.8333 30.5 0 0 0 34 0 35.5 35.5 33.625 35 38 35.75 36.8333 38.5 36.8333 36.8333 36.8333 36.8333 35.75 0 0 37.6667 37.6667 0 0 32 0 38.5 0 0 0 0 42 42 43 0 45 0 58 55 0 0 0 0 0 0 0 0 0 0 0 0 0 0 0 0 0 0 0 0 0 0 0 0 0 0 0 0 0 0 0 0 0 0 0 0 0 0 0 0 0 6.5 0 0 -47.5269 0 0 0 0 -27.2292 0 0 0 0 -276.698 0 -5.4 0 0 0 -44.6644 -27.2292 -27.2292 -27.2292 -27.2292 -44.6644 0 0 -188.525 -270.111 0 0 -188.525 0 -47.5269 0 0 0 0 -282.486 0 0 -30.3585 0 0 0 -47.5269 -47.5269 0 56.4 -20.913 0 0 0 0 0 0 0 0 0 0 0 -270.111 0 0 0 0 0 0 -188.525 -47.5269 0 0 -42.1852 -16.3385 0 -129.682 -282.983 -50.5288 0 17.8482 0 0 -44.6644 -44.6644 0 0 0 -27.2727 -209.569 -209.569 -188.525 -35.193 -267.946 -282.983 0 0 0 -125.634 0.666667 0 -47.5269 0 0 0 0 -275.67 -275.67 0 0 0 0 -40.6364 -58.1 -256.754 -275.67 -275.67 -282.983 -257.09 -275.67 -211.029 -86.8407 -48.7669 -48.7669 -241.051 0 -239.579 41.5 0 -202.293 0 0 -256.754 -96.3071 0 0 0 0 -54 -272.071 -275.67 -209.569 -14.8182 0 0
19 19 19 19.5 20 20.5 20.8333 20.8333 0 21 20.8333 21 21 21 0 0 22.5 23.5 24 24.5 0 24.5 25 25.5 25.5 25.5 25.5 27.6 26.5 26.5 0 27 27.5 28.5 0 0 0 0 0 0 29.5 30 30.5 31 31.5 0 31.5 32 32.5 33 33.5 34 34 34 0 35 0 34.5 35 35.5 36 36.5 36.5 36.5 36.5 37 37.5 39 39 0 0 0 39.5 40 40.5 41 41.5 42 0 41.5 42 42.5 44.5 0 43 43 43 0 0 45 0 44.5 45 45.5 46 46.5 47 0 47.5 47.5 48.5 0 48 0 0 0 0 0 49.5 50 50.5 51 51.5 0 51 51 53 53.5 0 0 0 0 54.5 0 55 55.5 56 56.5 0 0 55 57 57 0 56.5 0 0 0 0 58.5 59 59.5 0 0 60.5 61 0 62 62 0 0 0 0 0 0 0 64 65.5 0 65 64.5 64.5 0 65 65.5 66 66 0 67 0 0 0 0 0 67.5 0 0 0 0 0 0 83.8917 77.7744 -26.4538 0 80.6154 58.8788 58.8788 55.8428 52.5762 55.9598 16.425 16.425 58.6999 55.9598 58.6999 55.9598 60.3676 60.3676 52.5762 52.5762 0 0 0 74.2342 52.5762 55.9598 58.6999 0 73.9883 60.792 60.792 60.792 52.5762 62.7991 88.84 88.84 60.3676 52.5762 52.5762 60.9343 60.9343 52.5762 52.5762 55.9598 55.9598 73.9883 60.3676 52.5762 57.2683 57.2683 74.2342 52.5762 52.5762 52.5762 52.5762 52.5762 -12.4425 87.5833 55.9598 52.5762 52.5762 74.2342 52.5762 52.5762 52.5762 52.5762 52.5762 52.5762 52.5762 0 72.0895 55.8428 52.5762 52.5762 52.5762 52.5762 52.5762 52.5762 52.5762 71.2456 71.2456 71.2456 0 43.2941 0 79.1909 0 5.4293 5.4293 5.4293 5.4293 5.4293 73.0452 -235.978 0 0 -129.682 -209.569 -53.5985 0 0 0 0 0 -40.1667 0 -40.1667 -40.1667 0 -40.1667 -42.9 0 0 28.35 0 28.35 0 0 32.9 32.9 0 0 0 0 0 74 0 27 28.5 28.5 28 28 0 0 27 0 0 31.6667 24.25 27.9 27.9 27.9 22.5 33 27.9 0 0 27 27 20 26.3333 24.5 18.3333 21.3333 21.3333 24 24.5 29.5 35.1667 35.1667 24.5 35.1667 15.6667 0 29.8333 0 0 29.8333 23 25 29.3333 27.5 27.5 27.5 0 0 0 27.5 27.5 0 0 0 0 28.5 28.5 0 0 25.8333 28 0 29 29 25.5 27 27 27 0 0 0 0 0 26.5 26.5 0 27.3333 25 25 27.3333 23 0 27 29 0 28.5 0 28 29 28 0 0 29.5 30 29.5 29.5 29 29.5 31 0 33.2 0 28.5 28.5 28.5 26.8333 29 0 31 32.5 0 32 32 33.8333 37 28.5 37.3333 35.75 0 0 35.5 0 0 0 0 0 0 0 0 0 0 0 38 0 0 0 0 0 42 0 0 0 0 46 0 0 58.5 58.5 63 0 0 0 0 0 0 0 0 0 0 0 0 0 0 0 0 0 0 0 0 0 0 0 0 0 0 0 0 0 0 0 0 0 0 0 0 0 0 -22.6471 0 -25.4167 -27.2292 0 -277.688 0 0 0 -10.8 0 0 -139.951 -235.978 -270.111 -202.214 -162.578 0 -44.6644 -209.569 -14.8182 3.8 0 0 -282.983 -50.5288 0 -20.9 53.7333 -50.5288 0 0 -47.5269 -47.5269 -47.5269 0 -282.983 -257.09 -282.983 -282.983 0 -188.525 0 0 -282.983 0 -47.5269 -31.9143 0 0 -50.5288 -47.5269 -27.2292 -282.983 0 0 0 18 0 0 0 -47.5269 0 -86.8407 -24.0645 0 0 -35.193 -35.193 -40 0 -282.486 -50.5288 0 0 -16.3385 0 0 0 -209.569 -266.709 -241.051 -0.1 -44.6644 0 -282.983 -282.983 0 -188.525 0 0 0 0 -145.688 12.1765 0 0 0 0 -275.67 0 0 -41.4 -41.4 0 -211.029 -211.029 0 0 0 0 0 -24.1071 0 0 -275.67 -257.09 -86.8407 31.3556 -86.8407 -86.8407 -48.7669 -282.983 -282.983 0 0 0 -201.417 0 0 0 -282.486 0 0 -266.709 -16.3385 -230.113 -14.8333 -11.625 -275.67 -275.67 -70.318 0 0
19 19 19 19.5 20 20.5 21 21 21 21.5 21 21 21 21 21.5 22 0 0 0 0 0 0 0 25.5 25.5 25.5 25.5 26.5 26.5 26.5 26.5 27 27.5 28.5 29 29.5 30 0 0 28.5 0 30 30.5 31 31.5 32.5 0 32 32.5 33 33.5 33.5 33.5 33.5 34.5 0 0 0 35 35.5 36 36.5 0 36 36.5 37 37.5 39 39 39.5 0 39 0 0 0 0 0 0 41 41.5 42 42.5 44.5 0 43 43 43 44 44.5 0 0 0 0 0 46 46.5 0 0 48 48.5 49 0 48.3333 48.6667 49.5 49.5 49.5 49 49.5 0 50.5 51 51.5 0 51 51.5 53 0 52.5 53 53.3333 54 0 0 0 55.5 56 0 55 55 55 57 57 0 56.5 58.5 59 59 0 0 0 59.5 0 0 60.5 61 0 62 62 62.5 0 63 63 0 0 63.5 0 65.5 0 64.5 64.5 64 0 65 65.5 66 66 66.5 9 0 0 76.6667 68 0 0 0 0 71.5 83.8917 0 0 57.2515 0 0 0 0 0 58.8788 71.9721 52.5762 19.9556 0 0 0 0 0 58.6999 58.6999 0 58.6999 0 0 0 0 74.2342 58.6999 58.6999 62.4048 0 76.5 0 60.792 60.792 52.5762 52.5762 55.8428 0 52.5762 52.5762 52.5762 74.2342 72.9995 74.2342 52.5762 52.5762 52.5762 60.3676 65.3959 52.5762 52.5762 74.2342 0 52.5762 60.3676 0 52.5762 -44.6014 -44.6014 0 -1.93421 52.5762 91.5517 -129.682 52.5762 52.5762 52.5762 52.5762 -21.0556 -21.0556 -21.0556 0 0 0 0 0 0 -129.682 -129.682 55.5985 71.2456 71.2456 71.2456 71.2456 0 0 65.3959 60.792 -129.682 52.5762 74.2342 74.2342 52.5762 57.2683 62.4762 -262.243 0 0 0 -129.682 -53.5985 -25.4444 0 0 74.6667 0 0 0 0 0 -40.1667 0 0 -42.9 0 0 35.5 28.35 0 34 0 0 0 0 0 -2.5 0 -4 30 27 0 0 0 0 29 29 29 29 28 0 30.5 30.5 27.9 24.25 33 33 24.25 18 0 24.0667 24.0667 24.0667 0 27.5 0 31.5 20 0 24 24 27.6667 27.6667 0 28.4667 28.5 28.4667 24.2 26 0 24.2 24.2 0 0 29.3333 26.5 23.75 27.5 27 0 26.5 26.5 26.5 0 0 0 0 25.5 24.5 0 0 0 0 0 0 0 0 0 0 0 0 25.1667 0 0 0 25 27.3333 0 26.75 28.15 0 28 26.75 29.1667 0 30.5 30.5 0 28 0 28.3333 29.3333 30.1667 30.1667 0 29.5 0 29.5 31.25 30.3333 33.2 33.2 36 0 36 31.25 31.25 28.5 28.5 28.5 0 33.5 32.5 32.5 0 0 32 32 0 0 35.75 28.5 35.5 0 0 0 31.3333 36 0 0 0 0 0 35.5 0 40 0 0 40.5 0 42 0 0 43 43 0 0 0 0 0 61 0 0 0 0 0 0 0 0 0 0 0 0 0 0 0 0 0 0 0 0 0 0 0 0 0 0 0 0 0 0 0 0 0 0 0 0 0 0 0 0 -27.2292 -48.7669 0 0 -70.318 0 0 -249 0 -272.738 -209.569 0 0 -162.578 0 0 -209.569 -282.486 0 0 -209.569 -0.1 -0.1 -0.1 -272.738 -154.231 -153.481 -50.5288 0 0 -47.5269 -36.0921 -36.0921 -188.525 -188.525 -188.525 0 -209.569 -201.417 0 0 -282.983 0 -282.983 -34.1633 -266.709 0 0 0 0 -241.051 0 -153.481 -50.5288 0 0 -35.193 -145.688 -48.7669 -48.7669 -252 0 0 0 0 -42.9 0 0 -209.569 -50.5288 0 0 0 0 0 0 -209.569 -35.193 0 0 0 -44.6644 -44.6644 0 0 -241.051 -266.709 -64.2 0 -35.193 -188.525 -211.029 -128 -64.2308 0 41.5 0 0 -261.423 0 0 -42.9 0 0 -211.029 -188.525 0 0 0 0 -48.7669 0 -275.67 -282.983 -48.7669 -86.8407 0 0 0 -282.983 0 0 0 -25.1429 -282.486 -282.486 -282.486 0 -209.569 0 0 -275.67 -275.67 -275.67 31.3556 -161.039 -275.67 -275.67 -270.111 0 0
0 0 0 0 20 20.5 21.5 0 21 21.5 22 21.5 22.5 22.5 22.5 22 22.5 23.5 24 24.5 0 24.5 25 0 0 0 0 26.5 26.5 26.5 26.5 27.5 28 28.5 29 29.5 30.5 30.5 30.5 0 29.5 30 0 31 31.5 32.5 0 32 32.5 33 33.5 33.8333 33.8333 33.6667 34.5 35 0 34.5 0 0 0 36.5 0 36 36.5 39 39.5 39.5 39.5 39.3333 0 39 39.5 40 40.5 41 41.5 0 0 0 0 42.5 0 43.5 43.5 43.5 43.5 44 44.5 45 0 44.5 45 45.5 0 0 46.5 46.5 48 48.5 49 0 48.5 49 49 49 49 49 49.5 50 0 0 0 52 0 52.5 52.5 0 52.5 53 53.5 55.5 54.5 55 55 0 0 0 0 0 0 57 0 0 56.5 58.5 59 59 0 58.5 59 0 0 0 0 61 0 62 62 62.5 0 63 63 0 63 65 65 0 64.5 64.5 64.5 66 0 65 65.5 66 66 0 67 8.83333 0 68 0 0 70 0 0 0 0 71.5 0 0 0 0 0 61.2647 62.7991 74.6667 0 0 0 0 60.6667 9.71429 0 0 77.6818 77.6818 61.4211 68.2786 56.1432 0 0 52.5762 55.9598 58.6999 58.6999 72.0895 0 60.3676 60.3676 55.8428 55.8428 55.8428 55.8428 60.792 60.792 31.6529 54.3162 55.9598 55.9598 52.5762 52.5762 52.5762 5.4293 55.9598 52.5762 52.5762 52.5762 52.5762 52.5762 57.2683 57.2683 57.2683 52.5762 52.5762 5.4293 5.4293 5.4293 -44.6014 5.4293 5.4293 74.2342 52.5762 52.5762 81.2148 81.2148 52.5762 74.2342 74.2342 0 41.331 46.0476 46.0476 56.1432 56.1432 52.5762 52.5762 52.5762 57.2683 88.8261 88.8261 88.8261 0 0 41 43 72.5625 60.792 52.5762 52.5762 0 -282.983 5.4293 60.792 88.6857 0 0 91.53 0 -58.125 0 0 0 0 0 0 0 0 0 0 0 -4 0 0 0 0 0 0 0 0 0 0 0 0 0 0 0 0 -2.5 48 28.5 28.5 28.5 0 29.3636 29.3636 29.3636 29.3636 29.3636 30.2 0 0 25.6667 25.6667 0 31.6667 31.6667 27.3333 27.3333 27.3333 24.25 27.0333 28.5 22.5 18 24.0667 27.5 28.5 0 0 0 24 24 0 27.6667 0 0 0 0 0 0 29.3333 24.2 24.2 0 0 28 28 27 26.5 26.5 30 30 30 26.3333 25.5 26.5 26.5 0 0 26 0 0 0 0 0 25.5 25.5 25.1667 25.1667 0 0 0 32.75 0 27 0 24.5 0 0 28.15 27.6667 21.6667 0 0 28.5 28.5 29.3333 29.3333 31 30 30 29.5 29.5 30.3333 29 32.1667 30.5 28 0 0 0 0 31.25 30.3333 30.3333 33.2 0 0 30.6667 0 0 0 32 0 28.5 28.5 37.5 32 32 33.8333 32 31.3333 31.3333 32.0833 31 32.0833 0 33.25 0 0 0 0 40 40 41.5 41.5 42 42 0 0 46 0 0 0 0 0 61 0 53 0 0 0 0 0 0 0 0 0 0 0 0 0 0 0 0 0 0 0 0 0 0 0 0 0 0 0 0 0 0 0 0 0 0 0 -15 0 0 -44.6644 -31.0556 0 -36.0921 -70.318 0 -3.23529 1.375 -271.398 0 -70.318 0 -48.7669 -48.7669 0 0 -282.983 -282.983 0 0 -209.569 -0.1 -0.1 -0.1 0 -145.688 53.4388 -50.5288 0 0 -47.5269 -36.0921 0 -11.7368 0 0 0 -201.417 0 0 0 -282.983 -282.983 -282.983 -266.709 -256.754 8.38597 0 0 0 -241.051 -50.5288 -153.481 0 0 0 0 0 -48.7669 -48.7669 0 0 0 0 -42.6567 0 0 -14.8182 -14.8182 -47.5269 -264.389 -282.983 0 0 0 -241.051 -282.983 -257.611 -35.193 0 -42.6567 0 0 0 -23.25 0 0 0 0 -36.0921 -35.193 0 0 -282.486 -24.383 0 -267.946 0 0 18 -153.481 0 -40.6364 0 -211.029 -188.525 0 -47.5269 -5.58427 -48.7669 -282.983 -47.5269 -47.5269 0 -48.7669 -86.8407 0 0 0 0 0 -36.0921 -25.1429 0 0 -282.486 -282.486 -282.486 0 -40 0 -211.029 -275.67 -275.67 31.3556 0 0 0 0 0 0
18.5 18.5 18.5 19.5 0 0 21.5 0 0 21.5 21.5 22 22.5 22.5 22.5 23.5 23.5 23.5 24 24.5 0 24.5 25 25.5 26 26 26 26.5 26.5 26.5 26.5 27.5 28 28.5 29 29.5 30.5 0 0 29 29.5 30 30.5 0 0 0 0 0 0 33 33.5 34 34 34 34.5 35 0 34.5 35 35.5 36 0 0 0 0 38 38 38 39 39.5 0 39 39.5 40 40.5 41 41.5 0 41 41.5 42 0 0 43 43 43 43.5 44 44.5 45 0 44.5 45 45.5 0 0 47 0 48 48.5 49 0 48.5 48.5 48.5 48.5 49 49 49.5 50 50.5 51 51.5 0 0 0 0 54 0 53 53.5 54 0 55 55.5 56 56 0 0 54.5 56.5 0 0 0 0 58.5 59 0 58.5 59 59 61 0 60.5 61 61 0 0 62 62.5 0 63.5 64 0 63 65 65 0 64 64 0 0 0 0 0 0 0 0 67 -7.5 28.3333 0 68.5 0 0 0 0 0 0 0 38 0 0 0 0 0 77.6818 0 0 0 0 60.792 77.6818 55.8428 0 52.5762 60.3676 52.5762 52.5762 52.5762 57.2683 0 0 52.5762 52.5762 55.9598 71.0682 72.0895 72.0895 60.3676 52.5762 52.5762 55.9598 56.1432 56.1432 57.2683 52.5762 60.792 55.9598 55.9598 52.5762 52.5762 52.5762 5.4293 55.9598 55.9598 52.5762 52.5762 52.5762 52.5762 52.5762 74.2342 52.5762 57.2683 52.5762 52.5762 5.4293 5.4293 5.4293 5.4293 5.4293 5.4293 5.4293 52.5762 52.5762 -66.4933 -66.4933 0 74.2342 -44.6014 61.48 39.9643 56.1432 56.1432 54.3162 5.4293 5.4293 52.5762 52.5762 52.5762 52.5762 88.8261 88.8261 52.5762 0 0 72.5625 72.5625 -129.682 52.5762 52.5762 74.2342 5.4293 5.4293 -276.698 0 0 0 0 0 0 0 0 34.5 0 0 0 0 0 0 0 0 0 31.1667 31.1667 3.66667 5.85714 68.3333 0 68.3333 30.5 0 32 0 0 0 0 -75 0 0 0 0 27 27 29 29.25 29.25 29.3636 29.3636 29.3636 30.2 30.2 30.2 27.0333 27.0333 27.3 27.3 27.0333 0 25 25 0 27.0333 21.5 22.5 24.0667 27.3333 27.3333 33 29 29.6667 0 25.1667 25.1667 22.5 25.1667 26.5 27.5 27.5 27.5 27.5 27.5 27 0 0 28.3333 0 0 28 0 0 0 29.3333 29.3333 26.3333 26.3333 27.5 27.5 0 0 26 0 0 0 28 0 0 28 23.3333 28 0 0 31 31 26.5 28 26.5 0 25 0 26.75 26.75 28.5714 28.3333 26.0833 0 0 0 0 0 0 28.75 31 0 29.5 0 30.5 30.5 30 0 32.1667 32.1667 29.5714 29.5714 0 0 33.2 0 0 0 0 0 29 29 29 0 0 0 0 0 0 31 0 32 0 32.0833 30.5 30.5 32.0833 0 33.25 33.25 35 33.25 39.5 39.5 39.5 0 0 0 42.5 47 0 0 0 40 0 44.6667 0 58 63 0 0 0 0 0 0 0 0 0 0 0 0 0 0 0 0 0 0 0 0 0 0 0 0 0 0 0 0 0 0 0 0 0 0 0 0 0 0 0 -31.0556 0 -47.5269 -70.318 -3.23529 -3.23529 30 0 0 -31.0556 -48.7669 -48.7669 -241.051 -282.983 0 0 0 0 0 -188.525 0 0 0 0 -0.1 27.2222 -44.6644 0 -47.5269 -70.318 -96.3071 -96.3071 17.8482 0 -229.985 -266.709 -267.946 0 -30.3585 0 -282.983 -282.983 -282.983 -282.983 -256.754 -256.754 0 -47.5269 -31.0556 0 0 0 0 0 -188.525 0 0 0 0 0 0 -23.75 0 -44.6644 0 0 -34.1633 -34.1633 0 -266.709 -282.983 0 0 0 -211.029 0 0 0 -267.946 0 0 0 0 0 0 0 0 -30.2134 -266.709 -275.67 0 0 0 -257.903 -277.688 0 0 0 0 -281.962 0 -257.09 -257.09 -257.09 0 0 -47.5269 0 0 0 0 -47.5269 0 -48.7669 -48.7669 0 0 0 0 0 0 -30.3585 -30.3585 -37.1429 0 0 0 -145.688 0 -282.486 0 0 -257.09 0 0 0 0 0 0 0
18.5 18.5 18.5 19.5 20 20.5 0 0 21 0 0 21.5 21.5 22.5 23.5 23.5 23.5 23.5 24.3333 0 23.6667 24.5 25 25 25 25.5 26 0 0 0 0 27.5 28 28.5 29.5 30 30 30 0 29 29.5 30 30.5 31.5 32 32.5 0 32 32.5 0 0 0 33.5 34 34.5 35 0 34.5 35 35.5 36 0 0 36.5 37 37.5 0 0 0 0 0 39 39.5 40 40.5 41 41.5 0 41 41.5 42 44 43.5 43.5 43.5 43 43.5 44 44.5 45 0 44.5 45 45.5 46 46.5 46.5 46.5 0 0 0 0 0 0 0 0 0 49.5 50 50 50.5 51 51.5 0 0 51.5 53.5 0 0 0 0 0 0 55 55.5 56 55.5 55.5 55.5 0 56.5 57 0 56.5 57 0 0 58 58.5 59 59 59.5 60 60.5 61 61 0 62 62.5 0 0 0 0 0 63 64.5 64.5 0 0 64 64 66 0 65 65.5 66 66 66.5 0 0 0 0 68.5 0 0 0 0 0 0 0 0 0 0 59.7179 76.6 0 0 43.1667 77.7744 68.5833 55.8428 52.5762 0 0 0 0 0 75.4337 60.792 60.792 60.792 60.792 52.5762 52.5762 52.5762 52.5762 55.9598 56.1432 0 60.3676 60.3676 55.9598 55.9598 56.1432 72.0895 72.0895 56.1432 52.5762 52.5762 52.5762 52.5762 52.5762 52.5762 52.5762 55.9598 54.3162 5.4293 52.5762 52.5762 52.5762 5.4293 52.5762 52.5762 52.5762 52.5762 52.5762 52.5762 52.5762 52.5762 52.5762 5.4293 79.1909 5.4293 5.4293 -77.535 -66.4933 -66.4933 -77.535 -77.535 5.4293 52.5762 52.5762 55.9598 55.9598 0 0 5.4293 52.5762 74.2342 74.2342 52.5762 -129.682 -129.682 52.5762 60.9677 0 72.5625 72.5625 -129.682 52.5762 52.5762 5.4293 52.5762 -129.682 -179.057 5.4293 0 -21.0556 57.2683 48.6596 0 0 77.3 0 0 0 0 0 0 0 0 0 0 31.1667 0 30.5 0 0 5.85714 0 0 34.5 32.25 32.25 30.5 30.5 47 30.5 32 30.1667 30.1667 28.5 0 28.5 0 29.6 29.6 29.25 29.3636 30.5 28.3333 29.25 24.5 28.3333 27.3 27.3 27.3 39 0 29.3636 29.3636 0 25.6667 26.5 25.5 28.5 27.3333 0 24 29 29 29 29 0 25 25 25 26.5 0 24 0 0 27.6667 27 27 25 28.3333 25 25.25 28.3333 28.5 28.375 28.375 28 27 25.2 29.3333 26.5 26.5 26 0 28.5 28.5 26.5 27 27 24.5 0 0 24.5 23.3333 23.3333 0 0 0 0 31 27 29.25 27 27 27.5 27 28.5714 30.8 0 0 29 0 0 0 29.6667 29.6667 29.3333 0 0 31 30.5 31.5 30 32 0 29.5714 27.1667 27.1667 29.5714 29.5714 29.5714 24.9167 0 26 30 30 0 0 0 0 0 0 0 0 0 0 0 0 0 0 32 32 0 41 0 35.5 0 0 38.5 38.5 42.5 42.5 0 47 47 41.3333 41.3333 0 42 47 44.5 44.5 58 0 60 60 0 0 0 0 0 0 0 0 0 0 0 0 0 0 0 0 0 0 0 0 0 0 0 0 0 0 0 0 0 0 0 0 0 0 0 -50.7524 0 0 -48.7669 -27.2292 0 0 0 0 0 0 -31.0556 -282.983 -282.983 -241.051 -241.051 0 0 0 -257.09 -257.09 -282.983 0 0 0 -256.754 0 0 0 -282.983 0 -70.318 -96.3071 -188.525 0 0 -275.67 0 0 -35.193 -30.3585 0 0 0 -282.983 -241.051 0 0 0 -47.5269 -31.0556 0 0 0 0 -266.709 -267.946 0 -272.738 0 -5.4 0 0 -23.75 0 -202.293 -50.5288 -25.1429 0 -34.1633 0 -282.983 0 0 0 0 0 0 -257.09 -241.051 -241.051 -241.051 -241.051 -282.983 -42.9 0 -241.051 0 0 -276.698 -275.67 -275.67 -47.5269 -48.7669 -241.051 0 0 0 -31.0556 -44.6644 0 0 0 -165.46 -257.09 -257.09 0 0 -47.5269 0 0 0 -275.67 0 -47.5269 -282.983 -275.67 -48.7669 0 0 0 0 -275.67 0 -50.5288 0 -44.6644 -0.1 0 0 34.717 0 0 -259.778 0 -282.983 -145.688 0 -282.983 0 0 0
18.8333 18.8333 18.6667 19.5 20.5 21 21.5 0 21 21.5 21.3 21.3 21.3 0 0 22.5 23 23.5 24.5 0 24 24.5 25 25 25 25.5 26 27.6667 27 27 0 0 28 28.5 29.5 30 30 30 0 29 29.5 30 30.5 31.5 32 32.5 0 32 32.5 33.5 33.5 33.5 0 0 34.5 35 0 34.5 35 35.5 36.5 37 0 36.5 37 37.5 37.5 37.5 38.5 38.5 38.5 0 39.5 40 40.5 41 0 40.5 41 41.5 42 42.5 43 43 43 0 43.5 0 0 45 0 44.5 45 45.5 46 46.5 46.5 46.5 48 48.5 49 0 48 48 49 49 49 0 50 50.5 51 51 51.5 52 52 52 53.5 54 0 53 53.5 54 0 55 0 0 55.5 55.5 55 55 56.5 57 0 56.5 57 58.5 0 0 0 59 59 59.5 0 60.5 61 61 0 62 62.5 63 0 63 63 0 0 0 0 0 0 64 64 66 0 65 65.5 66 66.5 0 67 -7.5 0 67 68.5 0 0 0 0 0 0 0 0 0 0 54.0408 68.2857 0 0 72.5625 0 0 0 0 0 0 0 0 75.4337 0 0 60.792 52.5762 52.5762 52.5762 52.5762 52.5762 52.5762 52.5762 52.5762 52.5762 60.3676 60.3676 60.3676 60.3676 58.6999 72.0895 72.0895 72.0895 52.5762 52.5762 52.5762 52.5762 52.5762 52.5762 52.5762 54.3162 54.3162 5.4293 52.5762 52.5762 52.5762 5.4293 52.5762 52.5762 52.5762 52.5762 52.5762 52.5762 52.5762 52.5762 52.5762 79.1909 79.1909 5.4293 -44.6014 -79.5826 -66.4933 -66.4933 -77.535 -77.535 5.4293 5.4293 5.4293 52.5762 -282.983 0 0 -129.682 -129.682 74.2342 74.2342 52.5762 0 -16.3385 52.5762 72.5625 44 72.5625 72.5625 57.2683 52.5762 52.5762 -129.682 -129.682 -129.682 0 0 0 0 5.4293 5.4293 -145.688 12.1765 0 0 0 -68 0 0 0 0 0 0 0 0 0 0 30.5 0 33.5 0 0 0 0 29.4286 29.4286 29.4286 32.25 -53.7 32.25 30.5 27.6667 27.6667 30.5 27.6667 40.1667 0 27.3333 0 30.6667 29.3333 28.3333 29.6 29.6 29 27.5 28.3333 33 31 0 0 30.5 30.2 21.5 0 26.5 24 33.5 27.0333 25.5 30.8 0 29 0 24 24 29 0 0 27.2 27.6667 27.2 0 0 26.5 26.5 24.25 28.5 24.25 24.25 28.5 0 0 0 29 29 28.5 27 28 25.5 24.5 24.5 24.5 0 26 0 28.0833 28.0833 0 27.75 24.5 24.5 0 0 24.5 23 0 29.25 29.25 29.25 28.15 28.15 26 28.5714 28.5714 28.5714 0 0 0 0 0 0 30.25 30.25 26.8 0 0 0 31 31 27 31 31 25.5 28 28 27 29.5714 24.9167 27 0 29 34 30.5 30.5 30.5 27 0 35 0 0 0 25.5 29 0 29.5 25.5 30 0 0 29.5 29.5 36 0 0 33.6667 33.6667 39 41.3333 0 0 0 41.3333 40.5 0 0 42 41.3333 42.5 0 0 61 59 0 0 0 0 0 0 0 0 0 0 0 0 0 0 0 0 0 0 0 0 0 0 0 0 0 0 0 0 0 0 0 0 0 0 0 -184.333 -257.09 0 -27.2292 0 -27.2292 0 0 0 0 0 0 -31.0556 -282.983 -282.983 -241.051 0 -48.7669 0 0 0 0 0 0 -96.3071 -96.3071 -145.688 8.38597 -48.7669 -282.983 -282.983 -70.318 -281.962 0 -188.525 0 0 -257.09 -282.983 -241.051 0 0 -47.5269 0 0 0 -188.525 0 0 -33.3968 -31.0556 -15.25 25.5 0 0 -270.111 0 0 0 0 0 0 0 0 0 -48.7669 0 -50.5288 -25.1429 0 0 0 0 0 0 0 0 -211.029 0 -27.1852 0 -33.3968 -33.3968 0 -282.983 0 -50.5288 -188.525 0 0 0 -259.778 -262.243 0 0 -241.051 -282.983 0 -35.193 -188.525 -188.525 0 -188.525 0 -42.1852 -275.67 -257.09 -257.09 -36.6667 -211.029 0 0 0 -275.67 -275.67 -48.7669 -282.983 -257.09 0 0 0 0 0 0 0 0 -37.2826 0 -12 -70.318 -270.111 0 0 0 -259.778 -235.978 -209.569 -201.417 -201.417 -50.5288 0 0 0
17.5 18.5 19 19.5 20.5 21 21 21 22 0 21.5 21.3 21.3 0 0 0 0 0 24.5 0 24 24.5 25.5 25.5 25.5 25.5 26 27.6667 27 27 24.6667 27.5 0 0 0 0 0 0 0 0 29.5 30.5 31 31.5 32 32.5 33 0 32.5 33.5 33.5 33.5 33.5 34 0 0 0 34.5 35 35.5 36.5 37 0 36.5 37 37 37 37 39 39.5 0 39 0 0 0 41 41.5 0 41.5 42 43.5 43.5 43.1667 43.1667 0 42.5 42.5 44 44.5 0 0 0 0 0 46.3333 46.6667 46.5 46.5 48 48.5 49 0 48 48 48 48.5 49 0 0 0 0 51.5 52 0 52 52 53.5 54 0 53.5 54 54 0 55 55.5 55.5 55.5 55.5 55.5 55.5 55 57 57.5 0 57 59 59 0 58.5 0 0 0 0 0 61 61.5 0 62 62.5 63 0 63 63 0 63.5 64 63.5 63.5 0 0 64 66 0 65.5 0 0 66.5 67 67 67.5 68 0 68.5 69 0 0 0 0 76 0 0 0 0 54.0408 61.4624 0 0 71.2456 0 62.7991 0 0 0 52.5762 52.5762 52.5762 52.5762 0 91.53 52.5762 52.5762 52.5762 52.5762 52.5762 52.5762 52.5762 52.5762 52.5762 52.5762 52.5762 60.3676 60.3676 60.3676 60.3676 73.9883 73.9883 57.2683 52.5762 52.5762 52.5762 52.5762 52.5762 52.5762 52.5762 5.4293 5.4293 5.4293 52.5762 52.5762 52.5762 5.4293 52.5762 52.5762 52.5762 52.5762 52.5762 52.5762 52.5762 52.5762 52.5762 5.4293 5.4293 57.2683 52.5762 -44.6014 -66.4933 -66.4933 -77.535 52.5762 57.2683 5.4293 0 -129.682 -282.983 0 0 0 -129.682 74.2342 74.2342 52.5762 0 0 52.5762 57.2683 71.8323 -179 57.2683 0 0 52.5762 -129.682 -129.682 -19.6644 0 0 0 0 0 42.8333 0 83.8405 0 0 0 0 0 0 0 0 0 0 0 0 0 0 0 34 0 0 32.6667 34.3333 33.15 0 24 0 -53.7 33.5 0 0 28.3333 28.3333 29.4286 29.4286 28.3333 29 29.5 29 29.5 0 0 29.3333 27.3333 22.1667 0 28.3333 28.3333 27.5 29.6 27.5 22.5 22.5 25.5 0 0 31 23.6667 29.8571 30.8 26 29.5 30.8 0 26 30.8 29.8571 25.5 25.5 26 26 27.6667 0 26.5 0 26.5 26.5 26.2 26.2 26.2 0 23.5 24.25 0 0 25.8 24.1667 25.8 25.8 29 25.5 25.5 25.5 0 0 29.5 30 26.5 26.5 26.5 28.0833 27.75 27.75 27.75 24.5 29.5 29.5 0 28 29.5 29.5 29.1667 28.15 28.5714 28.5714 26.0833 30.8 0 28 30.8 21.1667 0 30.25 30.6 27.75 30.6 0 0 0 0 0 0 0 31 0 28.5 23.5 28.3 27 27 0 0 31.3333 0 0 0 31.8333 0 25.5 25.5 29.1333 30.25 0 25.5 29 29 34 33 31.8333 0 31.8333 31.8333 0 0 0 33.6667 0 0 0 41.6667 0 41.3333 41.3333 41.75 0 0 0 0 40.5 40.5 40.5 41.5 60 0 0 0 0 0 0 0 0 0 0 0 0 0 0 0 0 0 0 0 0 0 0 0 0 0 0 0 0 0 0 0 0 0 0 0 -184.333 0 0 0 -48.7669 -31.0556 -44.6644 0 0 0.666667 0 -27.2292 0 0 -244.894 0 -24.1071 -48.7669 0 0 0 -47.5269 -209.569 -139.951 -10.8 -46.7692 0 0.666667 -47.5269 0 0 0 -275.67 -211.029 0 0 0 0 -241.051 -256.754 0 -47.5269 -47.5269 -47.5269 0 0 0 0 -209.569 0 0 0 25.5 0 0 -47.5269 0 0 0 0 0 -164.556 0 -281.962 -48.7669 -47.5269 0 -24.383 -24.383 0 -34.1633 0 0 0 0 0 0 -188.525 -47.5269 0 0 -33.3968 0 0 0 0 0 0 0 0 0 0 -262.243 -275.67 0 -145.688 0 -229.985 0 0 0 -188.525 0 0 0 0 0 0 0 0 0 0 0 -211.029 -282.983 -48.7669 -282.983 -282.983 0 0 0 -86.8407 0 -277.688 0 -47.5269 27.2222 -121.893 0 -44.6644 0 0 0 0 0 -140.25 -167.167 -183.2 0 -50.7524 0 0 0
17.5 18.5 19 19.5 20.5 21 21.5 22.5 0 0 20.6667 21.5 21.5 22 22 22.5 23 23.5 0 0 0 0 25.5 25.5 25.5 25.5 26.3333 26.6667 27 27 0 27.5 28 28.5 29.5 30 30 30 0 29 0 0 31 31.5 32 32.5 33 0 32.5 33.5 33.5 33.5 33.5 34 34.5 35 0 34.6667 0 0 36.5 37 0 36.5 37 37 37 37 39 39.5 0 39.3333 39.6667 40 40.5 0 0 0 0 0 42.5 43 42.8333 42.8333 43 43.5 44 44.5 45 45.5 0 45 45.5 46 0 0 0 0 0 48.5 49 0 48 48 48 48.5 49 49.3333 50 50.5 51 0 0 0 51 53 53.5 54 0 53.5 54 54.5 0 55 55.5 55.5 55.5 55.5 56 0 0 55.5 57.5 0 57 57.5 59 0 58.5 59 59.5 60 60 0 0 0 0 0 0 0 62 63 63 64.5 0 63.5 63.5 63 0 64 0 0 0 0 66 66 0 0 67 67.5 68 68 68.5 69 -2 0 0 0 0 71.8333 0 5 0 0 57.2683 0 0 62.7991 0 0 0 0 0 72.5625 72.5625 57.2683 57.2683 73.9883 74.2849 57.2683 57.2683 60.3676 52.5762 52.5762 52.5762 52.5762 52.5762 52.5762 52.5762 0 52.5762 52.5762 52.5762 52.5762 52.5762 57.2683 52.5762 52.5762 52.5762 52.5762 52.5762 52.5762 52.5762 52.5762 5.4293 5.4293 5.4293 52.5762 52.5762 52.5762 5.4293 52.5762 52.5762 52.5762 52.5762 52.5762 52.5762 74.2342 52.5762 5.4293 5.4293 5.4293 57.2683 52.5762 52.5762 81.2148 81.2148 52.5762 52.5762 57.2683 52.5762 -129.682 -129.682 0 0 0 0 0 74.2342 74.2342 52.5762 52.5762 52.5762 52.5762 52.5762 -147.952 -19.6644 57.2683 0 0 52.5762 0 -129.682 -19.6644 0 0 -44.6014 73.0452 0 0 0 54 0 0 0 0 0 32 0 0 0 0 0 0 35.7083 0 0 0 0 0 0 34.3333 33.15 40.1667 0 0 47.5 0 0 32.6667 29.3333 29.4286 29.4286 27 29.3333 27.5 29.5 0 29.3333 29.5 31 34 28 28 28.6667 28.6667 26.6 27.3333 22.1667 30.6667 30.6667 26.6667 0 26.3333 25.5 25.5 0 29.8571 29.8571 30.8 27.1333 29.8571 23.6667 0 29.8571 26 29.8571 26 26.5 27 0 25.1667 25.1667 26.5 25.1667 26.5 25.9 0 28.25 26.6667 25.9 23.5 0 0 25.8 0 24.1667 25.8 27.5 26 26 26 26.7 29.5 32 28.1667 29.5 25.75 25.75 27 29.5 24.5 24.5 28.1667 27.5 30 30 27.5 28 28 29.1667 28.5 28.3333 28.3333 23.8333 25.7143 27.5 30.8 26.0833 26.0833 0 27.75 0 0 0 31 0 0 30.6 30.6 0 0 0 31 28 26.8 29.6667 27.75 29.5714 31.3333 31.8333 31.1429 0 0 0 30 31.1429 31.1429 32 29.1333 30.25 30.25 30.25 31.5 0 0 31.5 0 0 0 23.2 31 0 0 0 0 0 0 41.6667 41.6667 44 44 38.5 40 40 0 43.1667 41.5 0 40 43.1667 41.5 0 0 0 0 0 0 0 0 0 0 0 0 0 0 0 0 0 0 0 0 0 0 0 0 0 0 0 0 0 0 0 0 0 0 0 0 -47.5269 0 0 -48.7669 -47.5269 -44.6644 -31.0556 0 -86.8407 -145.688 -27.2292 -48.7669 0 -145.688 0 -270.111 0 0 0 0 -252.321 -208.587 0 -44.6644 -44.6644 -47.5269 -47.5269 -70.318 -48.7669 -282.983 -275.67 0 -275.67 -188.525 0 0 0 0 0 0 0 0 -47.5269 -47.5269 0 0 0 0 -282.983 -282.983 -282.983 0 0 -238.5 0 0 0 0 0 0 0 -86.8407 -48.7669 -47.5269 -47.5269 0 -30.3585 -42.9 -42.9 0 0 -130.429 -209.569 0 17.8482 0 -23.6782 0 0 0 0 0 0 0 0 0 0 0 0 0 -47.5269 -188.525 0 0 0 0 0 -33.3968 -33.3968 -31.9143 -241.051 -261.423 0 -257.611 0 0 0 -49.8493 0 0 0 2.83333 0 79.4286 -24.383 -50.5288 0 0 0 0 0 0 -27.2292 -31.0556 0 -23.6782 -121.893 0 -44.6644 0 -47.5269 -47.5269 -50.5288 -165.46 0 -276.698 -276.698 0 0 -241.051 0 0
0 18 18 18 20.5 21 0 21.5 0 21 20.6667 20.6667 20.5 21.5 22 22.5 23 23.5 24.5 0 24 24.5 0 0 0 25.5 26.5 27 27 27 27 27.5 28.3333 28.6667 29.5 29.5 29.5 29.5 0 30 0 30.5 31 31.5 32 32.5 33.5 0 33 33 33 33 33.5 34 34.5 0 34.3333 34.5 35.5 36 0 0 0 0 0 0 0 0 39.5 40 0 39.5 40 40.5 41 41.5 0 41 41.5 42 0 0 0 0 0 43.5 44 44.5 45 45.5 0 45 45.5 46 46.5 47 0 48 48 0 0 0 0 47.5 48 48.5 49 49.5 50 50.5 51 51.5 52 0 51 0 0 0 0 53.5 54 54.5 55 55 55 55 55 55.5 56 0 55 0 0 0 0 57.5 58 0 58.5 59 59.5 60 60 60.5 61 61.5 0 62 62.5 0 0 0 0 0 63 63 63 63 65 0 64 64.5 65 65.5 66 66 66.5 67 67 0 0 0 68.5 69 0 0 68.75 0 0 0 0 0 71.5 0 54 73.5 0 0 0 72.8333 0 52.5762 68.5833 52.5762 52.5762 56.1432 41.331 61.4211 72.0895 71.2456 71.2456 52.5762 52.5762 52.5762 52.5762 52.5762 52.5762 62.4762 72.0895 56.1432 57.2683 52.5762 52.5762 52.5762 52.5762 52.5762 52.5762 52.5762 52.5762 52.5762 55.8428 55.8428 55.8428 55.8428 52.5762 52.5762 5.4293 52.5762 52.5762 52.5762 5.4293 52.5762 52.5762 52.5762 52.5762 52.5762 52.5762 52.5762 52.5762 52.5762 52.5762 -129.682 52.5762 52.5762 52.5762 5.4293 5.4293 52.5762 52.5762 52.5762 52.5762 52.5762 52.5762 -129.682 0 0 0 -44.6014 52.5762 52.5762 52.5762 52.5762 55.9598 55.9598 52.5762 -129.682 -129.682 0 0 52.5762 52.5762 52.5762 0 -209.569 -100.938 0 -282.983 74.2342 0 21 35.4643 0 0 0 0 0 0 35.7083 32 0 0 0 0 0 5.5 0 41 29.8 0 33.6667 0 0 0 29.5 0 0 0 65 29 34.3333 33.15 33.15 30 32.6667 29.3333 27.875 27.875 27.875 29 29 27.5 0 0 0 0 0 26.6 28 28 26.6 28.6667 27 27 26.3333 27 26.3333 26.3333 27 27.1333 27.1333 27.1333 26.1 21.75 0 22.3333 22.3333 0 0 27.1667 27 0 25.5 0 26.3333 24 26.5 25.9 27.5 28.25 28 25.9 25.9 0 0 33 25.5 25.5 25 25 26.7 26.7 26.7 26.7 0 27 30 32 0 29.5 27.6667 27.6667 0 28.1667 28.1667 29.5 28.1667 28.1667 27 0 24.6667 0 24.6667 0 0 31 28.8889 0 25.7143 23.8333 0 30.6 32 25.7143 28.1333 26.5833 24.7 18.8333 28.1333 0 28.1333 34.5 0 0 0 13 0 0 30.25 27.75 0 28.3 31.1429 32.1667 31 31.6667 28.3 28 31.1429 31.1429 29.1333 29.1333 31.1429 29.1333 29 31.1667 28.25 31.1667 29.5 28.5 28.5 29.5 28.5 0 0 0 0 0 0 0 0 0 0 0 0 0 39.5 39.5 0 0 0 0 44.5 43.1667 40 41.5 0 0 0 0 0 0 0 0 0 0 0 0 0 0 0 0 0 0 0 0 0 0 0 0 0 0 0 0 0 0 0 0 0 0 0 0 -47.5269 0 0 0 0 -10.8 0 -145.688 -145.688 0 0 -14.8182 -70.318 -70.318 -70.318 64 -47.5269 -48.7669 0 0 33 -50.7524 0 0 0 -188.525 -188.525 0 0 -96.3071 -96.3071 0 0 0 0 0 0 0 -47.5269 -70.318 -70.318 -209.569 0 0 -47.5269 -282.983 -282.983 0 0 -48.7669 0 0 0 0 0 0 0 0 0 0 -47.5269 -48.7669 -47.5269 0 -30.3585 -30.3585 0 0 -47.5269 -282.486 0 -209.569 -50.5288 -23.6782 -30.3585 0 0 -14.8182 -209.569 -145.688 -282.983 -282.983 -282.983 0 -282.983 0 0 -47.5269 0 -153.481 0 0 0 0 0 0 0 -188.525 -188.525 0 -188.525 0 0 0 0 -165.46 -211.029 -165.46 -165.46 -257.09 0 0 0 0 -241.051 -48.7669 0 -140.25 0 -50.7524 -44.6644 0 -42.9 0 0 -50.5288 0 0 -282.983 -50.5288 -165.46 0 -227.751 -139.951 0 0 -129.682 0 0
17.5 0 0 0 0 0 0 0 0 22 21 21 20.5 21.5 22 22.5 23.5 24 24.5 0 24 24.5 25 25 25 0 0 27 27 27 27 27.5 28.5 29 29.5 29.5 29.5 29.5 30.5 31 0 30.5 31 0 0 0 0 0 0 33 33 33 33.5 34 34.5 35.5 0 35 35.5 36 36.5 37 37.5 38 37.5 37.5 37.5 37 0 40 0 39.5 40 40.5 41 41.5 0 41 41.5 42 42.5 42.5 42.5 42.5 0 42 0 0 45 45.5 0 45 45.5 46 46.5 47 47.5 0 48.5 49 49 0 0 0 0 50 50 50 50 50.5 51 51.5 52 0 51.5 52 53.5 54 0 0 0 0 0 55 55 55 55 55.5 56 0 55.5 56 57.5 0 57 0 0 0 0 0 0 0 60 60.5 61 61.5 0 62 62.5 63 0 62.5 63 0 0 0 63.5 63.5 65 0 64.5 66 0 65.5 66 66 66.5 67 67 67.5 0 0 69 46.3333 0 0 91.3333 0 0 0 0 0 0 0 0 0 0 0 0 0 55.2591 51.5776 74.7909 52.5762 52.5762 52.5762 72.0895 72.0895 56.1432 48.6596 56.1432 71.2456 77.7744 65.8377 65.8377 65.8377 57.2683 56.1432 71.2456 71.2456 73.9883 52.5762 52.5762 65.3959 52.5762 52.5762 52.5762 52.5762 52.5762 55.8428 55.8428 55.8428 55.8428 41.4348 41.4348 55.9598 52.5762 52.5762 52.5762 5.4293 5.4293 5.4293 52.5762 52.5762 52.5762 52.5762 52.5762 52.5762 52.5762 52.5762 52.5762 -129.682 52.5762 52.5762 52.5762 74.2342 74.2342 52.5762 52.5762 52.5762 5.4293 52.5762 52.5762 52.5762 0 0 0 74.2342 52.5762 54 54 0 0 44.5308 -129.682 -129.682 0 0 0 -129.682 52.5762 52.5762 0 -209.569 0 0 12.3333 -200.983 0 0 0 0 0 0 0 0 0 42.75 0 0 0 0 0 0 26 5 0 45 41 45 36.5 0 0 32.1429 0 0 0 0 20.8333 21.3333 28 30.5 30.5 30.5 31.15 31.15 27.875 32.5 27.875 27.875 27.875 27.875 27.3333 29.3333 29.3333 0 25.0667 28 0 0 28 27 26.8333 26.5 26.5 26.8333 26.6 26.6 26.6 27.1333 26.6667 28.3333 32.25 26.1 26.1 22.3333 26.1 0 27.6667 0 22 0 0 0 25.5 0 35 27 30 27.5 0 24.5 32 32 26 25.5 25.5 26.6667 25.5 0 0 26 26 26 26.75 28 0 0 28 27.6667 26 26 27.6667 26 27.6667 25.5 26 26 27 0 27 27 30.5714 0 28.8889 28.8889 28.8889 25.7143 25.7143 25.7143 0 23.8333 22.6667 22.5 0 23.6667 0 18.8333 28.1333 0 33 13.3333 34.5 34.5 24.7 26.5833 18.8333 24 28.1333 28.1333 31.3333 28.3 21 30 0 23.5 21 31.6667 26 29.1333 26 32.1667 0 0 0 0 28.5 27.5 27.5 31.1667 29 29 29 0 0 0 0 33.5 33.5 39 39 0 0 40 40 40 39.5 39.5 0 0 0 0 0 0 0 0 0 0 0 0 0 0 0 0 0 0 0 0 0 0 0 0 0 0 0 0 0 0 0 0 0 0 0 0 0 0 0 0 0 0 0 -27.2292 0 0 0 0 0 0 0 0 0 -282.983 0 -209.569 -47.5269 0 -70.318 -31.0556 -47.5269 -47.5269 0.666667 -50.7524 -0.1 0 -188.525 -188.525 -96.3071 -96.3071 0 -70.318 -96.3071 -270.111 0 0 0 -48.7669 0 0 0 0 -70.318 -14.8182 -24.383 17.8482 0 -47.5269 -162.578 0 0 0 0 0 0 0 0 0 0 0 0 -162.578 0 -48.7669 -48.7669 0 -70.318 0 0 -282.486 -282.486 0 8.38597 -275.67 0 0 -275.67 -165.46 0 0 0 0 0 0 0 -241.051 0 0 -282.983 -48.7669 -47.5269 -44.6644 -50.5288 0 -36.0921 -47.5269 -50.5288 0 -50.5288 -50.5288 -188.525 -35.193 0 0 0 -209.569 0 0 -275.67 -211.029 -275.67 0 -257.09 -257.09 -161.039 0 0 -241.051 -48.7669 -86.8407 -86.8407 0 -27.1852 -50.7524 -275.67 -50.5288 0 0 0 0 0 -282.983 0 0 -209.569 -47.5269 0 0 -44.6644 0 0 0
18 18 18 18.5 20.5 21 0 20.5 21.5 0 0 0 20.5 21.5 22 22.5 23.5 24 24.5 0 24.5 25 25 25 25 25.5 26.5 0 0 0 27 27.5 28.5 29 29.5 29.5 29.5 29.5 30.5 31 0 30.5 31 31.5 32.5 33 33.5 0 33 0 0 0 33.5 34.5 35 35.5 0 35 35.5 36 36.5 37 37.5 38 37.5 37.5 37.5 37.5 38 0 0 0 0 0 41 41.5 0 41 41.5 42 42.5 42.5 42.5 42.5 0 42 44 44.5 45 45.5 0 0 0 46 46.5 47 0 46.5 47 49 49 49 0 48 48 0 0 0 50 50.5 51 51.5 52 0 51.5 52 53.5 54 0 53.5 54 54.5 55 0 0 0 0 0 56 0 55.5 57 57.5 0 57 57.5 58 58 0 59 59.5 60 0 0 61 61.5 0 62 62.5 63 0 63.5 63.5 0 0 62.5 64 64.5 0 64 64.5 66 0 65.5 0 0 66.6667 67 67.5 68 68 37.6667 66.6667 0 0 68.75 0 0 0 68.5 69 0 68.6667 0 0 54 74.2849 0 0 0 62.7991 57.2683 57.2683 57.2683 62.4762 0 80.6154 0 0 0 0 0 77.6818 77.6818 0 68.2857 59.1 68.2857 68.2857 54.0408 57.2683 57.2683 52.5762 52.5762 52.5762 52.5762 52.5762 52.5762 57.2683 52.5762 52.5762 74.2342 74.2342 5.4293 5.4293 57.2683 60.792 52.5762 52.5762 52.5762 5.4293 5.4293 52.5762 52.5762 52.5762 52.5762 52.5762 52.5762 52.5762 52.5762 52.5762 52.5762 52.5762 52.5762 52.5762 55.9598 55.9598 52.5762 52.5762 52.5762 52.5762 52.5762 52.5762 74.2342 74.2342 74.2342 74.2342 0 0 57.2683 57.2683 57.2683 56.1432 57.2683 55.9598 52.5762 0 74.2342 52.5762 57.2683 57.2683 52.5762 52.5762 52.5762 0 0 0 0 0 41.4 0 0 0 0 0 0 0 0 0 0 0 0 34 0 5 0 42.75 -13 33.1667 0 32.1429 32.1429 32.1429 0 30.3333 0 29.35 0 0 76 76 26.6667 26.6667 35 31.15 31.15 32.5 36.4 31.15 28.3333 31.15 31.15 31.15 36.4 27.3333 27.3333 36.4 27.3333 27.3333 0 0 0 25.0667 25.0667 0 23 25.0667 0 0 0 26.6667 26.6667 23.8 23.8 23.8 23.8 28.3333 28.3333 28 27.6667 0 27.6667 25.5 0 27.8333 0 35 29.5 0 0 25 27 0 21 29.5 0 0 25 0 0 0 26 24.5 24.5 0 25 26.75 27 30 26 0 28 28 26 27.6667 27 27 29 27.5 36.6667 21.25 30.5714 30.5714 0 24.6667 30.5714 28.8889 28.8889 0 0 25.7143 21.5 25.0833 25.0833 31 0 22.1667 21.1667 28.1333 28.1333 0 34.5 16.5 26.5833 22.6667 0 25 22.25 28.1333 27.25 32 20 28.5 28.5 0 20 28.5 30.2 0 32.1667 28 31.6667 0 0 0 0 0 28.5 0 0 28 28 30 0 0 0 0 0 0 0 38 0 39.5 39.75 0 40 40 40 39.5 40.9 40.9 0 0 0 0 0 0 0 0 0 0 0 0 0 0 0 0 0 0 0 0 0 0 0 0 0 0 0 0 0 0 0 0 0 0 0 0 -277.688 -0.1 -270.5 0 0 -162.578 0 0 0.666667 0 0 0 0 0 -282.983 0 0 0 0 -44.6644 0 -47.5269 -70.318 -275.67 0 0 -209.569 0 -27.1852 -209.569 -209.569 -270.111 -47.5269 -47.5269 -47.5269 -47.5269 0 0 0 0 -47.5269 0 0 -70.318 -282.486 -24.383 -24.383 0 0 0 -271.398 -30.2134 -266.709 -20.913 0 0 0 0 0 0 -33.3968 0 -47.5269 0 -48.7669 -48.7669 0 -282.486 -282.486 -24.383 -24.383 -282.486 0 -161.039 -275.67 0 0 -275.67 -275.67 0 -40 -40 -40 0 0 0 -211.029 -50.5288 -50.5288 -50.5288 -47.5269 -31.0556 -44.6644 -44.6644 -48.7669 0 0 0 -50.5288 -50.5288 0 0 -40 0 0 -276.698 -276.698 0 -275.67 0 -257.09 0 0 -86.8407 -86.8407 -257.09 -282.983 -48.7669 -282.983 -48.7669 -86.8407 -86.8407 -86.8407 0 -50.7524 -229.985 0 -241.051 -241.051 -282.983 -48.7669 -48.7669 -31.0556 0 0 -46.7692 0 -201.417 0 -202.293 0 0 0
18 18 18 18.5 20.5 21.5 22 22 22 0 20.3333 20.3333 0 0 22 22.5 23.5 24 24.5 25.5 0 25 25 25 25 25.5 26.5 27 27.1667 26.5 0 0 0 0 0 0 0 30 30.5 0 30 30.5 31 31.5 32.5 33 33.5 0 32.5 32.5 32.5 33 0 0 0 0 0 0 35.5 36 36.5 37 37.5 38 0 0 36.5 37.5 38 40 0 39.5 40 40.5 0 0 42 42.5 0 42 42.5 42.5 42.5 42.5 0 42 44 44.5 45 45.5 0 45 0 0 0 47 0 46.5 48.5 49 49 49 0 48 48.5 49 49 49.5 50 50.5 0 0 0 0 0 52 54 54 0 53.5 54 54.5 55 55 55 55 55 55.5 0 0 0 57.5 58 0 57 57.5 58 58.5 0 59 59.5 60 60.5 61 61 61.5 0 62 62.5 63 0 63.5 63.5 0 0 62.5 63 65 0 64 64.5 0 0 0 66 66.3333 0 0 67.5 68 0 67 0 0 69.5 0 0 0 0 65 0 0 69.8154 47.381 0 72.5625 74.2849 0 0 0 0 53.9498 61.4624 0 0 0 0 0 0 0 0 0 77.6818 56.1432 0 59.1 68.2857 0 0 48.6596 57.2683 57.2683 52.5762 52.5762 52.5762 52.5762 52.5762 52.5762 55.9598 52.5762 52.5762 52.5762 52.5762 52.5762 5.4293 52.5762 60.792 5.4293 52.5762 52.5762 5.4293 5.4293 5.4293 52.5762 52.5762 52.5762 52.5762 74.2342 5.4293 5.4293 5.4293 5.4293 52.5762 52.5762 55.9598 55.9598 55.9598 52.5762 52.5762 52.5762 52.5762 52.5762 52.5762 52.5762 74.2342 74.2342 74.2342 74.2342 57.2683 57.2683 56.1432 57.2683 57.2683 55.9598 52.5762 -129.682 -129.682 -129.682 57.2683 57.2683 57.2683 57.2683 52.5762 52.5762 0 0 0 0 0 39.9643 0 0 0 0 0 0 0 0 0 0 0 0 0 0 32 0 0 0 33.1667 33.1667 0 45 32.1429 0 0 27.5 0 31.375 0 0 30 30 30 0 28 36 36 27.1667 0 28.3333 30.5 26.8 26 27.3333 25.5 36.4 25.5 36.4 31.15 31.15 26.8 31.1667 27.8333 27.8333 0 25.8333 25.0667 25.0667 0 0 24.7 28.5 23.8 26 26 26 25.5 25.5 27.5 24.5 24.5 27.5 26 25.5 27.8333 28.2 28.2 0 23.6667 27.8333 28.2 0 34.5 20 25.5 25.5 0 0 28 26 26.5 26.5 26 32 25.5 25.5 27 27.5 0 26 27 27 27 25 0 0 26 0 0 36.6667 27.5 27 27.5 27.5 27 30.5714 0 0 27 21.25 27.5 26.4286 0 25.0833 0 24.75 22.1667 21.1667 0 0 37 0 0 22 22 16.5 23 23 24.5 0 0 0 27.25 28.1333 0 25.6667 20 28.5 30.2 30.3333 0 30.3333 0 29.5 29.5 0 24.5 0 0 0 30 25 0 0 0 33 0 33 0 32.5 0 0 39 0 0 39.75 0 0 0 0 37.3333 0 0 39.6 37.3333 34.5 39 0 0 0 0 0 0 0 0 0 0 0 0 0 0 0 0 0 0 0 0 0 0 0 0 0 0 0 0 0 0 0 27.2222 0 0 0 0 0 0 0 0 -23.75 -23.75 0 0 0 -202.293 0 0 0 -44.6644 -31.0556 -31.0556 0 -44.6644 0 0 -145.688 -14.8182 0 -209.569 -282.486 0 0 -47.5269 -47.5269 0 0 0 0 0 -47.5269 0 0 -188.525 -128 0 0 -256.754 0 -47.5269 -275.67 -262.243 -47.5269 -15.25 0 0 0 0 0 0 0 0 -48.7669 -282.983 0 -188.525 -128 -128 -282.486 -24.383 -24.383 -24.383 -209.569 -209.569 -209.569 0 0 -275.67 -275.67 0 -30.2134 -40 -40 0 -47.5269 0 -211.029 0 -30.3585 -30.3585 0 0 -44.6644 -44.6644 -31.0556 0 0 0 -188.525 0 0 0 0 0 0 -276.698 -276.698 0 -275.67 0 0 -188.525 -33.3968 0 -252 -165.46 0 -48.7669 0 0 0 -86.8407 -86.8407 0 -50.7524 -179.057 -266.709 -241.051 0 -282.983 -48.7669 0 0 -31.0556 -54.4 0 0 -35.193 -35.193 -257.611 -211.029 0 0
18 18 18 18.5 20 20 21.5 21.5 21.5 22 22 20.3333 20.5 21.5 0 0 0 24 24.5 25.5 0 24.5 24.5 24.5 25.6667 26 26.5 26 27.1667 27.1667 0 28 28.5 29 29 29 29.5 0 0 0 0 30.5 31.5 32 32.5 33 33.5 0 32.5 32.5 32.5 33 33.5 34.5 35 35.5 36 0 0 0 36.5 37 37.5 38 38 0 37 37.5 38 38.5 0 39.5 40 40.5 41 0 0 0 41.5 42 42 42 42 42.5 43 43.5 44 44.5 45 45.5 0 45 45.5 46 46.5 0 0 0 48.5 49 49 49 0 48 48.5 49 49 49.5 50 50.5 51 51.5 52 52.6667 0 0 0 0 0 0 54 54.5 54.6667 54.8333 54.8333 55 55 55.5 56 0 56.5 56.5 0 0 57 57.5 58 58.5 0 59 59.5 60 60.5 61 61 61.5 0 62.5 0 63 0 62.5 62.5 62.5 0 63 63 65 0 64 64.5 65 0 65.5 66 0 67 67 0 0 0 0 67.5 0 0 0 75.3333 0 0 0 0 0 0 0 0 63.2185 0 72.5625 85.2667 0 55.8428 41.4348 41.331 56.1432 56.1432 56.1432 44.5962 0 0 71.2456 71.2456 71.2456 71.2456 56.1432 68.2857 68.2857 71.2456 71.2456 71.2456 56.1432 56.1432 56.1432 54.3162 68.0326 68.0326 55.9598 55.9598 -140.025 55.9598 55.9598 55.9598 52.5762 52.5762 52.5762 52.5762 52.5762 5.4293 52.5762 52.5762 52.5762 5.4293 5.4293 5.4293 52.5762 5.4293 -44.6014 81.2148 -66.4933 -66.4933 5.4293 5.4293 5.4293 52.5762 55.9598 55.9598 55.9598 55.9598 55.9598 52.5762 52.5762 52.5762 52.5762 52.5762 52.5762 52.5762 52.5762 52.5762 74.2342 52.5762 52.5762 52.5762 55.9598 55.9598 55.5985 55.5985 -129.682 0 -129.682 -19.6644 57.2683 57.2683 -19.6644 52.5762 74.2342 0 0 0 0 0 92.5588 0 0 70.0286 0 0 0 0 0 0 0 0 0 0 56.4667 32.8056 29.35 0 34 0 32.5 32.5 0 37 41 0 22 32.1429 29.35 0 29.35 0 0 36.5 0 0 31 31 30.8 0 31.1667 26.6667 34.5 30.8 26.8 0 30.8 27 27 29 26.8 26.8 26.8 31.1667 27 28 26.8 27.8333 26.8333 32 31 31 34 27.3333 24.7 24.7 21.5 25.5 23 28 0 24.5 24.5 25.5 0 0 0 28.2 25.6667 25.6667 0 0 0 28.2 22.75 26 34.5 0 0 25.75 25 25 27.5 0 0 28 26.5 0 26.4 26.4 26.5 26.5 0 0 0 26.5 26.5 26 12.6 32 33.2857 36.7143 27 27.5 27.5 30.5714 21.25 21.25 30.5714 21.25 27.5 21.5 21.5 30.5714 26.5 26.5 23.7143 23.7143 23.7143 23.7143 23.7143 21.5 23 23 23 0 28.8889 16.9 23.5 0 0 27.25 0 27.25 0 0 0 0 26 26 0 32 27.5 0 30.2 25.5 30.2 30.2 0 0 0 0 27.5 27.5 27 0 0 0 0 0 0 0 37 36.6667 0 0 0 0 41.6667 0 36.6667 36 36.6667 0 40 37.3333 40 0 0 0 41.5 0 0 0 0 0 0 0 0 0 0 0 0 0 0 0 0 0 0 0 0 0 0 0 0 0 0 -153.481 -121.893 -121.893 0 0 0 0 0 0 0 0 0 0 0 0 -48.7669 -266.709 -266.709 -267.946 0 -31.0556 -31.0556 -31.0556 -44.6644 -0.1 -201.417 0 -256.754 -209.569 0 0 0 0 0 -36.0921 0 0 0 -282.983 -282.983 0 0 -282.983 -188.525 -188.525 -188.525 0 0 0 -282.486 -47.5269 0 -22.6471 0 -31.0556 0 0 17.8482 -70.318 0 -14.8182 0.666667 0 -48.7669 0 -37.4615 -37.4615 -128 -128 0 -30.3585 -30.3585 0 0 0 0 -130.429 0 -275.67 -275.67 -45.1333 0 -40 -36.0921 -47.5269 -47.5269 -47.5269 0 -282.983 0 0 -47.5269 -31.0556 -44.6644 -44.6644 -31.0556 0 0 -241.051 -188.525 0 0 0 0 -50.5288 0 -276.698 0 0 0 -244.894 -188.525 0 0 0 0 0 0 0 0 0 -266.709 -282.983 -257.09 -27.2292 -27.2292 -266.709 -281.962 0 -188.525 0 -70.318 0 0 0 -27.1852 0 0 0 -45.871 -211.029 -257.611 0 0
18 18.5 19 19 20 20 20.5 21 21.5 0 0 0 21 21.5 22 22.5 23.5 0 0 25.5 0 24.5 24.5 24.5 25.3333 26 26.5 26 27 27 26 28 28.5 29 29 29 29.5 30 30.5 31 0 0 0 0 32.5 33 33.5 34 0 0 32.5 33.5 34 34.5 35 35.5 36 0 35.5 36 36.5 0 0 0 0 37.5 37.5 37.5 39 39 39 39.5 40 40.5 41 41.5 42 0 0 0 0 0 0 0 0 43.5 44 44.5 45 45.5 0 45 45.5 46 46.5 47 47 47 0 0 0 0 0 0 48.5 0 49.5 50 50 50.5 51 51.5 52 52.3333 0 53.5 54 54.5 0 54 54 54.5 54.6667 54.6667 54.8333 55 55.5 56 0 55 55.5 56 0 57 57 57.5 58 0 59 59 59.5 60 60.5 61 61 61.5 0 61 63 0 0 0 0 0 0 0 0 65 0 64 64.5 66.5 0 65.5 66 66.5 67 67 67.5 68 0 0 0 0 0 73 0 0 0 0 66 0 0 0 66.5 0 0 0 91.6 77.4331 0 44.5308 56.1432 57.2683 57.2683 57.2683 54 57.2683 72.5625 72.5625 72.5625 57.2683 56.1432 71.2456 63.0755 65.8377 72.5625 72.5625 72.5625 57.2683 56.1432 56.1432 68.0326 68.0326 68.0326 61.4624 0 0 55.9598 55.9598 55.9598 52.5762 52.5762 52.5762 52.5762 52.5762 5.4293 52.5762 52.5762 52.5762 5.4293 5.4293 5.4293 52.5762 5.4293 5.4293 -66.4933 -67.6705 -67.6705 -77.535 5.4293 5.4293 52.5762 55.9598 55.9598 55.9598 55.9598 55.9598 52.5762 74.2342 52.5762 -129.682 -129.682 52.5762 52.5762 52.5762 52.5762 0 -129.682 -129.682 -129.682 52.5762 52.5762 16.425 16.425 55.9598 0 0 -129.682 -19.6644 -19.6644 52.5762 52.5762 52.5762 52.7132 0 0 0 0 0 0 -10.5 0 0 0 0 0 0 0 0 0 0 56.4667 51.5 56.4667 56.4667 0 0 0 0 0 0 0 0 0 0 0 0 0 20 0 20 0 0 27.5 30.6667 33 0 28.5 30.6667 27.1667 27.1667 27.1667 30.8 30.8 27 0 0 29 27.1667 27.1667 0 0 0 0 28 26.8333 23 26.3333 23 29.6667 34 0 0 24.7 24 20.5 20.5 24.7 28.5 27.3333 27.3333 25.2 25 0 0 0 25.6667 24 30 0 0 0 23.5 25.1905 27.6 27.6 0 25.75 25.75 25.75 0 29.5 25 0 0 0 28.25 31.5 0 0 26.4 0 26.4 26.4 26 26.5 33.2857 33.2857 32 27.5 0 27.5 0 30.5714 21.25 27 21.25 0 0 29.5 26 0 0 0 27 29 29 12.8333 12.8333 21.5 21.5 21.5 21.5 21.5 28.8889 28.8889 24.75 24.75 24.75 28 27.3333 0 28 24.5 0 0 0 0 0 0 0 0 0 26 25.5 0 0 0 0 0 0 27 24.6667 27 0 27 26 27 27 27 0 0 0 0 0 0 0 41.6667 39 39 0 0 0 38 0 38 36.6667 0 0 0 0 0 0 0 0 0 0 0 0 0 0 0 0 0 0 0 0 0 0 0 0 0 0 0 0 0 -244.894 -0.1 0 0 -0.1 -0.1 0 0 0 0 0 -48.7669 0 0 0 -48.7669 -282.983 0 -49.8493 -31.0556 -31.0556 0 -31.0556 -44.6644 -96.3071 0 0 17.8482 -276.698 -276.698 0 0 0 -281.962 -35.193 0 0 -282.983 0 0 0 -282.983 -282.983 -282.983 -96.3071 0 17.8482 -24.383 -282.486 -70.318 -276.698 -45.3333 0 0 0 0 -50.5288 -48.7669 0 -70.318 0 0 -36.0921 0 -37.4615 -37.4615 -128 0 0 0 0 0 0 -130.429 -130.429 0 -209.569 0 -209.569 0 -162.578 -47.5269 -47.5269 -47.5269 -48.7669 -47.5269 -282.486 -282.983 -282.983 0 -47.5269 -31.0556 -44.6644 -44.6644 -47.5269 0 0 -241.051 0 0 0 0 -165.46 -50.5288 -50.5288 -50.5288 0 0 -50.5288 -169.939 -267.946 0 0 0 0 0 -50.5288 -37.4615 -276.698 -235.978 -235.978 -282.983 -282.983 0 0 0 -5.58427 -47.5269 -281.962 0 -70.318 0 0 0 -47.5269 -5.58427 0 0 0 0 -36.0921 0 0
0 18.5 0 0 20 20 20.5 21 21.5 22 22 20.5 21 21.5 22.5 23 23.5 24.3333 24.6667 0 0 0 0 0 0 26 26.5 25.5 28 28 25.5 28 28.5 29 29 29 29.5 30 30.5 31 31.5 0 31.5 0 32.5 33 33 33 34.5 34.5 0 33.5 34 34.5 35 35.5 36 0 35.5 36.5 36.5 37.5 38 0 0 0 0 37.5 38 38.5 39 39 39 40.5 41 41.5 42 42.5 41.5 42 42 42 42 42.5 43 0 0 0 0 46 46.5 0 45.5 46 46.5 47 47 47 48.5 48.5 48.5 48.5 0 48 0 49 0 0 50.5 51 51 51.5 52 0 51.5 52 54 54.5 0 54 54 54.5 54.5 54.5 54.5 55 55.5 56 0 55 55.5 56 0 57 57.5 58 58 0 59 0 0 0 0 0 0 0 0 61 63 63 0 63 63 63 62.5 63 63 0 0 0 0 0 0 0 0 0 0 0 67.5 68 68 0 0 0 0 0 0 0 0 0 0 0 0 0 0 0 91.6 53.6786 0 54 73.5 57.2683 56.1432 73.9883 57.2683 57.2683 57.2683 57.2683 57.2683 72.5625 57.2683 57.2683 71.2456 57.2683 65.8377 57.2683 72.5625 72.5625 57.2683 73.9883 57.2683 81.2148 51.9694 51.9694 65.8377 65.8377 0 0 55.9598 52.5762 52.5762 52.5762 52.5762 52.5762 52.5762 52.5762 51.9694 51.9694 52.5762 52.5762 52.5762 52.5762 52.5762 52.5762 5.4293 5.4293 -66.4933 -67.6705 -67.6705 -77.535 5.4293 5.4293 52.5762 52.5762 52.5762 55.9598 55.9598 52.5762 52.5762 52.5762 52.5762 52.5762 -129.682 52.5762 52.5762 52.5762 52.5762 0 52.5762 52.5762 -129.682 -129.682 52.5762 16.425 16.425 16.425 -129.682 0 -282.983 -282.983 -282.983 -129.682 52.5762 52.5762 -47.5269 0 -100.938 0 25.5 0 0 0 0 0 0 0 32 0 0 0 0 0 45.8333 0 0 0 34.25 34.25 34.25 0 34.25 32.8056 0 32.8056 32.5 32.5 0 0 0 0 29.35 0 0 32.1429 0 0 29.6667 22 22 0 22 30.6667 29.6667 29.6667 28.5 28.5 0 0 29 28 29 29 26 25.8 0 33 29.75 33 29.75 26.3333 26.3333 32 29.5 31 28 28 26.8333 23 31 0 0 0 0 0 25.2 25.2 26 25 25.8 21.1667 26 26 26 0 27.6 30 27.6 27.6 27.6 25.1905 25.1905 25.25 0 25.25 25.25 25 0 0 31.5 0 25 0 0 0 0 37.6923 37.6923 31.75 31.2 37.6923 29.8571 0 27.5 37.5 0 27.5 27.5 34 34 32 34 27 29 24.6 27.6 12.6 0 0 27.5 27 13.8333 0 21.25 21.5 21.5 30.5714 0 0 23.7143 23.7143 24 29 29 31.5 31.5 19.75 0 0 26.5 27.3333 27.3333 22 24 19.75 22 0 0 0 0 0 0 0 30 0 0 0 0 27 27 0 0 0 0 0 0 0 36 0 38 41.3 39 0 35.6667 41.6667 0 0 38 37 0 39.5 36 0 0 0 0 0 0 0 0 0 0 0 0 0 0 0 0 0 0 0 0 0 0 0 0 0 0 0 0 -3.23529 0 0 0.666667 -31.0556 -31.0556 -31.0556 0 0 0 -282.983 -48.7669 0 0 -209.569 -209.569 0 -47.5269 -31.0556 -27.2292 -27.2292 0 -188.525 -241.051 -275.67 -275.67 0 -276.698 -235.978 -3.23529 0 -201.417 -281.962 -35.193 -281.962 0 53.4388 -281.962 -281.962 -282.983 -282.983 -145.688 -209.569 17.8482 17.8482 -50.5288 0 -276.698 -271.398 -23.6782 0 0 0 -50.5288 0 -48.7669 0 0 0 0 0 -30.2134 -40 0 0 0 0 0 -188.525 0 0 -130.429 -130.429 0 0 0 -209.569 -275.67 -162.578 -47.5269 -47.5269 -48.7669 -48.7669 -276.698 0 -50.5288 0 0 0 -44.6644 -44.6644 -47.5269 -47.5269 -35.193 0 0 0 -25.1429 0 -165.46 -165.46 0 0 0 0 -211.029 -211.029 0 -241.051 -282.983 0 0 -282.983 0 -36.0921 -36.0921 -29.6667 -209.569 -145.688 -139.951 -276.698 0 0 0 -47.5269 0 -262.243 0 -42.5 -47.5269 -36.0921 -229.985 0 0 0 0 0 0 0 0 0
0 17 0 18.5 0 21 21 21 21.1667 21.8333 21.8333 0 21 21.5 22.5 23 23.5 24.5 25 25.5 26 0 0 24.5 25.5 0 0 0 0 28 24.5 28 28.5 29 29 29 29.5 30 30.5 31.5 32 0 31.5 31.5 31.5 0 0 0 0 34 0 33.5 34 34.5 35 35.5 0 35 35.5 36.5 37 37.5 37.5 37.5 0 36.5 37 0 0 0 39 0 38.5 40.5 41.5 42 42.5 43 0 42 42 42 42.5 43 43.5 0 44.5 45 45.5 0 0 0 0 46.5 47 47 47 47 46.5 46.5 48 48.5 0 48 48.5 49 49.5 50 0 0 51.5 52 52 0 51.5 52 52.5 0 53.5 54 54 54 54 54 54.5 0 0 0 0 0 55.5 56 58 0 57.5 58 58 0 59 59.5 60 60 60.5 61 61.5 62 0 61 63 63.5 0 0 62 62 62.5 63 63 65 0 64 64.5 66.5 0 66 66 66.5 67 67 0 68 68 0 76.8333 0 0 0 0 0 0 0 0 0 0 0 65 0 0 73.9883 57.2683 73.9883 76.5 57.2683 56.1432 0 54 57.2683 57.2683 57.2683 72.5625 72.5625 71.2456 48.4643 56.1432 56.1432 65.8377 65.8377 57.2683 57.2683 73.9883 73.9883 81.2148 57.2683 52.5762 65.8377 65.8377 57.2683 0 0 52.5762 52.5762 52.5762 74.2342 52.5762 52.5762 52.5762 52.5762 73.9883 73.9883 53.9498 60.3676 52.5762 52.5762 52.5762 52.5762 5.4293 5.4293 81.2148 -66.4933 -66.4933 5.4293 5.4293 52.5762 52.5762 52.5762 52.5762 52.5762 52.5762 52.5762 52.5762 0 60.792 60.792 52.5762 52.5762 52.5762 52.5762 52.5762 0 55.9598 55.9598 55.9598 55.9598 55.9598 55.5985 55.5985 55.5985 52.5762 52.5762 0 0 0 0 -129.682 -129.682 0 28.3529 80.5667 0 -58.8511 0 0 60.792 0 23.1351 0 0 0 0 0 0 0 0 47 -54.3333 33.5 33.5 47 32.8056 34.25 29.6667 0 0 0 32 0 0 0 0 0 0 0 0 0 0 28.25 0 29.8333 29.8333 37 34 29 30.5 30.5 27 29.5 29.5 32 28.5 25.8 25.8 25.8 25.8 27.1667 26 26 27.1667 26.9 29.75 25.125 31.25 31.25 21.8333 31.25 25.125 21.8333 27.1667 27.1667 26 26 29.5 0 25.5 26 26 27 0 25.2 25.2 25.8 25.8 25.8 25.8 27.6 26.8333 27.6 24 27.6 0 26.75 29 20 0 26.75 0 0 25.25 25.5 0 0 26.5 0 0 0 0 25 23.5 29.8571 37.6923 37.6923 29.8571 29.8571 29.8571 0 0 0 0 0 33.2857 36.7143 37.5 32 25.5 0 22.5 27.6 12.6 17.6667 12.6 12.6 21.5 24.6 0 14 29.5 24.6 27.6 0 24.6 27 27 21.5 21.5 21.5 26 0 0 24 20.75 20.75 20.75 29 0 0 0 0 17 0 0 0 33 30.2778 30.2778 0 0 0 0 0 0 0 0 0 0 34 35.5 36 0 0 0 37.5 0 41.3 37.5 35.6667 35.6667 0 0 38 39 44 0 0 0 0 0 0 0 0 0 0 0 0 0 0 0 0 0 0 0 0 0 0 0 0 0 0 0 0 -64.2 12.1765 86 -13 0 0 -86.8407 -27.2292 0 0 0.666667 0 -145.688 -145.688 8.38597 -145.688 -201.417 0 -202.214 0 -44.6644 0 -27.2292 0 0 0 -31.0556 -202.293 0 -162.578 0 0 0 0 0 0 0 0 0 -281.962 0 -50.5288 -50.5288 0 0 0 0 -282.983 -282.983 -96.3071 -47.5269 0 0 0 -48.7669 -282.983 0 -282.983 -282.983 -241.051 -241.051 -282.983 -238.5 0 0 -241.051 -241.051 0 -44.6644 -202.293 -29.5 -35.193 0 0 0 0 -209.569 -209.569 -30.2134 -37.1429 0 -162.578 -188.525 -188.525 0 -165.46 -165.46 0 0 0 0 0 0 0 0 0 -128 -28.8333 0 0 0 -47.5269 -47.5269 -47.5269 -50.5288 -30.3585 -30.3585 -42.9 0 0 -241.051 -50.5288 -30.3585 0 0 0 0 -209.569 -34.1633 -36.0921 -281.962 -276.698 -276.698 0 0 -201.417 -47.5269 0 0 0 0 0 -36.6667 0 0 0 0 0 -275.67 -47.5269 -47.5269 0 0
18.5 18.5 18.5 18.5 21 0 0 21 21.1667 21.1667 21.8333 0 21 21.5 22.5 23 23.5 24.5 25 25.5 26 26 26 0 25.5 26 26.5 0 0 0 0 28 27.5 27.5 27.5 29 29.5 30 30.5 31.5 0 31 31.5 31.5 31.5 33 32.5 32.5 32.5 0 0 0 0 0 0 35.5 36.5 0 36 36.5 37 37.5 0 0 36 36.5 37 37.5 38 38.5 0 0 0 0 0 42 42.5 43 0 42 42 42 42.5 43 0 42.5 44.5 45 45.5 46 46.5 0 46 0 0 0 47.5 47.5 46.5 46.5 48 48.5 0 48 48.5 49 49.5 50 0 51 51.5 0 0 0 51.5 52 52.5 0 53.5 54 54.5 54.5 54.5 54 0 55 55.5 56 0 55 0 0 0 0 57.5 58 58 0 59 59.5 60 60 60.5 61 61.5 0 0 0 0 0 0 0 0 62 0 63 63 63.5 0 64.5 65 65 0 66 66 66.5 0 67 67.5 68 68.5 68.5 68.6667 68.6667 0 0 71.8333 0 0 0 0 0 0 0 0 0 54 57.2683 71.2456 57 0 73.9883 61.4624 0 0 0 57.2683 56.1432 71.2456 68.2857 71.2456 0 58.6999 52.5762 52.5762 52.5762 57.2683 73.9883 73.9883 73.9883 57.2683 57.2683 52.5762 52.5762 52.5762 52.5762 52.5762 52.5762 52.5762 52.5762 52.5762 52.5762 52.5762 52.5762 52.5762 0 72.0895 0 0 72.0895 73.9883 52.5762 52.5762 52.5762 5.4293 81.2148 57.2683 73.9883 80.7875 5.4293 52.5762 52.5762 52.5762 52.5762 0 52.5762 52.5762 52.5762 52.5762 -77.535 60.792 60.792 52.5762 52.5762 52.5762 -129.682 52.5762 52.5762 55.9598 55.9598 41.4348 41.4348 0 0 -130.017 52.5762 52.5762 52.5762 -129.682 0 0 5.4293 0 0 0 -208.587 0 0 -58.8511 -58.8511 48.6596 0 0 0 0 0 7.5 7.5 7.5 43.6 0 0 0 0 0 0 0 0 31.375 0 0 34.25 34.25 35.7083 29.6667 0 0 84.8 84.8 28 0 0 0 0 28.25 29.5 29.5 29.8333 0 0 27 25 33.1667 33.1667 29.6667 29.6667 0 29.6667 29.6667 27 29.5 29.5 26.5 26.5 27.1667 24 26.9 0 0 25.125 0 0 31.25 25.125 25.125 26.9 29.75 25.125 27.1667 21.8333 0 24.5 24.5 0 28.5 28.5 27.5 27.5 0 0 0 0 0 27 27 24 27.6 0 0 29 22.7 24 0 26.75 26.75 0 0 29 27 27 0 0 0 0 0 23.5 0 22.0556 0 27.3333 27.3333 0 29.8571 29.8571 35.75 27 35.75 32 32 27.5 16.3333 0 0 20.8333 23.6667 22.5 22.5 23.6667 23.6667 32 0 0 0 34 27 27 29 27.6 24.6 22 22 22.5 24.5 24.5 24 0 24 0 30.5 24.5 24.5 18.3333 21.75 22 0 0 0 0 22 26 0 0 0 30.5 30.5 0 0 0 0 0 0 0 0 0 0 0 0 0 35.6667 36.5 36.5 37 0 0 0 0 36.5 36.5 38.5 38.5 0 0 0 0 0 0 0 0 0 0 0 0 0 0 0 0 0 0 0 0 0 0 0 0 0 0 0 0 71.5 0 64 0 0 -48.7669 0 0 0 0 -70.318 -145.688 -145.688 -145.688 -209.569 0 64 0 0 -44.6644 0 -30.3585 -47.5269 0 -275.67 -209.569 -44.6644 -0.1 0 -282.983 0 -3.23529 0 -70.318 0 -70.318 -209.569 -188.525 -188.525 -241.051 -50.5288 -50.5288 0 0 -282.983 -282.983 -282.983 -282.983 34.717 -47.5269 -44.6644 0 0 0 0 0 0 0 0 -241.051 -282.983 0 0 0 0 -188.525 0 -153.481 -153.481 -281.962 -281.962 0 0 0 0 0 -44.6644 0 -42.5 0 0 -188.525 -188.525 -188.525 0 0 0 0 0 0 0 -188.525 0 -40 -282.486 -14.8182 -28.8333 0 -14.8182 0 -47.5269 0 -239.579 0 -25.1429 -30.3585 0 -47.5269 -47.5269 -50.5288 -25.1429 -25.1429 -42.9 0 0 0 -282.486 -47.5269 -281.962 -40 -40 -47.5269 -47.5269 -70.318 0 -47.5269 -47.5269 -44.6644 0 0 0 0 0 -43.8148 -162.578 0 -42.1852 -275.67 0 -47.5269 0 0
18.5 18.5 18.5 18.5 21 21.5 22 22 21.5 21.5 0 0 0 0 0 23 23.5 24.6667 25 25.5 26 26 26 0 25 25 26.5 26 28.6667 28 24.5 0 0 0 0 0 29.5 30.3333 30.6667 0 30.5 31 31.5 31.5 31.5 33 32.5 32.5 32.5 34 0 33.5 34 34.5 35 0 0 0 0 0 37 37.5 37.5 37.5 36 36.5 37 37.5 38 38.5 39 39.5 0 39.5 41.5 0 0 0 0 0 0 42 42.5 43 43 43 44.5 45 45.5 46 0 45.5 46 46.5 47 47.5 0 0 0 0 47 48.5 0 48 48.5 49 49.5 50 0 51 51.5 52 52 0 0 0 0 0 0 0 54 54 54 54 54.5 55 55.5 56 56.5 0 56 57.5 58 0 0 0 0 0 0 0 0 60 60.5 61 61.5 62 0 62.5 63 63 63 0 62 0 0 0 0 63.5 65.5 0 65 65 0 66 66 66.5 67 67.5 68 68 68.5 69 68.6667 -4 0 0 0 0 0 0 0 0 0 0 0 0 0 0 71.2456 63.2185 77.6818 74.2849 83.8405 72.5625 72.5625 57.2683 57.2683 53.9498 54.0408 59.1 72.0895 72.0895 -16.6393 52.5762 75.4337 52.5762 62.7991 74.2849 57.2683 57.2683 57.2683 77.4331 75.4337 52.5762 52.5762 52.5762 52.5762 60.792 52.5762 52.5762 52.5762 55.9598 55.9598 55.9598 52.5762 52.5762 72.0895 0 0 72.0895 73.9883 57.2683 52.5762 52.5762 74.2342 0 57.2683 73.9883 60.3676 5.4293 52.5762 52.5762 52.5762 52.5762 -16.3385 -16.3385 52.5762 5.4293 -77.535 -77.535 88.8261 52.5762 0 52.5762 -129.682 -129.682 52.5762 52.5762 -129.682 0 41.4348 39.9643 0 0 0 0 52.5762 -129.682 -129.682 -129.682 0 5.4293 5.4293 5.4293 0 -205.5 -139.951 0 0 0 -58.2143 0 0 0 0 57 0 34 0 0 0 0 0 0 45.8333 0 0 0 0 0 0 29.6667 34.25 0 0 0 0 0 84.8 0 61.25 0 0 29.0476 33 29 29.6667 29.6667 0 0 40.6667 0 0 0 0 0 29.5 29.6667 33.1667 25 29.6667 24.1667 24.1667 27 0 27 23.5 28.7 27.5 28.5 28.5 0 29.5 24 0 26.9 26.9 0 25.125 25.125 0 24.5 25.25 28.5 28.5 28.5 24.5 0 25.5 25.5 24.5 24.5 0 0 0 0 27 27 0 26.8333 21.1667 22.7 28 28 0 0 0 27 25.25 26 22.8571 0 27.5 27.5 0 0 29.6667 0 0 37.1667 27.3333 0 27.3333 0 24.1667 37.6923 37.6923 37.6923 23 24.1667 27.3333 31.2 33.2857 31.2 0 0 0 0 22.5 16.3333 33.2857 16.3333 3.5 0 0 21 23 27.6 22 21 0 22.5 0 36 22 31.5 0 0 0 0 23.4 30.5 0 22 0 21.5 20.6667 23.4 22.5 22.5 0 0 0 25.5 0 0 0 0 0 0 0 0 0 0 32 31 0 32 35 36.5 36.5 37 36.5 36.5 36.5 35 0 36 36 0 37 36 0 0 0 0 0 0 0 0 0 0 0 0 0 0 0 0 0 0 0 0 0 0 0 0 0 0 0 0 0 0 -48.7669 -48.7669 -27.2292 -48.7669 -48.7669 8.38597 8.38597 0 0 0 0 0 0 0 -70.318 0 0 -30.3585 0 0 0 -145.688 -209.569 -0.1 17.8482 -282.983 0 -270.111 0 -48.7669 -47.5269 -70.318 -70.318 0 -188.525 -282.983 17.8482 -50.5288 0 0 0 0 0 0 53.4388 -5.58427 -27.75 0 16.75 0 0 0 -282.486 -282.486 -282.486 0 0 0 0 0 0 -31.9143 -40 -40 -40 0 0 -275.67 -275.67 0 0 -42.6567 -44.6644 -47.5269 0 -48.7669 0 -241.051 -188.525 0 0 0 -209.569 0 0 -40 -35.193 -35.193 -281.962 -31.9143 -282.486 -282.486 -24.383 -24.383 0 0 0 -153.481 -239.579 -25.1429 0 -28.8333 0 -70.318 -70.318 -28.8333 -37.2826 -30.3585 -25.1429 -30.3585 0 -30.3585 0 0 -40 -37.2826 -40 -47.5269 -47.5269 -70.318 -24.383 0 -47.5269 0 0 0 0 0 0 -165.46 -276.698 0 -227.751 0 0 0 0 0
0 18.5 18.5 18.5 19.5 20 20.5 21.5 21.5 21.5 21.5 0 21 21.5 22.5 0 0 0 25 25.5 26 26 26 0 25.5 26.5 26.5 26.5 28.6667 28.6667 26 28.3333 27.6667 27.6667 27.6667 27.5 0 0 0 0 0 0 0 32 32.5 33.5 33.5 33.5 33.5 34 0 33.5 34 34.5 35.3333 35.6667 36.5 0 36 36.5 0 0 0 0 37.5 37.5 37.5 37.5 38.3333 38.6667 39.5 0 39 41 41.5 42 42.5 43 0 0 41.5 42 0 43 0 42.5 43 45 45.5 46 0 45.5 46 46.5 47 47.5 47 47 47 46.5 0 49 0 48.3333 0 49 49.5 50 0 51 51.5 52 52.5 53 52 53.5 54 54.5 0 54 0 0 0 0 55 55 55.5 56 56.5 0 56 57.5 58 0 57.5 58.5 58.5 0 59 59.5 60 0 0 61 61.5 62 0 61 62.5 62.5 62.5 0 62 62 0 63 63.5 64 0 0 65 65 65.5 0 0 0 67 67.5 68 68 68.5 69 69 69.5 0 74 72 70 0 0 0 0 0 0 0 91.3333 91.3333 35.2667 51.5776 77.4331 83.8405 44.5962 68.2786 68.2786 72.5625 72.5625 72.5625 73.9883 72.0895 72.0895 72.0895 54.0408 52.5762 0 0 0 69.6161 52.5762 52.5762 0 60.3676 60.3676 60.792 60.792 60.792 72.5625 52.5762 52.5762 52.5762 52.5762 55.9598 55.9598 55.9598 55.9598 52.5762 52.5762 58.6999 56.1432 61.4624 39.9643 57.2683 0 57.2683 52.5762 52.5762 56.1432 48.4643 56.1432 56.1432 57.2683 5.4293 52.7132 5.4293 5.4293 -129.682 57.2683 81.2148 81.2148 75.1294 0 -129.682 52.5762 52.5762 52.5762 52.5762 52.5762 52.5762 52.5762 88.8261 55.9598 55.9598 -129.682 -129.682 52.5762 57.2683 57.2683 -209.569 -19.6644 -19.6644 -19.6644 -129.682 -129.682 0 0 -129.682 -129.682 -129.682 -129.682 -129.682 0 0 0 0 0 0 0 0 0 0 72.75 43.8571 0 0 0 38.6667 0 0 0 0 33.6667 0 0 0 0 0 0 0 0 0 0 61.25 0 0 30.3333 30.3333 29 30 30 0 28.25 0 28.2 0 0 0 0 56.8333 29.6667 0 27 28.25 0 0 29.5 27 0 23.5 29.4 28.7 27.5 27.5 0 0 23.5 19.5 0 0 27.5 27.5 0 25.5 0 28 30.2 23.6 24.5 0 25.25 28.5 28.5 25.75 25.75 24 0 0 0 0 0 0 0 19.4444 21.1667 21.1667 28 27.1667 26.5 0 27.1667 27.1667 0 30.7273 22.8571 22.8571 27 30.5 23.3056 30.5 30.5 0 0 0 27.3333 27.3333 28 37.6923 0 0 23 0 0 37.1667 37.6923 31.2 0 0 21 21 21 21 25.5 31.2 33.2857 32 23 21.5 21.5 0 21 0 0 0 31.3333 0 33.5 0 31.3333 33 25 24.7 26.5 0 0 0 0 0 14 23.4 23.4 23.4 20.6667 20.6667 0 0 0 0 0 25 25 25 0 0 0 0 0 0 30 33 33.5 32 0 36 36 36.5 36.5 35.5 35.5 36 36 36 37.5 37.5 37 37 0 0 0 0 0 0 0 0 0 0 0 0 0 0 0 0 0 0 0 0 0 0 0 0 0 0 0 0 -145.688 -282.983 -257.903 0 0 0 -282.983 -145.688 0 0 0 0 -209.569 -209.569 -70.318 -209.569 -209.569 0 0 -282.486 -209.569 0 17.8482 0 0.666667 27.2222 0 0 -70.318 -209.569 0 0 -275.67 -262.243 -262.243 0 0 17.8482 -50.5288 0 0 0 -209.569 0 0 -209.569 -270.111 -27.75 -18.75 -20.913 0 -47.5269 -44.6644 -282.486 -282.486 -282.486 0 0 0 0 -282.486 -282.486 -201.417 -40 -40 -40 -40 0 -47.5269 -47.5269 0 -47.5269 -31.0556 -31.0556 88.8261 0 -48.7669 -47.5269 -270.111 0 0 0 0 -209.569 0 0 0 -35.193 -35.193 -188.525 0 0 0 -30.3585 -30.3585 0 0 0 0 0 0 -25.1429 0 0 -48.7669 0 0 0 -42.9 17.8482 -24.383 0 -50.5288 0 0 0 -37.2826 0 -47.5269 -47.5269 -47.5269 -24.383 -282.486 -209.569 -209.569 0 -130.429 -130.429 0 0 -188.525 0 0 0 0 0 0 0 0
0 18.5 18.5 18.5 19.5 20 20.5 21.5 21.5 21.5 21.5 0 21.5 22 22.5 23.3333 23.6667 24.3333 0 0 0 0 26 0 25.5 26.5 26.5 26.5 26.5 27.6667 24.5 0 28.5 28.5 28 28 29.5 30 30 31.5 32 0 31.5 0 0 0 0 0 33.5 34 0 33.5 34 34.5 35.5 36 36.5 0 36 36.5 37 37 37 37 0 0 37.5 38 38.5 39 39.5 0 39 40.5 40.5 42 42 42 0 0 41.5 42 42.5 0 0 0 0 45 45.5 46 0 45.5 46 46.5 47 47.5 48 47.5 47.5 47.5 47 0 0 0 48.6667 0 0 0 0 51 51.5 52 52.5 0 52 53.5 54 0 53.5 53.5 53.5 53.5 54 54.5 0 0 0 0 0 0 0 57.1667 57.1667 0 57.5 58 58.5 0 59 59.5 60 60.5 0 61 0 0 0 61.5 62.5 62.5 62.5 0 62 62 0 63 63.5 64 64 0 65 65 0 66 66.5 67 0 0 68 68 0 69 69 69.5 0 70 -4.91667 0 0 0 0 71.5 0 0 68.2786 0 31.9 -4.91667 91.8503 0 83.8405 0 0 56.1432 0 0 77.6818 72.0895 73.9883 73.9883 57.2683 73.9883 52.5762 -140.025 -140.025 0 51.5776 0 52.5762 0 52.5762 52.5762 52.5762 60.792 60.792 52.5762 52.5762 52.5762 52.5762 52.5762 55.9598 -140.025 -140.025 55.9598 52.5762 52.5762 43.1667 23.3077 56.1432 56.1432 72.5625 72.5625 72.5625 60.792 52.5762 81.2148 56.1432 0 0 0 -77.535 -77.535 5.4293 5.4293 57.2683 57.2683 81.2148 57.2683 62.4762 62.4762 -129.682 52.5762 52.5762 52.5762 52.5762 52.5762 52.5762 52.5762 52.5762 52.5762 52.5762 -129.682 -129.682 52.5762 -129.682 -129.682 -19.6644 -19.6644 -19.6644 -19.6644 52.5762 -129.682 0 0 -129.682 -129.682 -129.682 -129.682 -129.682 -19.6644 71.2456 48.6596 0 0 0 36.5 0 48.8333 48.8333 -51 0 43.8571 43.8571 0 45 0 0 0 0 0 0 0 0 0 0 0 7.5 0 0 0 0 29.4 29.4 29.4 30.3333 30.3333 30 0 30 0 0 0 0 29.6667 35.3333 -55.6667 61.25 0 15.5 29.0476 29.6667 28.2 28.2 0 0 27 28.6 24.3333 27.5 28.7 28.7 0 0 23.5 24 19.5 24 26.5 26.5 26.5 26.5 23.5 31 29.5 23.6 30.2 30.2 22 30.2 24 26 25.75 26 25.75 24.75 24.75 0 25.375 25.375 24.75 0 0 0 0 0 0 0 25 0 0 0 26.5 0 0 22.8571 21.8015 23.3056 23.3056 30.5 0 32 0 22.0556 37.6923 0 0 27.5 27.5 0 0 0 0 30.5 0 11.75 0 21.5 21.5 31.75 31.75 37.6923 23 3 0 22.5 0 22 0 0 21.75 21 31.5 31.5 31.3333 33.5 22.5 33 33 0 0 31.3333 0 0 0 21 14.75 22.5 14.75 21 0 0 0 26 25.5 25.5 24 24 24 25 25 23 0 0 0 33.6667 0 0 34 32 0 35.5 36 36 0 36 36 40 35.75 36 0 34 36.5 0 37 0 0 0 0 0 0 0 0 0 0 0 0 0 0 0 0 0 0 0 0 0 0 0 -31.0556 0 0 0 -145.688 -145.688 0 -0.1 0 0 -145.688 -23.75 -70.318 -70.318 -209.569 0 -209.569 -145.688 -209.569 -209.569 -209.569 -24.383 -24.383 -282.486 -282.486 -24.383 0 0 -209.569 -0.1 27.2222 -70.318 -47.5269 -209.569 0 0 -275.67 -20.5507 -262.243 0 0 17.8482 -50.5288 0 0 0 0 0 0 0 0 -52.3333 0.375 -20.913 -47.5269 -47.5269 -0.1 -0.1 0 0 0 0 0 0 0 -0.1 -281.962 -153.481 -153.481 -37.2826 -40 -40 -47.5269 -47.5269 0 -47.5269 -31.0556 0 0 0 -47.5269 -47.5269 -70.318 -188.525 -188.525 0 0 -35.193 0 0 0 -188.525 -188.525 -188.525 -188.525 0 0 -50.5288 -44.6644 -44.6644 0 0 0 0 0 -25.1429 0 -47.5269 -47.5269 0 -33.3968 -34.1633 -31.9143 0 0 0 -49.8493 0 0 -37.2826 -37.2826 -40 0 -47.5269 -47.5269 -128 0 -201.417 0 -34.1633 -12 -130.429 -209.569 -44.6644 -188.525 -188.525 0 -270.111 0 -270.111 0 0 0
0 0 0 0 19.5 20 20.5 21.5 21.5 21.5 21.5 0 21.5 22 22.5 23.5 24 24.5 25 25 25 25.5 0 0 0 0 0 0 26.5 27.6667 27.6667 29 29 29 28.5 29 29.5 30 30 30 31.5 31.5 31.5 32.5 33 33.5 33.5 33.5 0 0 0 33 33 35 35.5 36 36.5 37 0 36.5 37 37 37 37.5 38 0 37.5 0 0 0 0 40 0 40.5 40.5 42 42 42 0 0 0 42 42.5 43 43.5 0 43 43.5 0 0 0 0 46 46.5 47 47.5 48 47.5 47.5 47.5 47 49 0 48.5 49 49 49.5 50 0 0 0 0 0 0 0 52.5 53.5 0 53.5 53.5 53.5 53.5 54 54.5 0 55 55.5 56 56.5 0 56 56.5 58 0 57.5 58 58.5 60 0 59.5 60 60.5 0 61 61.5 62 0 0 0 62 62.5 0 62 62.5 64 0 63.5 64 64 0 65 65.5 66 66 66.5 67 0 66 0 0 0 0 0 69.5 0 69 69 0 -4.91667 0 0 0 0 0 0 0 -27.2 0 0 0 84.2739 84.2739 61.4211 75.1294 71.2456 71.2456 71.2456 57.2683 57.2683 57.2683 57.2683 57.2683 55.9598 55.9598 0 0 0 0 0 52.5762 52.5762 52.5762 52.5762 52.5762 52.5762 52.5762 60.3676 87.9583 52.5762 52.5762 55.9598 -140.025 -140.025 55.9598 52.5762 52.5762 43.1667 74.6667 71.2456 0 72.5625 72.5625 72.5625 0 51.9694 5.4293 0 0 0 0 -81.5064 -81.5064 52.5762 81.2148 -19.6644 -19.6644 81.2148 57.2683 57.2683 62.4762 -129.682 -129.682 52.5762 52.5762 52.5762 52.5762 52.5762 52.5762 52.5762 52.5762 52.5762 -129.682 -129.682 -129.682 -129.682 -129.682 -129.682 -129.682 -129.682 -19.6644 0 0 0 0 -129.682 -129.682 0 -129.682 57.2683 71.2456 71.2456 71.2456 0 0 35 0 23.3 62 48.8333 0 0 33 23.7692 0 45 0 0 0 0 0 0 0 0 0 0 0 0 0 7.5 0 0 30.3333 0 0 29.4 32.5 0 0 0 0 0 0 0 30 30 30 30.25 30.25 0 29.0476 27 30.25 28.2 28.2 0 30.5 0 0 0 0 0 28 26.4 29.4 27.5 24.3333 26.4 0 27 26.5 29 29 29 0 0 0 0 25.5 22 0 0 26 30.2 26 26 26 24 0 26.25 25.375 25.375 27.5 27.5 26.6667 25.25 25.25 25 23 29 29 0 26.5 0 0 34.5 22.8571 0 0 30.5 32 35.75 22.0556 37.6923 20.5 0 21.8015 21.8015 21.8015 23.3056 26.6667 27.5 27.5 23.3056 26.6667 0 20 0 0 22.0556 0 27.3333 24.5 24.5 24.5 0 24 0 22 23 23 22.5 16.9 31.5 19.25 24 31.5 31.3333 31.3333 0 0 31.3333 22.5 19.25 0 22.5 15 0 19.25 19.25 31.3333 0 24.7 25.5 25 25 25.5 25.5 25.5 24.5 24.5 26 26 26 0 0 0 0 0 35 35 35.5 35.5 0 0 35 0 0 0 36 0 35.75 0 38 38 38 0 0 0 0 0 0 0 0 0 0 0 0 0 0 0 0 0 0 0 0 0 0 0 0 0 0 -70.318 0 0 0 53.7333 0 -33.0455 -0.1 0 -70.318 -70.318 -209.569 0 -209.569 0 -145.688 -145.688 -256.754 -256.754 -209.569 -282.486 18 -218.087 -209.569 -209.569 0 -201.417 -201.417 -281.962 -70.318 -47.5269 -47.5269 -48.7669 -47.5269 -162.578 70.5 -14.8182 17.8482 17.8482 0 0 0 0 0 0 -281.962 0 -162.578 0 -44.6644 0 -209.569 -0.1 -44.6644 0 0 0 0 -40 -202.293 -202.293 -44.6644 0 -281.962 -281.962 -281.962 -188.525 0 -44.6644 0 0 -44.6644 -44.6644 -44.6644 0 0 -47.5269 -47.5269 -209.569 0 -47.5269 0 0 -281.962 0 -281.962 0 -188.525 0 -188.525 -188.525 0 0 0 -44.6644 -44.6644 -44.6644 0 0 0 0 0 0 -270.111 -36.0921 0 0 -40 -40 0 0 0 0 -49.8493 -40 -37.2826 -40 -281.962 -281.962 0 -188.525 0 0 0 0 0 0 0 0 -44.6644 0 0 -36.0921 -5.58427 -5.58427 0 -11.7368 0 0
