0 0 0 0 0 0 0 0 0 0 0 0 0 0 0 0 0 0 0 0 0 0 0 0 0 0 0 0 0 0 0 0 0 0 0 0 0 0 0 0 0 0 0 0 0 0 0 0 0 0 0 0 0 0 0 0 0 0 0 0 0 0 0 0 0 0 0 0 0 0 0 0 0 0 0 0 0 0 0 0 0 0 0 0 0 0 0 0 0 0 0 -88.3333 0 0 0 0 0 0 0 0 0 0 0 0 0 0 0 0 0 -91.3333 -91.3333 -91 -91 -91 -91 -91 -90.1667 -90.1667 -90.5 -90.5 -90.8333 0 0 0 0 0 -93 -93 -92 -92 -92.6667 -92.6667 -91 0 0 0 0 0 0 0 0 0 0 0 0 -92.5 0 0 0 -91.6667 -92.5 -92.5 -93 -93 -93.5 -93.5 -93.3333 -92.5 -92.5 0 0 -93.3333 -93.6667 -92.5 -92.5 -93 0 0 -93.5 -93.5 -94 -94 -93.2667 -93.2667 -93.5 -93.5 -93.5 -94 -94 -94.5 -94.5 -94 -94 -92.5 0 0 -94.5 -94.5 -93.8333 0 0 0 0 0 0 0 0 0 0 0 -93.5 -93.5 0 0 -94.6667 -94.5 -94.5 -95 -95 -95 -94 -94 -94.5 -94.5 -95.3333 -95.6667 -95.5 -95.3333 -95.3333 -96.5 -96.5 -95 0 0 -96.1667 -96.1667 -96.5 -96.5 -95.1667 -94.5 -94.5 -95 -95 0 -95.5 -95.5 -96.1667 -96.1667 -96 -96.5 -96.5 -97 -97 0 -96.5 -96.5 0 0 -97 -96.1667 -96.1667 -96 -96.5 -96.5 -97 -97 -97 -96 -96 -96.5 -96.5 0 -97.6667 -97.6667 -96.5 -96.5 0 0 0 -97 -97.5 -97.5 -97 -97 0 -97.6667 -97.6667 0 0 0 0 0 -99 0 0 0 -94.5 -94.5 -98.5 -98.5 0 0 0 -98.3333 -98.5 -98.5 0 0 0 0 0 0 0 0 0 -98.5 -98.5 -98.5 -98.5 -98.5 -99 -98 -98 0 0 0 0 0 0 0 0 0 0 0 0 0 0 0 0 0 0 0 0 0 0 0 0 0 -99.6 -100 -100.167 -100.167 -100.5 -100.5 -100.5 -100 0 0 -101.5 -100 -100.333 -100.333 -99.5 0 0 -100 -100.5 -100.5 -101 -101.167 -101.167 0 -100.333 -100.333 0 -101.5 -101.5 -101.5 -101 -101.667 -101.667 -102 -101 -101 0 -101.6 -101.6 -102 -100.5 0 0 -101 -101.333 -101.6 -101 0 0 -102.667 -101 0 0 -103 -102.667 -102.667 -102.5 -101 -102.5 -102.5 -102 -102.5 -102.5 -103 -102.5 -101.667 -101.667 0 -103.333 -103.333 -103 -102.5 -102.5 -102.5 -103 -102 0 0 -103 -103 -103 -103 0 -103.5 -103.5 -103 -103 -103 -103 -103 -103 -103.4 -103.4 -104 -103 -103.5 -103.5 -103.667 -103.333 -102.5 -102.5 -104 -104 -103.5 -103.5 -104 -103.667 -103.833 -103.833 -103 -104 -103.5 -103.5 -104 0 -104.5 -104.5 -105 0 -104.5 -104.5 -104 -104 -105.333 -105.333 -105 -105 -106 -105.667 -105.667 -104 -104 -104.5 -104.5 -105 -105 -105 -105.5 -105.5 0 -105.2 -104.333 -104.333 0 0 -106 -105.5 -105.5 0 -106 -105 0 0 0 0 0 0 0 0 0 0 -106.333 -106.333 -106 0 -106 -106.5 -106.5 0 -107 -107 0 0 -101.5 -106 -106 -106 -106.5 -106.5 -107 0 0 0 0 0 0 0 0 0 0 0 0 -108 -106.5 -106.5 -106.5 -107 -107 -107 0 -107.333 -107.333 -107 0 -107 -107 0 -107.5 -107.5 -108 0 -108 -107 0 0 -108 -108 -108 -108 -108 0 0 0 0 0 0 0 0 0 -108.5 -108 -108 -108 -108 -108 -108.5 -108.5 0 -109 -108 0 -109 -108 0 0 -110 -109 0 -109 -109 -109 -109 0 0 -110 -110 0 0 -109 0 0 -109 -109.5 -109.5 -110 -110 0 -110 0 0 0 0 0 0 0 0 0 -111 -111 -111 -111 -111 -111 -111 0 0 0 0 0 0 0 0 0 0 -112 -111 0 -111 -111 -111 -111.5 -111.5 0 -112 -112 0 -112 0 0 0 0 0 -112 -112 -112 -112 0 -112 -112 -112 -112 -112 -112.5 -112.5 -113 0 -113 -113 0 0 0 0 0 0 0 0 0 -113 -113 -113.5 0 0 -113 -113 -113 -113 -113 -113 0 0 0 0 0 0 -113 0 -114 0 -114 -113.5 0 -114 0 0 -114 0 -114 -114 0 -114 -114 0 0 0 0 0 0 0 0 0 0 0 -115 0 -115 -115 -112.5 -113 0 0 0 0 0 0 0 0 0 0 0 -116 0 -116 -116 0 0 0 0 0 0 0 0 -115.5 0 0 0 0 0 0 0 -117 0 0 0 0 0 0 0 0 0 0 0 0 0 0 0 0 0 0 0 0 0 0 0 0 0 0 0 0 0 0 0 0 0 0 0 0 0 0 0 0 0 0
0 0 0 0 0 0 0 0 0 0 0 0 0 0 0 0 0 0 0 0 0 0 0 0 0 0 0 0 0 0 0 0 0 0 0 0 0 0 0 0 0 0 0 0 0 0 0 0 0 0 0 0 0 0 0 0 0 0 0 0 0 0 0 0 0 0 0 0 0 0 0 0 0 0 0 0 0 0 0 0 0 0 0 0 0 0 0 0 0 0 0 -88.3333 -88.3333 -89.5 -89.5 0 0 -90.5 -90.5 -91 -91 -89.8333 -89.8333 0 0 0 0 0 0 0 0 0 0 0 0 0 -91.3333 -90.1667 -90.5 -90.5 -90.8333 -90.8333 -90.1667 -90.1667 0 0 -92.5 -92.5 -92 -92 -92.4 -92.6667 -91 0 0 -91.5 -91.5 -92 -92 -91.5 -91.5 -92.1667 -92.1667 -92.5 -92.5 -92.5 0 0 0 0 -92.5 -92.5 -93.1667 -93.1667 -93.5 -93.5 -93.5 -92 -92 0 0 -93.3333 -93.3333 -94 -94 -92.5 0 0 0 0 0 0 0 -93.2667 -93.5 -93.5 -93.5 -94 -94 -94.5 -94.5 -94 -94 -94 0 0 -94.5 -94.5 -93.8333 -93.8333 -94 -92.5 -92.5 -93.5 -93.5 0 0 0 0 0 -93.5 -93.5 0 0 -94.5 -94.5 -94.5 -95 -95 -95 -94 -94 -94.5 -94.5 -95.3333 -95.3333 -95.3333 -95.5 -95.5 -96.5 -96.5 -95 0 0 -95.3333 -96.1667 -96.5 -96.5 -95.5 -95.5 -95.5 -94.8333 -94.8333 0 0 0 -96 -96 -96 -96.5 -96.5 -97 -97 -96 -96.5 -96.5 0 0 -97 -96 -96 -96 -96.5 -96.5 -97 -97 -97 -96 -96 -96.5 -96.5 0 -97.3333 -97.6667 -96.5 -96.5 -97 0 0 -97 -97.5 -97.5 -97.1667 -97.1667 0 -97.3333 -97.6667 0 0 0 0 0 0 0 0 0 0 0 -98.5 -98.5 -98 0 0 -98 -98.5 -98.5 0 -97.6667 -97.6667 -98 0 0 0 0 -98 -98.5 -98.5 -98.5 -98.5 -98.5 -99 -98 -98 0 -98.5 -98.5 -99 0 0 0 0 0 0 0 0 0 0 0 0 0 0 0 0 0 0 0 0 0 0 0 -99.8333 -99.8333 -100 0 0 0 0 0 -101.5 0 0 0 0 0 0 0 0 0 -101 -101.167 -101.167 -101 -100.5 -100.5 0 -101 -101 -101 0 0 -101.667 -102 -101 -101 0 -101.5 -101.5 -102 -100.75 0 0 -101 -101.333 -101.333 -102 0 0 -102.667 -101 -101.5 -101.5 -103 -102.429 -102.667 -103 -102.5 -102.5 -102.5 -102 -102.5 -102.5 -103 -102.5 -102.4 -101.667 0 -103.5 -103.5 -103 -102.5 0 0 -103 -102 0 0 -104 -103 -103 -103 0 -103.5 -103.5 -103 -103 -103 -103 -103 -103 0 0 -104 -103 0 0 -105 -103.333 -103.5 -103.5 -104 -104 -103.5 -103.5 -104 -103.667 -103.833 -103.833 -103 -104 -107.286 -107.286 -104 -104 -104.5 -104.5 -104.75 0 -104.5 -104.5 -104 -104 -104.333 -104.333 -105 -105 -105 -104.9 -105.667 -104 -104 -105.5 -105.5 -105 -105 -105 -105.5 -105.5 0 -105.2 -106.5 -106.5 -105 0 -105 -105.5 -105.5 0 -106 -105 -105.5 -105.5 0 -105.667 -105.286 -105.5 -105.5 -106 -105 0 0 0 -106 0 -106 -106.5 -106.5 -105.5 -107 -107 -106 -106 0 0 0 0 0 0 0 0 -107 -106.5 -106.5 0 -107 -107 0 -107.667 -107.667 0 0 0 -100.5 -106.5 -106.5 -107 -107 -107 0 -107.5 -107.5 -107 0 0 0 0 0 0 -108 0 -108 -107 0 0 -108 -108 -108 -108 -108 0 0 -109 -108 0 -109 -107.5 0 0 0 0 0 -108 -108 -108 -108.5 -108.5 0 -109 -109 0 0 -108 0 -109.5 -109.5 -109 0 -109 -109 -109 -109 0 0 0 0 0 -110 -109 -109 0 -109 -109.5 -109.5 -110 -110 -110 -110 -109 0 -110 -109 -110 -109.667 -109.667 0 0 0 0 0 -111 -111 -111 -111 -111 -111.333 -111.333 -111 0 -112 -111 0 -111 0 -112 -111 0 -111 0 0 0 0 0 -112 -112 0 -112 0 -112 -112 0 0 0 0 0 0 0 0 0 -112 -112 0 -112.5 -112.5 0 0 -113 -113 0 -113 -112 0 0 0 0 0 0 -113 -113 0 0 0 0 -113 -113 -113 -113 -113 -113 0 -114 -114 0 -114 0 0 0 0 0 -113.5 0 -114 -113.5 0 -114.5 0 -114.5 -114 0 -114 0 -114 -114 0 0 0 0 0 0 0 0 -115 -115 -115 -115 0 -112.5 -114 -115 -115 0 -115 0 0 -115 0 0 0 0 -116 -116 -116 -116 0 -116 -115 0 0 -116 0 0 0 0 -116 -116 -116 -116 0 0 0 0 0 -116 -116 -116.5 -116 0 -117 -117 0 -117 0 -117 0 0 -117 -117 0 0 0 0 0 0 0 0 0 0 0 0 0 0 0 0 0 0 0 0 0 0 0 0 0
0 0 0 0 0 0 0 0 0 0 0 0 0 0 0 0 0 0 0 0 0 0 0 0 0 0 0 0 0 0 0 0 0 0 0 0 0 0 0 0 0 0 0 0 0 0 0 0 0 0 0 0 0 0 0 0 0 0 0 0 0 0 0 0 0 0 0 0 0 0 0 0 0 0 0 0 0 0 0 0 0 0 0 0 0 0 0 0 0 -89.5 -89.5 -90 -90 -89 -89 0 0 0 0 -91 -91 -89.8333 -89.8333 -90.5 -90.5 0 0 -91.5 -91.5 0 0 0 0 0 0 0 -91.3333 -91.3333 0 0 0 0 0 0 0 0 -92.5 -92.5 -92 -92 -92.4 -92.4 -91 -91 -91 0 0 -92.1667 -92.1667 -92.5 -92.5 -91.8333 -92.1667 -92.5 -92.5 -92.5 -91 -91 -91.5 -91.5 -92.5 -92.5 -93.1667 -93.1667 -93.5 -93.5 -93.5 -92 -92 0 0 -93.5 -93.5 -94 -94 -92.5 -92.5 -92.5 0 0 0 0 0 0 0 0 0 0 0 0 0 0 0 -94 0 0 -94.5 -94.5 -94 -94 -94 -92.5 -92.5 0 0 -95.3333 0 0 0 0 0 0 0 0 0 0 0 0 0 -95 -94 -94 -94.5 -94.5 -95.5 -95.5 -95.6667 -95.5 -95.5 -96.6667 -96.6667 -95 0 0 -95.3333 -95.3333 0 0 -95.5 0 0 0 0 0 0 0 -96 -96 0 0 0 -97 -97 -96 -96 -96 0 0 -97 -96 -96 -96 0 0 0 0 0 0 0 0 0 0 -97.3333 -97.3333 -98 -98 -97 -97 -97 -97 -97.6667 -97.6667 -96.8333 -97.1667 0 -97.3333 -97.3333 -97.3333 -97.5 -97.5 -97.5 -97.5 0 -97.5 -97.5 -95.3333 0 0 0 0 0 0 0 0 -98.5 -98.5 -99 -97.4 -97.6667 -98 0 0 -99 -99 -98 -98.5 -98.5 0 -98.5 -98.5 -99 -98 -98 0 -98.5 -98.5 -99 -99 -99 -99.6667 -99.6667 -100 0 0 0 0 0 0 0 0 0 0 0 0 0 0 0 -100.5 -100.5 -101 -100.167 -100.167 -100 -100.5 -100.5 0 0 0 -101.5 -100 0 0 -99.5 0 0 0 -100.333 0 -101 0 0 -100 0 0 0 -101 -101 -101 0 0 0 0 0 0 0 0 0 0 0 0 0 -102.333 -101.5 -101.5 -101.5 -102.5 -102.5 -102.5 -101 -101.429 -101.429 -103 -102.429 -102.429 -102.5 -101 -102.5 -102.5 -102 -102.667 -102.667 0 -102.5 -102.4 -102.4 0 -103.5 -103.5 -103 -102.5 0 0 -103 -102 -102.5 -102.5 0 -103 -103 -103 0 -103.667 -103.667 -103 -103 -104.5 -104.5 -103 -103 0 0 -104 -103 0 0 -105 -103 -103.5 -103.5 0 -104 -103.5 -103.5 -104 -104 -103.833 -103.833 0 -104 -104.5 -104.5 -104 -104 -104.5 -104.5 -104.5 0 -104.5 -104.5 -105 -104 -104 -104.5 -104.5 -105 -105 -104.9 -104.9 -105.5 -104 -105.5 -105.5 -105 -105 -105 -105.5 -105.5 0 -105 0 -104.5 -104.5 -105 -105 -105.5 -105.5 -105.333 -106 -106 0 0 0 -105.5 -105.333 -105.333 -105.333 -106 -105 0 -106.5 -106.5 -106 -106 -106 -106.5 -106.5 -107 -107 -106.5 -105.833 -105.833 -105.667 -106.5 -106 -106 -106.667 -106.667 0 0 0 0 0 0 -107 -107 0 -107.333 -107.667 -108 0 -108 0 -106.5 -106.5 0 0 0 0 0 0 0 0 0 -107 -107 -107.5 0 0 0 0 0 0 0 -108 0 0 -108 -108 0 0 -109 -109 0 -109 -107 0 -107.5 -107.5 -108 -108 -108 0 0 0 0 0 -109 -109 0 -109 -108 0 -109.5 -109.5 -109 0 -109 -109 -109 -109 -109 0 0 -110 0 0 0 0 0 0 -109.5 -109.5 -110 -110 -110 -110 -110 -110 -110 -109 0 0 -109.667 -110 0 0 0 0 0 0 0 -111 -111 -111.333 -110.5 -110.5 0 -112 -111 0 -111 0 -112 -111 0 -111 -111 -111 -111 0 0 0 0 0 0 0 0 0 -111 0 0 0 0 0 0 -112 -112.5 -112 -112 -112 -112 -112.5 -112.5 0 0 0 0 -113 -112 0 0 0 -114 -113 -113 0 0 0 0 0 0 0 0 -113 -113 -113 -113 0 -114 -114 0 -114 -113.5 0 -114 0 -114 0 0 0 0 -114 -114.667 0 -115 -114 0 -114 -114 -114 -114 0 -114 -114 0 -115 -115 0 0 0 0 0 0 0 -112.5 -114 -115 -114 0 -117.5 -115 0 0 0 -115 -115 0 -116 -116 -116 -116 0 -116 -115 -115 0 0 0 -116 -116 0 -116 -116 -116 -116 0 0 -96.3333 0 0 -116 -45 -116 -116 0 -117 -117 0 0 0 0 0 0 -117 -117 -117 -117 -117 0 -117 -117 0 -117 0 -117 -117 0 0 0 0 0 0 0 0 0 -117 0 -118 0 0
0 0 0 0 0 0 0 0 0 0 0 0 0 0 0 0 0 0 0 0 0 0 0 0 0 0 0 0 0 0 0 0 0 0 0 0 0 0 0 0 0 0 0 0 0 0 0 0 0 0 0 0 0 0 0 0 0 0 0 0 0 0 0 0 0 0 0 0 0 0 0 0 0 0 0 0 0 0 0 0 0 0 0 0 0 0 0 0 0 0 0 0 0 0 0 0 0 0 0 -90.5 -90.5 -89.5 -89.5 -90.5 -90.5 -89.6667 -89.6667 0 0 0 0 0 0 -91.5 -91.5 0 0 0 0 0 -91 -91 0 0 0 0 -92.5 -92.5 -92 -92 -92.4 -92.4 -91 -91.1667 -91.1667 0 0 -91.8333 -92.1667 -92.5 -92.5 -91.8333 -91.8333 -92.5 -92.5 -92.5 -90.8333 -90.8333 -91.5 -91.5 -92.5 -92.5 -93.1667 -93.1667 -93.5 -93.5 -93.5 -92 -92 0 0 0 0 0 0 0 -92.5 -92.5 0 0 -94 -94 -93 -93 -93 -93.6667 -93.6667 -94 -94 -94.3333 0 0 0 0 0 0 -94.5 -94.5 -94 -94 -94 -94 -94 0 0 -95.3333 -95.3333 -94 -94.5 -94.5 -95.1667 -95.1667 0 0 -94 -94.3333 0 0 0 0 0 0 0 0 0 0 0 0 0 0 -96.6667 -95 0 0 -96 -96 -96.5 -96.5 -95.3333 0 0 0 0 0 0 0 0 0 0 0 0 0 0 0 0 -96 0 0 -97 -97.5 -97.5 -96 -96.5 -96.5 0 0 -97 -95.8333 0 0 0 0 0 0 0 0 0 0 0 -97 -97.3333 -97.6667 -96.8333 -96.8333 0 -97.5 -97.5 -97.5 -97.5 -97.5 -97.5 -97.5 0 -97.5 -97.5 -95.3333 -94.5 -94.5 -98.5 -98.5 -98.5 0 0 -98 -98.5 -98.5 -99 -97.4 -97.4 -98 0 0 -99 -99 -99 -98.5 -98.5 0 -98.5 -98.5 -99 0 0 0 0 0 0 0 0 0 -99.6667 -100 -99.5 -99.5 -99.5 -99.5 -99.5 -100 -99.1667 -99.1667 -99 0 0 0 0 0 0 0 0 0 0 0 0 -100.5 -100.5 0 0 0 0 0 0 0 0 0 0 0 -100.333 -100.333 -101 0 0 0 0 0 0 0 0 -101 -100 0 0 -101 -100.6 -100.6 -101 0 0 -102 0 0 0 -102.5 -101.5 -101.5 -102 0 0 -102.5 -101 -101.429 -101.429 0 -102.5 -102.5 -102.5 -101 0 0 -102 -102.333 -102.667 0 -102.25 -102.4 -102.4 0 -103.5 -103.5 -103 -102.5 0 0 -103 -102 -102.5 -102.5 -104 -102.9 -102.9 -103 0 -103.333 -103.667 -103 0 -104.5 -104.5 -103 -103 0 0 -104 -103 0 0 -105 -103 -103.5 -103.5 0 -104 -103.5 -103.5 0 -104 -104 -104 0 -104 -104.5 -104.5 -104 -104 -104.5 -104.5 -104.5 0 -104.5 -104.5 -105 -104 0 -104.5 -104.5 -105 -105 -105.1 -105.1 -105 0 -105.4 -105.4 -105 -105 -105 -105.5 -105.5 -106 -105 0 -104.5 -104.5 -105 -105 -105.6 -105.6 -105.333 -106 -106 -105.5 -105.5 0 -105.5 -105.333 -105.333 -105.333 -106 -105.333 0 -106.5 -106.5 -106 -106 -106 -106.667 -106.667 -107 -107 -106.5 -105.833 -105.833 -105.667 -106 -106 -106 -106.333 -106.667 -107 0 0 0 0 0 0 0 0 -107.333 -107.333 -107 0 -107.5 -106 -106.5 -106.5 0 -107 0 0 -74.5 -74.5 -107 0 -108 -107 -107 -107.333 -107.5 -108 0 -108 -107 0 0 -108 -108 0 0 0 0 0 0 0 0 0 0 0 0 0 0 0 -108 -108 -108 -108.5 -108.5 0 0 0 0 0 0 0 -109.5 -109.5 -109 0 -109 -109 -109 -109 -109 0 0 -110 -109 0 0 0 0 0 0 0 0 -110 0 -110 -110 -110 -110 -109 0 -110.5 0 -110 0 0 0 0 -111 0 -111 0 0 0 0 0 0 0 0 0 -111 0 -112 -111 0 -111 -111 0 -111 -111.5 -111.5 0 0 0 0 0 0 0 -111 -112 0 -112 0 -112 0 -112 -112 -112 -112 -112 -112 -112.333 -112.333 -112.667 0 -113 0 0 0 0 0 0 0 0 -113 -113 -113 0 -113 -113 0 -113 0 -113 -113 0 0 0 0 0 0 0 -113 0 -114 0 -114 -114 0 -114 0 -114 -114.5 0 -115 -114 0 -114 -114 0 -114 0 -114 -114 0 0 0 -115 -115 -115 -115 -115 0 -117 0 0 -115 -114 0 -117.5 -115 0 -115 0 -115 -115 0 -116 -116 -116 -116 0 -116 0 -115 0 0 -116 -116 -116 0 -116 -116 0 0 0 0 -117 0 0 -116 -116 -116 -116 0 -117 -117 0 0 0 -117 0 0 0 0 0 -117 -117 0 -117 -117 -117 -117 -117 -117 -117 -117 0 0 0 0 0 0 0 0 0 0 -118 0 0
0 0 0 0 0 0 0 0 0 0 0 0 0 0 0 0 0 0 0 0 0 0 0 0 0 0 0 0 0 0 0 0 0 0 0 0 0 0 0 0 0 0 0 0 0 0 0 0 0 0 0 0 0 0 0 0 0 0 0 0 0 0 0 0 0 0 0 0 0 0 0 0 0 0 0 0 0 0 0 0 0 0 0 0 0 0 0 0 0 -89.5 -89.5 0 0 0 0 0 0 0 0 0 0 0 0 0 0 0 -89.6667 0 0 0 0 -90.9333 -90.9333 0 0 0 0 0 0 0 -91 -91 0 0 0 0 0 0 -91.5 -91.5 -92.6667 -92.6667 -91 0 -91.1667 0 0 -91.8333 -91.8333 -92.5 -92.5 -92 -92 0 0 -92.3333 -92.5 -92.5 -91.5 -91.5 -92.5 -92.5 -93 -93 -93.5 -93.5 -93.5 -92 -92 0 0 -93.3333 0 0 0 0 0 0 0 0 -94 -94 -94.6667 -94.6667 -93 -93.3333 -93.6667 -94 -94 -94.3333 -94.3333 -95 -95 -94 0 0 0 0 0 0 -94 -94 -94 0 0 -95.5 -95.5 -94 -94.5 -94.5 -95 -95 0 0 -94 -94.3333 -94.3333 -95 -95 0 -95.5 -95.5 -94.5 -94.5 -95.5 -95.5 -95.5 0 0 0 0 0 0 0 0 0 0 0 0 0 0 0 0 0 0 0 -96 -96 -96 0 0 -96.8333 -96.8333 0 0 0 0 0 0 -97 -97 0 0 -97 0 0 -97 -95.8333 -95.8333 -96.5 -96.5 0 -97 -97 0 0 0 0 0 -97 -97.3333 -97.3333 -96.5 -96.5 -97 0 0 -97.5 -97.5 -97.5 -97.5 -97.5 0 -99 -99 -98 -94.5 -94.5 -98.3333 -98.3333 -98.3333 0 0 -98 -98.5 -98.5 -99 -97.4 -97.4 0 0 0 -99.1667 -99.1667 -99 -98.5 -98.5 0 -98.5 -98.5 -99 -98 -98 0 -99.6667 -99.6667 -99 0 0 0 0 0 -99.1667 -99.1667 -99 -99.5 -99.5 -100 -100.333 -99.1667 -99 0 0 -100 -100 -100 0 -100.5 -100.5 -101 -99.8333 0 0 0 0 0 0 0 0 0 0 0 0 0 0 0 -100.5 -100.5 -101 -101 -101 -101 -100.667 -100.667 -101 0 0 0 -101 0 0 0 -100.5 -100.5 -101 -101.333 0 -102 0 0 0 0 0 0 0 0 0 -102.5 -101 -101.5 -101.5 0 -102.5 -102.5 -102.5 -101 0 0 -102 -102.333 -102.333 -101.55 -102.333 -102.5 -102.5 -102 -103.5 -103.5 -103 -102.6 0 0 -103 -103 -102.5 -102.5 -104 -103.167 -103.167 -103 0 -103.333 -103.333 -104 0 -104.5 -104.5 -103.5 -103 -103.667 -103.667 -104 -103 0 0 -105 -103 -103.5 -103.5 0 -104 -103.5 -103.5 0 -103.5 -103.5 -103.5 -104 -104 -104.5 -104.5 -104 -104 -104.5 -104.5 -104.5 0 -104.5 -104.5 -105 -104 0 -104.667 -104.667 -105 -105 -105 -105 -105 0 -105.5 -105.5 -105 -105 -105 -105.5 -105.5 -106 -105.25 -105.5 -104.5 -104.5 -105 -105 -105.429 -105.6 0 -106 -106 -105.5 -105.5 0 -105.5 -105.333 0 -105.333 -106 -105.333 0 -106.5 -106.5 -106 -106 -106 -106.4 -106.667 -107 -107 -107 -105.5 -105.5 0 -106 -106 -106 -106.333 -106.333 -107 0 -107 -107 -106.5 -106.5 -107.5 -107 0 0 0 -107.25 -106 -107.2 -106 -106.5 -106.5 -107 -107 -107 0 -107.5 -107.5 -107 0 -108 0 -107 -107.333 -107.333 -108 -108 -108 -108 0 0 -109 -108 -108.5 -107.5 -108 -108.5 -108.5 -108 -109 0 -108.5 0 0 0 0 0 0 -108 -108 -108 -108 -108.5 -108.5 -109 -109 0 -109 -109 0 -109.667 -109.667 0 0 0 0 0 0 0 0 0 -110 -109 0 -110 -109 0 -109 -109.5 -109.5 0 0 0 0 0 0 -110 -109 0 -110 -110.5 -110 0 -110 0 0 -111 0 0 -111 0 -111.5 0 0 0 0 0 0 0 0 -112 -111 0 -112 -111 0 -111 -111.5 -111.5 0 -112 0 -112 -112 0 0 0 0 0 0 -113 -112 0 -112.5 -112.333 -112 -112 -112 -112 -112.333 -112.667 -112.667 -113 -113 0 -113 -112 0 -113 0 -114 0 0 -113 -113 0 -113 -113 -113 0 -113 0 -113 0 -113 0 -114 -114 0 -114 0 0 0 0 -114 -114 0 -114 0 -114 0 0 -115 -114 0 0 -114 0 -114 0 -114 -114 0 -115 0 0 -115 0 -115 0 -114 -111.5 -112.5 0 -30 0 0 -117 0 0 0 0 0 0 0 0 0 0 0 0 0 0 -115.5 0 0 0 -116 -116 -116.5 0 -116 -116 -116 0 0 0 0 0 -116 -116 -116 -116 0 -117 -117 -117 -117 0 0 0 0 -117 -117 -117 0 0 0 0 0 0 0 -117 -117 -117 -117 -117 -117 0 0 0 -117 -117 0 0 0 0 0 -117
0 0 0 0 0 0 0 0 0 0 0 0 0 0 0 0 0 0 0 0 0 0 0 0 0 0 0 0 0 0 0 0 0 0 0 0 0 0 0 0 0 0 0 0 0 0 0 0 0 0 0 0 0 0 0 0 0 0 0 0 0 0 0 0 0 0 0 0 0 0 0 0 0 0 0 0 0 0 0 0 0 0 0 0 0 0 0 0 0 -89.5 -89.5 -90 -90 0 0 0 0 0 0 0 0 0 0 0 0 0 0 0 0 0 0 -90.9333 -90.9333 0 0 0 0 0 0 0 0 0 -91.6 -91.6 0 0 -92.6667 -92.6667 -91.5 -91.5 -92.3333 -92.6667 -91 0 0 0 0 -92 -92 -92.5 -92.5 -91.5 -91.5 0 0 -92.3333 -92.5 -92.5 -91.5 -91.5 -92 -92 -92.5 -92.5 -93.6667 -93.6667 -93.5 0 0 0 0 -93.3333 -93.3333 -94 -94 -92.5 -92.5 -92.5 -93.6667 -93.6667 0 0 0 -94.6667 -93 -93.3333 -93.3333 0 0 -94.5 -94.5 -95 -95 -94 -94 -94 0 0 0 0 0 0 0 -93.5 -93.5 0 0 -95.5 -94.5 -94.5 -95 -95 0 0 -95.5 -94.5 -94.5 -94.8333 -94.8333 0 -95.6667 -95.6667 -94.5 -94.5 -95.5 -95.5 -95.5 0 0 -96.5 -96.5 -95 -95.5 -95.5 -95.8333 -95.8333 0 0 0 0 0 -95 -95 0 -96.5 -96.5 -96 -96 -96 -96.4 0 -96.8333 -96.8333 -97 -96 -96 -96.5 -96.5 -97 0 0 -96.5 -96.5 -97 0 0 -97 -97.5 -97.5 -96.5 -96.5 0 -97.1667 -97.1667 0 0 0 0 0 0 0 0 0 0 0 0 0 0 -97.5 -97.5 -97.5 -97.5 0 -98.5 -98.5 -98 -95.5 -95.5 -98 -98 -98 0 0 -98 0 0 -99 -97.5 -97.5 -98 0 0 -98.6667 -99.1667 -99 -99.5 -99.5 -98.5 -98.5 -98.5 -99 -98 -98 0 -99.3333 -99.6667 -99 -99 -99 0 0 0 0 0 0 -99.5 -99.5 -100 -100.333 -100.333 -99 0 0 -100 -100 -100 0 -100 -100 -101 -99.8333 -99.8333 -100 -100.5 -100.5 -101 -100 -100 -100 -100 -100.333 0 0 0 0 0 -100.5 -100.5 -101 -101 -101 0 -100.333 -100.667 -101 0 0 0 0 0 0 0 0 0 -101 -101.333 -101.333 0 0 0 0 0 -101.5 -101.5 -102 0 0 0 0 0 0 0 -102.5 -102.5 -102.5 -102 0 0 -102 -102.5 -102.5 -102 -102.333 -102.5 -102.5 -103 -103.667 -103.667 -103 -102.6 0 0 -103 -103 -102.5 -102.5 -104 -103.35 -103.35 -103 0 -103.5 -103.5 -104 -103 0 0 -103 -103 -103.4 -103.667 -104 -103 0 0 -105 -103 -103.5 -103.5 -104 -104 -103.5 -103.5 -104 -105 -104 -104 -104 -104 -104.5 -104.5 -105 -104 -104.5 -104.5 -104.5 0 -104.5 -104.5 -105 -104 0 -105.333 -104.667 -105 0 -105 -105 -105 0 -105.6 -105.6 -105 -105 -105 -105.5 -105.5 -106 -105 -105.5 -104.5 -104.5 -105 -105 -105.429 -105.429 -106 -106 -106 -105.571 -105.571 0 -105.5 -105 0 0 -106 -106 0 -106.4 -106.4 -106 -106 0 -106.4 -106.4 -107 0 -106.333 -105 -105.5 -105.5 -107 -106 -106 -106.5 -106.5 -107 0 -107 -106 -106.5 -106.5 -107.5 -107 -107 -107.167 -107.167 -107.25 -106 -106 -106.5 -106.5 -106.5 -107 -107 -107 0 -107.5 -107.5 -107.5 0 -108 -107 -107 -107.5 -107.5 -108 -108 -108 -108 -107.5 -107.5 -109 -108 -108 -108 -108 -108.5 -108.5 -108 -109 0 -108.5 -107.5 0 0 0 0 0 0 0 0 -108 -108.5 -108.5 -109 -109 -108 0 -109 0 -109.333 -109.667 -109 0 -109 -109 0 -109.5 -109 0 0 0 0 0 -110 -109 0 -109 0 -110.333 -110 -110 -110 -110 -110 0 -110 -109 0 -110 -109.5 -109.5 0 -110 0 0 -111 0 0 -111 -111 -111 -111.5 -111.5 0 -112 -111 0 0 0 -112 -111 0 -112 -111 0 -111 -111 0 0 -112 0 0 -112 0 -112 -111 0 -112 0 -113 -112 0 -113 -112.333 -112 -112.5 -112.5 -112 -112.5 -112.667 -112.667 -113 0 0 -113 -113 0 -113 0 0 -113 0 0 0 0 -113 -113 -113 -113 0 0 -113 0 0 -113.5 0 -114.5 0 -114.5 -114 0 -114 0 -114 -114 0 0 0 -114 0 0 -115 -114 -115 -115 -114 0 -114 0 -114 -114 0 -115 -115 0 0 0 -115 -114 -114.5 0 -114.5 -114.25 -30.5 0 0 0 0 -115 -115 -24.5 -115 0 0 0 -116 -116 -116 -116 -116 0 0 0 0 -116 0 0 0 0 0 0 -116 0 0 -117 -116.5 -116.5 0 0 0 0 0 -117 -117 -117 -117 0 -116 0 0 0 -117 -117 -117.5 -117 -117 -117 -117 -117 -117 -117 0 -117.5 -117.5 -117 -117 0 -117 0 0 -117 0 -117 0 -118 0 -117
0 0 0 0 0 0 0 0 0 0 0 0 0 0 0 0 0 0 0 0 0 0 0 0 0 0 0 0 0 0 0 0 0 0 0 0 0 0 0 0 0 0 0 0 0 0 0 0 0 0 0 0 0 0 0 0 0 0 0 0 0 0 0 0 0 0 0 0 0 0 0 0 0 0 0 0 0 0 0 0 0 0 0 0 0 0 0 0 0 -89.5 -89.5 -89.8333 -89.8333 -90.5 -90.5 -89.5 -89.5 -89.8333 0 0 0 0 0 0 0 0 0 0 0 0 0 0 -90.9333 0 0 0 0 0 -92 -92 -92.5 -92.5 -91.6 -91.6 0 0 -92.3333 -92.6667 -91.5 -91.5 -92.3333 -92.3333 -91 -91 -91 0 0 -92.1667 -92.1667 -92.5 -92.5 -91.5 -91.5 0 0 0 0 0 0 0 0 0 0 0 0 -93.6667 -93.5 0 0 0 0 0 0 0 0 0 0 0 0 -93.6667 0 0 0 0 0 0 0 0 0 -94.6667 -94.6667 -95 -95 -94 -94 -94 0 0 -94.5 -94.5 -94.5 -94 -94 -93.6667 -93.6667 0 0 -95.5 -94.5 -94.5 -94.8333 -94.8333 0 0 -95.4 -95.5 -95.5 -95 -95 0 0 -95.6667 -94.5 -94.5 -95.5 -95.5 -95.5 0 0 -96.5 -96.5 -95 -95.5 -95.5 -95.8333 -95.8333 0 0 -97 -95.5 -95.5 -95 -95 0 -96.5 -96.5 -96 -96 -96 -96.4 -96.4 0 0 -97 -96 -96 -96.6667 -96.6667 0 -96.8333 0 -96.5 -96.5 0 0 0 0 0 0 0 0 0 0 -97.1667 0 0 -98 -97 -97 0 -97.5 -97.5 -96.6667 -96.6667 -97 0 0 0 0 0 -97 -97 0 -98.5 -98.5 -98 -96.3333 -96.3333 -98 -98 -98 0 0 -98 0 0 0 0 0 0 0 0 -98.6667 -98.6667 -99 -99.5 -99.5 -98.5 0 0 0 0 0 0 -99.3333 -99.3333 -99 -99 -99 0 0 -100 -100.667 -100.667 -99 -99.5 -99.5 -100 -100.5 -100.5 -99 -99.5 -99.5 -100 -100.333 -100.333 -99 -100 -100 0 -100 -100 -100 0 0 -101 -100.167 -100.167 -100 -100 -100.333 -100.333 -99.5 -99.5 -99.5 0 -100.5 -100.5 -101 0 0 0 -100.333 -100.333 -101 0 0 -101 -101 -100.5 -100.5 0 0 0 0 0 0 0 0 0 0 0 -101.5 -101.5 -102 0 0 -102.5 -102 0 0 0 -102.5 -102.5 -102.5 -102 0 0 -103 -102.5 -102.5 -102.5 -102 0 0 -102 -103.333 -103.667 -103 -103 0 0 -103 0 0 0 0 -102.333 -103.35 -103.4 0 0 0 0 0 -104.5 -104.5 -103.333 -103 -103.4 -103.4 -104 -103 -103.5 -103.5 -104 -103.333 -103.667 -103.667 -104 -104 -104.5 -104.5 -104 -105 -103.833 -103.833 -104 -104 -107.286 -107.286 -105 -104 -104.5 -104.5 -104.5 -104 -104.5 -104.5 -105 -104 0 -105.333 -105.333 -105 0 -105 -105 -105 0 -105.6 -105.6 -105 -105 0 -105.5 -105.5 -106 -106 -105.5 -105.667 -105.667 -105 -105 -105.429 -105.429 -106 -106 -106 -105.571 -105.571 0 -105.5 -105 0 0 -106 -106 0 -106.6 -106.6 -106 -106 0 -106.5 -106.5 -107 -107 -106.667 -105 0 0 -107 -106 -106 -106.5 -106.5 -107 0 -107 -107 -106.5 -106.5 -107 -107 -107 -107.167 -107.167 -107.5 0 -107.5 -106 -106.667 -106.667 -107 -107 -107 0 -107.333 -107.333 -107 -107 -108 -107 -107 0 0 0 0 -108 -108 -107 -108.4 -109 -108 -108 -108 -108 -108 -108.5 -108.5 -109 0 -108.5 -107.667 -107 0 0 -108 0 -108 -108 0 0 0 0 0 -109 -108.5 0 -109 -108.5 -109.333 -109.333 -109 0 -109 -109 0 -109 -109 0 0 -110.667 -110 0 0 -109.333 0 -47 -109 -110.333 -110.333 -110 0 -110 -110 -110 -110 -109 0 -110 0 0 0 -110 -110 0 -111 0 -111 0 0 0 0 0 0 -112 -111 0 -112 0 -112 -111 0 0 -111 0 -111 -111.5 0 0 0 -112 -112 -112 0 -112 0 0 -112 0 -113.5 -113 0 -113 0 0 0 0 0 0 0 0 0 0 0 -113 -113 0 0 0 0 -114 0 -114 -113 0 -113 -113 0 -113.333 -113.5 -113 -113 0 -113 -113 0 0 0 0 -114 0 -114 0 -114 -114 0 -114 0 0 0 0 0 0 0 0 0 0 -114 0 0 0 0 0 0 0 -115 -115 -114 -114 -114 0 -116.667 0 -115 0 -116.667 0 0 0 0 0 0 0 0 -116 -116 -116 -116 -116 -116 -115 -115.5 0 0 -116 -116 -116 0 -116 0 0 0 0 0 0 -116 -116 -116 -116 -116 -116 0 -117 -117 -117 -117 0 -116.5 0 0 0 0 0 0 -117 -117 -117 -117 -117 0 -117 -117 0 0 0 0 0 0 0 0 -117 0 0 0 0 0 0
0 0 0 0 0 0 0 0 0 0 0 0 0 0 0 0 0 0 0 0 0 0 0 0 0 0 0 0 0 0 0 0 0 0 0 0 0 0 0 0 0 0 0 0 0 0 0 0 0 0 0 0 0 0 0 0 0 0 0 0 0 0 0 0 0 0 0 0 0 0 0 0 0 0 0 0 0 0 0 0 0 0 0 0 0 0 0 0 0 -89.5 -89.5 -90 -90 -90.5 -90.5 -89.5 -89.5 -89.8333 -89.8333 -90.5 -90.5 -89.5 -89.5 -90.1667 -90.1667 -89 -89 0 0 0 0 0 0 0 0 -91.5 0 0 -92.1667 -92.1667 0 0 -91.4 -91.6 0 0 -92.3333 -92.3333 -91.5 -91.5 -92.5 -92.5 -91 -91.1667 -91.1667 0 0 -91.6667 -92.1667 -92.5 -92.5 -92.8333 -92.8333 0 0 -94 -92.5 -92.5 -93 -93 -92 -92 0 0 0 0 0 0 0 0 0 0 0 -94 -94 -94 0 0 0 0 -94 -94 -94.5 -94.5 0 0 0 -94 -94 0 -94.6667 -95 -95 -94 -94 -94 0 0 -94 -94 -94 -94 -94 -94.3333 -93.6667 0 0 -95.5 -94 -94 0 0 0 0 0 0 0 -95 -95 0 0 -96 -96 -96 -95.5 -95.5 0 0 0 -96.5 -96.5 -95 -95.5 -95.5 -96 -96 0 0 -97 -95.5 -95.5 -96.5 -96.5 0 -96.5 -96.5 -96 -96 -96 -96.4 -96.4 0 0 -97 -96 -96 0 -96.6667 0 -96.8333 -96.8333 -96.5 -96.5 -96.6667 0 0 0 0 0 0 0 0 0 0 0 0 -98 -97 -97 -97 -97.6667 -97.6667 -97.8333 -96.6667 -97 0 0 -97.5 -97.5 -97.5 -98.5 -98.5 0 -98.5 -98.5 -94 -96.3333 -96.3333 0 0 0 0 0 0 0 0 0 -98.8333 0 0 0 0 0 0 0 0 0 0 0 0 -99 0 0 0 -99.5 -99.5 -99 -99.1667 -99.1667 0 0 -100 -100.333 -100.667 -99 -99.5 -99.5 0 0 0 0 0 0 0 0 -100.333 -99 -99.5 -99.5 0 -100 -100 -100 0 0 -101 -99.3333 -100.167 -100 0 -100.5 -100.5 -100.5 -99.5 -99.5 0 -100.667 -100.667 -100.5 0 0 -101 -100.5 -100.5 -101 0 0 -101 -101 -100.5 -100.5 0 -102 -102 -101 -101.5 -101.5 0 0 0 0 0 -101.5 -101.5 0 0 0 -102 -102 -101.5 -101.5 0 -102 -102 -102.5 -102 0 0 -103 -102.5 -102.5 -102.5 -102 -102.5 -102.5 -102 -103.333 -103.333 -103 -103 0 0 -103 -103 0 0 0 -102.333 -102.333 -103.5 0 0 0 -104 0 0 0 -103.333 -103 -103 -103 -104 -103 -103 -103 -103 0 0 -103.667 -104 -104 -104.5 -104.5 0 -105 0 0 0 -104 -107.286 -107.286 -104 -104 -104.5 -104.5 -104.5 -104 -104.5 -104.5 -105 -104 -104 0 0 -105 -105 -105.1 -105.1 -105 0 -105.4 -105.6 -105 -105 0 -105.5 -105.5 -106 -105 -105.5 -105.333 -105.667 -105 -105 -105.5 -105.5 -106 -106 -106 -105.5 -105.5 0 -105.5 -105 -105.5 -105.5 -106 -106 0 -106.5 -106.5 -107 -106 -106.667 -106.5 -106.5 -107 -107 -107 -105 0 0 -107 -106 -106 -106.5 -106.5 -107 0 -107 -107 0 0 -107 -107 -107 -107.5 -107.5 -107.25 -106 -106.333 -107 -106.333 -106.667 -107 0 -107 0 -107 -106.5 -106.5 -107 -108 -107 -107 -107.5 -107.5 -108 -108 -108 -108 -107 -108.4 -108.4 -108 -107.667 -107.5 -107.5 -107.5 -107.5 -107.5 -109 -108.333 0 -114 -107 0 0 -108 -108 -108 -108 0 -108 -108.333 -108.333 0 -109 -109 0 -109 -108 0 0 0 0 -109.5 -109 -109 0 0 0 0 -110.5 -110 0 -110 -109.333 0 -110 -109 0 0 -110.333 0 -110.5 -110 -110 -110 -110 0 -110 -109.667 -109.667 0 -110.5 -110 0 0 0 -111 -111 0 -111 -111.5 -111.5 0 0 0 0 -112 0 -112 -111 0 -112 -111 0 -111 -111.5 0 0 -112 -112 -112 -112 0 -112 -112 0 -112 0 -113 -113 0 -113 -112.333 0 0 0 0 0 0 -112.5 -112.5 -113 0 0 -113 0 -113 0 0 0 0 -114 -113 0 -113 -113 0 0 0 0 0 0 0 0 0 0 0 0 0 0 0 0 0 0 0 0 0 0 0 0 -115 -114 0 -115 -114 0 -114 0 -115 -114 0 -115 0 -115 0 0 -114.5 0 -114.333 -114.5 -115.667 -114.5 -115.5 0 -116.667 0 0 0 0 0 -115 0 0 0 0 0 0 0 0 0 -115 0 0 -116 -116 -116 0 -116 -116 -116 -116 0 0 -117 -116 -116 0 -116 -116 -6.25 0 -117 -117 -117 -117 0 -116.5 -116 -116 0 -117 0 -117 0 0 0 0 -117 -117 -117 0 -117 0 0 0 0 0 0 -117 -117 0 0 0 -118 -118 -118
0 0 0 0 0 0 0 0 0 0 0 0 0 0 0 0 0 0 0 0 0 0 0 0 0 0 0 0 0 0 0 0 0 0 0 0 0 0 0 0 0 0 0 0 0 0 0 0 0 0 0 0 0 0 0 0 0 0 0 0 0 0 0 0 0 0 0 0 0 0 0 0 0 0 0 0 0 0 0 0 0 0 0 0 0 0 0 0 0 -89.5 -89.5 -90 -90 -90.5 -90.5 -89.5 -89.5 -90 -90 -90.6667 -90.6667 -89.5 -89.5 -89.8333 -90.1667 -89 -89 0 0 -91.5 -91.5 -90.5 -90.5 -91.5 -91.5 0 0 0 -91.6667 -92.1667 0 0 -91.4 -91.4 -91.5 -91.5 0 0 -91.5 -91.5 -92 -92 -92 -90.8333 -91.1667 0 0 -91.6667 -91.6667 -92.5 -92.5 -93.1667 -93.1667 -92.5 -92.5 0 -92.5 -92.5 -93 -93 -92 -92 0 0 0 0 0 0 0 0 0 0 0 -94 -94 -94 -92.5 -92.5 -93 -93 0 0 -94.6667 -94.6667 -93 -93 -93 -94 -94 0 0 0 0 0 0 0 0 0 0 0 0 -94 -94 -94.3333 -94.3333 0 0 -95.5 -94 -94 -75.6667 -75.6667 0 0 0 0 0 0 0 0 0 0 0 0 0 0 0 0 0 -96.5 -96.5 -95 -95 -95 -95.6 -95.6 0 0 -96.5 -96.5 -96.5 -96.5 -96.5 0 -96.5 -96.5 -96 -96 -96 -96.5 -96.5 -97.1667 -97.1667 -97 -96 -96 0 0 0 -97 -97 -96.5 -96.5 -96.5 -96.6667 -96.6667 -97 -97.3333 0 0 0 0 0 0 0 0 0 0 0 0 0 -97.6667 -97.8333 -97.8333 -97 -97.5 -97.5 -97.5 -97.5 -97.5 -98.6667 -98.6667 0 -98.5 -98.5 -94 -94.6667 -94.6667 -97.5 -97.5 -99 0 0 0 -98.5 -98.5 0 -98.8333 -98.8333 0 0 -98.6667 -98.5 -98.5 -99 -99.6667 -99.6667 -98 0 0 -99 -99.5 -99.5 0 0 0 0 0 0 0 0 -100 -100.333 -100.333 -99 -99.5 -99.5 -100 -100 -100 -99 -99.5 -99.5 0 0 0 0 0 0 0 0 0 0 -100.5 -100.5 -101 -99.3333 -99.3333 -100 0 -100.5 -100.5 -100.5 -99.5 -99.5 0 -100.4 -100.667 -100.5 0 0 -101 -101.5 -101.5 -100.75 -100.5 -100.5 -101 -101 -100.5 -100.5 0 -102 -102 -101 -101.5 -101.5 0 -102 -101.833 0 0 0 0 0 0 0 -102 -102 -101.667 -101.667 -102 -102 -102 0 -102 -102.5 -102.5 -103 -102.5 -102.5 -102.5 -102 -102.5 -102.5 -102 0 0 -104 0 0 0 0 0 0 0 -104 -102.5 -102.5 -103 -103 -103.5 -103.5 -104 0 0 0 -103.5 0 0 0 -104 -104 0 0 -103 -103 0 0 0 -104 0 0 0 0 -103.5 -103.5 -104 -104 -104.5 -104.5 -105 -104 0 0 -104.5 -104 -104.5 -104.5 -105 -104 -104.333 -105.5 -105.5 -105 -104.5 -104.9 -104.9 -105.5 -104 -105.4 -105.4 -105 -105 0 -105.5 -105.5 -106 -105.25 0 -105.333 -105.333 -105 0 -105.429 -105.429 -106 -106 -106 -105.571 -105.571 0 -105.5 -105 0 0 -106 -106 0 -106.6 -106.6 -107 0 -107 -106.5 -106.5 -107 -107 -106.5 -106 0 0 -107 -106 -106 -106.5 -106.5 -107 0 -107 -107 -106.4 0 -107 0 0 0 0 0 -107 -106 0 -106.333 -106.333 -106.667 0 -107 0 -107 -106.5 -106.5 0 -108 -107 -107 -107.5 -107.5 -108 -108 -107 -108 -107 -108.4 -108.4 -109 -107.667 0 -107.5 -107.5 -108.5 -108.5 -108.333 -108.333 -108 -107.5 0 -108.25 -108.25 -108.667 0 -109 -108 0 -108 -108.5 -108.5 -109.5 -109 -109 0 0 -108 0 0 -109 0 -110 0 -109 0 0 0 0 0 -110 0 0 -109 0 -110 -109 0 0 -110.333 0 -110.5 -110 -110 0 0 0 -110 -109.5 -109.5 0 -110 -110 0 -110 0 -112 -111 0 -111.667 -111 0 0 -112 -111.667 0 0 0 0 0 0 0 0 0 0 -111.333 0 0 -112 -112 0 -112 0 -112 -112 0 -112 0 0 -113 0 -113 -112.333 0 -112.5 -112.5 -112.5 -112.5 -112 -112.5 0 -113 0 -113 -113 0 -113 -113 0 -114 0 0 0 0 0 0 0 0 0 0 0 0 0 0 0 -114.5 -114 -114.5 0 0 0 0 -114 -114 0 -114 -114 0 0 0 -101.333 -115 -115 0 0 0 0 0 0 0 0 -115 -115 0 -115 -114.5 -114.5 0 -114.333 0 -117 0 0 -114.5 -115.667 0 -115 0 -115 -115 -115 -115 0 -116 1 0 -116 -116 -31 0 0 0 0 -116 -116 -116 0 -116 0 -116 -116 0 0 0 0 -116 -116 0 0 0 0 0 0 0 0 0 -116.5 -116 0 0 0 0 0 0 -117 0 0 -117 -117 0 0 -118 -117 -117 -117 0 0 0 0 0 0 0 0 -118 -118 -118
0 0 0 0 0 0 0 0 0 0 0 0 0 0 0 0 0 0 0 0 0 0 0 0 0 0 0 0 0 0 0 0 0 0 0 0 0 0 0 0 0 0 0 0 0 0 0 0 0 0 0 0 0 0 0 0 0 0 0 0 0 0 0 0 0 0 0 0 0 0 0 0 0 0 0 0 0 0 0 0 0 0 0 0 0 0 0 0 0 0 0 0 0 0 0 0 0 -89.8333 -89.8333 0 -90.6667 -89.5 -89.5 -89.8333 -89.8333 -90 -90 -90 -90 0 0 -90.5 -90.5 -91 -91 0 0 0 -91.6667 -91.6667 -92.5 -92.5 -91.4 -91.4 -91.5 -91.5 -91.5 -91.5 0 0 -92 -92 -92 -90.8333 -90.8333 0 0 -92 -92 -92.5 -92.5 -93 -93 -92 -92 0 -92.5 -92.5 -93 -93 -92 -92 0 0 0 0 -93.3333 -92 -92 0 0 0 0 0 0 0 0 0 0 0 -93.5 -93.5 -94.3333 -94.6667 -93 -93 -93 -93.5 -93.5 0 0 -95 -95 -94 -94.1667 -94.1667 0 0 0 0 0 0 0 -93.5 -93.5 0 0 0 -93.8333 -93.8333 0 -75.6667 0 0 -95.5 -95.5 -95.5 -95 -95 -95.5 -95.5 -96 -96 -96 -94.8333 0 0 0 0 0 0 0 -95 -95 -95.6 -95.6 0 0 -96.5 -96.5 -96.5 -95.8333 -95.8333 -96 -96.5 -96.5 -97 -97 -96 -96.5 -96.5 0 -97.1667 -97 -96 -96 -96.5 -96.5 -97 -97 -97 -96.6667 -96.6667 -96.5 0 -96.6667 -97 -97.3333 -97.3333 -96.5 -96.5 -97 -97 -97 -97.6667 -97.6667 -98 -96.6667 0 0 0 0 0 0 -98 -97.5 -97.5 -97.5 -97.5 -97.5 -98.3333 -98.6667 0 -98.5 -98.5 -98 -98 -98 0 0 0 0 0 0 -98.5 -98.5 0 0 0 0 0 0 0 0 0 0 -99.6667 -98 0 0 -99 -99.5 -99.5 0 -99.5 -99.5 -99 -98.8333 0 0 0 0 0 0 0 0 0 0 0 0 -99 -99.5 -99.5 0 -100 -100 -100 -99.5 -99.5 0 -99.6667 -99.6667 -100 -100.5 -100.5 -101 -101 -101 -100 0 -100.5 -100.5 -100.5 -99.5 -99.5 0 -100.4 -100.4 -100.5 -100.5 -100.5 -101 -101.5 -101.5 -100.5 -100.5 -100.5 -101 -101 -100.5 -100.5 0 -102 -102 -101 -101.5 -101.5 -102 -101.333 -101.833 -101.833 -101.667 0 0 -102 -102 -102 -102 0 -101.333 -101.667 -102 -102 -102 -102 -102 0 0 -103 -103.667 -103.667 -102 -102 0 0 0 0 0 0 0 0 0 -103 0 0 0 0 -104 -104 0 0 -103.5 -103.5 -104 0 0 0 -103.5 0 0 0 -104 0 0 0 0 -103 -103.5 -103.5 0 -104 0 0 0 0 -103.5 -103.5 -104 -103.5 -104.5 -104.5 -105 -105 0 0 -104.5 -104.25 -104.5 -104.5 -105 -104 -104 -105.5 -105.5 -105 0 -105.167 -105.167 -105.5 -104 -105.5 -105.5 -105 -105 0 -105.5 -105.5 -106 -106 0 -105.5 -105.5 -105 0 -105.6 -105.6 -106 0 -106 -106.333 -105.571 0 0 -105 0 0 0 -106 0 -106.4 -106.6 -107 -106 -106.667 -106.5 -106.5 -107 -107 -107 -106.5 0 0 -107 -106 -106 -106.5 -106.5 -107 -107 -107 -107 -106.4 -106.4 -107 -107 -103.333 -107.5 -107.5 -107.667 -107.25 0 0 -106.5 -106.5 -107 0 -107 -107 -107 -107.4 -107.4 0 -108 -107 -107 -107.5 -107.5 -108 -108 0 -108 -107 -108.5 -108.5 -109 -108 0 -108 -108 0 0 -108.333 -108 -108 -108 -107 -73.75 -73.75 -108 0 -109 -108 -108 -108 -108.5 -108.5 0 -109 -109 0 -109 0 0 0 0 0 0 -109 -109 -109 -109 0 0 -110 -110 0 -110 0 0 0 -109 0 0 -110 -104.5 -110 -110 -110 0 -110 0 0 0 0 0 0 -110 0 -110 0 0 0 0 0 -110 0 0 0 0 0 -112 0 -112 -111.667 0 -112 -111 -111 0 -111.333 0 0 -112 -112 -112.25 -112 0 -112 -112 0 -112 0 0 -113 0 -113 0 0 0 0 0 0 0 -112.5 -112 0 0 0 0 0 0 0 0 -114 0 -114 -113 0 -113 -113 0 -113 0 -114 0 -113 -113.5 -113 0 -114 -114 -114 -114.5 0 -114.5 0 -114.333 -114 0 -114 -114 -114 0 0 -115 -115 -115 -115 -114 0 0 0 0 0 0 -115 -115 0 0 -115 0 0 -114.5 0 0 -113.5 -30 0 -117 0 -115.5 0 -115 -115 -115 -115 -115 0 -116 -116 -116 0 -115 -115 -115 0 0 0 0 0 0 0 0 0 0 0 0 0 0 0 0 0 0 -116 0 0 -117 -117 -117 0 0 -116 -116 0 -117 -117 -117 -117 0 0 0 -117 -117 0 -117 0 -117 0 0 -13 0 0 0 -117 0 0 0 0 0 0
0 0 0 0 0 0 0 0 0 0 0 0 0 0 0 0 0 0 0 0 0 0 0 0 0 0 0 0 0 0 0 0 0 0 0 0 0 0 0 0 0 0 0 0 0 0 0 0 0 0 0 0 0 0 0 0 0 0 0 0 0 0 0 0 0 0 0 0 0 0 0 0 0 0 0 0 0 0 0 0 0 0 0 0 0 0 0 0 0 -89.5 -89.5 -90.1667 -90.1667 -90.5 -90.5 0 0 -89.8333 -89.8333 0 0 0 0 -90 -90 -90.5 -90.5 -91 -91 -91.5 -91.5 -90.5 -90.5 -91 -91 -91.5 -91.5 -92 -92.1667 -92.1667 -92.5 -92.5 -91.5 -91.5 -92 -92 -91.5 -91.5 0 0 0 0 0 0 0 0 0 0 0 0 0 -93 -93 -92 -92 0 -92.5 -92.5 -93 -93 -92 -92 -92.5 -92.5 0 0 -93.3333 -92 -92 -92.5 -92.5 -93 -93 -93.5 -93.5 -94.6667 -94.6667 -94.5 -93 -93 -93.5 -93.5 -94.3333 -94.3333 -93 -93 -93 -93.5 -93.5 0 0 -95 -95 -93.5 -94.1667 -94.1667 0 0 0 0 -95 -94 -94 0 0 0 0 0 -93.8333 -93.8333 0 0 0 0 -95.5 -95.5 -95.5 -95 -95 -95.5 -95.5 -96 -96 -96 -94.8333 -94.8333 -95.3333 0 0 -96 -96 0 -95 -95 -95.3333 -95.6 0 0 -96.5 -96.5 -96.5 -95.8333 -95.8333 0 0 0 0 0 0 -96.5 -96.5 0 0 -97 -96 -96 -96.5 -96.5 0 -97 -97 -97.3333 -96.6667 -96.5 0 0 -97 0 0 -96.5 -96.5 -97 0 0 -97.3333 -97.6667 -98 -96.6667 -96.6667 0 0 0 0 0 0 0 0 0 -97.5 -97.5 -98.3333 -98.3333 0 -98.5 -98.5 -98 -96.1667 -96.1667 -96.8333 -96.8333 -99 0 0 -98 -98.5 -98.5 0 -98.5 -98.5 -98.5 -98.5 -98.5 -98.5 -98.5 0 0 0 -98 0 0 -100 -98.8333 -98.8333 0 0 0 -99 -98.8333 -98.8333 0 0 0 -100.5 -100.5 -99 0 0 0 0 0 -99 -99.5 -99.5 0 -100 -100 -100 -99.5 -99.5 0 -99.3333 -99.6667 -100 0 0 -101 -100.833 -100.833 -100 0 -101.667 -101.667 -100.5 -99.5 -99.5 0 -100.4 -100.4 -100.5 -100.5 -100.5 0 -101.667 -101.667 -102 -100.5 -100.5 0 -101 -101.5 -101.5 0 0 0 0 0 0 -102 -101.333 -101.5 -101.5 -101 0 0 -102 -102 -102 -102 0 -101.333 -101.333 0 0 0 0 0 0 0 0 -103.333 -103.667 -102 0 -102.5 -102.5 -103 0 0 -104 -102 0 0 -103 -103 -103.5 -103.5 0 -104 -104 -103 -103 0 0 -104 -102.5 0 0 -103 -103 -103.5 -103.5 -104 -104 -104.4 0 0 0 0 0 -104 -104 0 0 -103.5 0 -103.5 -103.5 0 0 0 0 -103.714 -105 -105 -105 -105 -104.25 -104.5 -104.5 -105 -104 -105.333 -105.5 -105.5 0 -104.5 -106 -105.167 -105.333 -104 0 0 -106 -105 0 -105.5 -105.5 -106 -106 -105.667 -105.5 -105.5 -105 0 -105.5 -105.5 -106 -105.333 -106 -106.333 -106.333 0 -105.5 -105.333 -105.5 -105.5 -106 -106 -106 -106.4 -106.4 -107 -106 -106 -106.5 -106.5 -107 -107 -106.667 -106.333 0 0 -107 -106 -106 -106.5 -106.5 -107 -107 -107 -107 -106.4 -106.4 -107 -107 -103.333 0 0 -107.667 -107.25 0 -107 -106.5 -106.5 -107 0 -107 -107 -107 -107.667 -107.667 0 -108 -107 -107 0 0 -108 -108 0 -108 -107 0 0 -109 -108 0 -107.5 -107.5 -108.167 -108.167 -108 -108 0 -108 -107 0 0 -109 0 -109 -108 0 -108 -108.5 -108.5 0 -109 -109 0 -109 -108 0 0 -109.5 -109 0 -109 -109 -109 -109 -108.5 -108.5 -110 -110 0 -110 -109 0 -110 0 0 0 0 0 0 0 -110 -110 -110 0 0 0 0 0 -111 -110 0 -110.5 0 0 -110.5 -110 -110.5 -111 0 0 -112 0 0 -112 0 0 0 0 0 0 0 -111.5 0 0 0 0 0 0 0 0 -112.5 -112 0 0 0 0 -113 0 -113 -112.5 0 -113 -112.5 0 -112.5 -112 -112.5 0 0 0 -113 0 -113 -113 -113 -113 0 0 -114 -113.25 0 -113.5 0 -114 -113 -113 -114 -113.5 0 -113.5 0 0 -114.5 -114 -114.5 -114 0 -114.5 0 -114.333 -114 0 0 0 -114 0 0 -115 0 0 -115 -114 0 -114 0 -115 -114 0 0 -115 0 0 -115 0 -115 0 0 -113.5 -115 0 -115 -117 -115.5 -115.5 0 0 -115 -115 -115 0 0 0 0 0 0 0 0 0 -115 0 -116.5 -101.333 -116 -116 -116 -116 0 0 0 0 0 -116.5 0 0 -116 0 -116 -116 0 -117 0 0 0 -116 0 0 0 0 -117 0 -117 -117 0 0 0 -117 0 0 0 -118 0 -118 0 -117 0 -118 0 -118 -118 0 0 -118 0
0 0 0 0 0 0 0 0 0 0 0 0 0 0 0 0 0 0 0 0 0 0 0 0 0 0 0 0 0 0 0 0 0 0 0 0 0 0 0 0 0 0 0 0 0 0 0 0 0 0 0 0 0 0 0 0 0 0 0 0 0 0 0 0 0 0 0 0 0 0 0 0 0 0 0 0 0 0 0 0 0 0 0 0 0 0 0 0 0 0 0 -89.6667 -90.1667 -90.5 -90.5 0 0 -90.1667 -90.1667 0 0 -91 -91 0 0 0 0 -91 -91 -91.5 -91.5 -92 -92 -91 -91 -91.5 -91.5 -91.5 0 0 -92.5 -92.5 -91.5 -91.5 -92 -92 -92.5 -92.5 -91.5 -91.5 -91.8333 -91.8333 -92 -90.5 -90.5 -91.5 -91.5 0 0 0 0 0 0 0 0 0 -92.5 -92.5 -93 -93 -92 -92 -92.5 -92.5 0 0 0 -93.5 -93.5 -92.5 -92.5 -93 -93 0 0 -94.4 -94.6667 -94.5 -93 -93 -93.5 -93.5 -94.5 -94.5 -93 -93 -93 -93.5 -93.5 0 0 -95 -95 -93.5 -93.5 -93.5 -94.5 -94.5 0 0 -95 -95.5 -95.5 -94.5 -94.5 0 0 0 0 0 0 0 0 0 0 0 0 0 0 -95.5 -95.5 -96 -96 -96 -95.1667 -95.1667 -95 0 0 -96 -96 -96 -95 -95 -95.3333 -95.3333 -94.9 -94.9 0 -96.5 -96.5 -96.1 -96.1 -96 -96.5 -96.5 0 0 0 0 0 -95.5 -95.5 0 -97.5 -97.5 -96.5 -96.5 0 -97 -97 -97.3333 -97.3333 -96.5 -96.5 -96.5 -97 -97.5 -97.5 0 0 0 0 0 -97.3333 -97.3333 -98 -96.5 -96.5 0 -98.5 -98.5 -98.1667 -98.1667 -98 -96.8333 0 0 0 0 0 0 0 -98.5 -98.5 -98 -96.1667 -96.1667 -96.8333 -96.8333 -99 0 0 -98 -98.5 -98.5 0 -98.5 -98.5 -98.5 -98.5 -98.5 -98.5 -98.5 -99 -99.5 -99.5 -98 0 0 -100 -99.3333 -99.3333 -99 0 0 -99 -99 -99 -99.5 -99.5 0 -100.5 -100.5 -99 -99.4 0 0 0 0 0 0 0 0 0 0 0 -99.5 -99.5 0 -99.3333 -99.3333 -100 0 0 -101 -101.167 -101.167 -101 -100 0 -101.667 -100.5 -99.5 -99.5 0 -101.5 -101.5 -100.5 -100.5 -100.5 0 -101.333 -101.667 -102 -100.5 -100.5 0 -101 -101.5 -101.5 0 -102.167 -102.167 -101 0 0 0 0 0 0 0 0 0 -102 -102 -102 -102 -102 -101.5 -101.5 -102 0 0 -102 -102 0 0 0 -103.333 -103.333 -102 0 -102.5 -102.5 -103 0 0 -104 -102 0 0 0 -103 -103.5 -103.5 -102.5 0 0 -104 -103 0 0 -104 -102.5 0 0 -103 -103 -103.5 -103.5 -104 -104 -104.4 -104.4 -103 0 -103.5 -103.5 0 -104 0 0 0 0 -103.5 -103.5 -104 0 -104.5 -104.5 -105 -104 0 0 -105 -104.5 0 0 0 0 -105.333 0 0 0 0 -106 -106 -105.25 0 0 0 -106 0 -106 -105.667 -105.667 -106 0 0 -105.5 -105.5 -105 -106 -105.5 -105.5 -106 0 -106 -106 -106 0 -106.667 -105.333 -105.5 -105.5 -105.333 -106 -106 -106.5 -106.5 -107 -106 -106.5 -106.4 -106.4 -107 -107 -106.333 -106.333 0 0 -107 -106 -106 -106.5 -106.5 -107 -107 -107 -107 -106.5 -106.5 0 -108 -107 0 -107.25 -107.25 -107.25 0 -107 -106.5 -106.5 -107 0 -107 -107 -107 -107.4 -107.667 0 -108 -107 -107 0 0 -108 -108 0 -108 0 -108.5 -108.5 -109 -108 0 -107.5 -107 -107.333 -108.167 -108 -108 0 -108 -108 0 0 -109 0 -109 -108 -108 -108 -108.5 -108.5 0 -109 -109 0 -109 -108 0 0 -109.667 -109 0 -109 -109 0 -109 -109.333 -109.333 0 -110 -109 0 -110 0 -110 -109 0 0 -110 -110 0 -110 -110 -110 -110 0 -110 -110.333 -110.333 0 -111 -110 0 -111 -110 0 -110.5 -110.5 -110.5 -111 -111.4 -111.4 -112 -112 0 -112 0 0 0 0 -112 -111.5 0 0 0 0 0 0 0 -112.333 -112 -112 0 -112 0 -112 0 0 -112.5 0 0 -112 0 -113 -112 0 -112 -112 -112.5 -112 -112.333 -112.333 -112.75 -113 0 -113 -112.667 -113 0 0 -114 -113.25 0 0 0 0 0 0 0 -113 0 -113 -113 0 -114 -114 0 -114 -114.5 -114.5 -114 -114 -114 -88 0 -114 0 -114 0 -115 -115 0 -115 -114 0 -115 0 -115 -114 0 0 -115 -114 0 -115 0 0 0 0 0 0 0 0 -117.333 -113.5 -115.5 0 0 0 -115 -115 -115 0 -116 -116 -116 0 0 0 0 0 0 -116.5 -101.333 -116 -116 -116 -116 -116 -116 -116 -116.5 -116 -116.5 -116.5 -116 -116 0 0 0 0 0 0 0 0 -116 0 0 0 0 0 0 -117 -117 -116.5 0 0 -117 0 -117 0 -118 0 0 0 0 0 -118 0 -118 -118 -118 0 -118 -118
0 0 0 0 0 0 0 0 0 0 0 0 0 0 0 0 0 0 0 0 0 0 0 0 0 0 0 0 0 0 0 0 0 0 0 0 0 0 0 0 0 0 0 0 0 0 0 0 0 0 0 0 0 0 0 0 0 0 0 0 0 0 0 0 0 0 0 0 0 0 0 0 0 0 0 0 0 0 0 0 0 0 0 0 0 0 0 0 0 0 0 -89.6667 -89.6667 -90.5 -90.5 -89.5 -89.5 -90 -90 0 0 -91 -91 0 0 0 0 0 0 0 0 0 0 0 0 0 0 0 0 0 -92.5 -92.5 -91.5 -91.5 -91.8333 -91.8333 0 0 -93.3333 -93.3333 -92 -92 -92.3333 -90.5 -90.5 -91.5 -91.5 -92 -92 -92.5 -92.5 -93 -93 -92.1667 -92.1667 -92 0 0 -93 -93 -92 -92 0 0 -94.5 -94.5 -93 -93.5 -93.5 -92.5 -92.5 -93 -93 0 0 -94.4 -94.4 -94.5 -93 -93 -93.5 -93.5 -94.5 -94.5 -95 -95 -93.5 -93.5 -93.5 0 0 -95 -95 -95 -93.5 -93.5 -94.5 -94.5 0 0 -95 -95.5 -95.5 -94.5 -94.5 0 0 -95 -94 -94 -94.5 -94.5 -95.5 -95.5 -95.5 0 0 0 0 0 0 0 0 0 -95 -95 -95 -94 -94 -96 -96 -96 -95 -95 0 0 0 0 0 0 0 0 0 -96 -96.5 -96.5 -97 -97 -96 -96.1667 -96.1667 0 0 0 0 0 -96.5 -96.5 0 -97 -97 -97.5 -97.5 -98 -96.5 -96.5 -97 -97 -97 -96.3333 0 0 -95.5 -95.5 -97.5 -97.5 -98 -96.5 -96.5 -97 0 0 -97.8333 -98.1667 -98 -96.8333 -96.8333 0 -97.5 -97.5 -98.5 -98.5 -97 0 0 -99 -96.1667 -96.1667 -96.8333 -96.8333 -99 0 0 -98 -98.5 -98.5 0 -98.5 -98.5 -98.5 -98.5 -98.5 -98.5 -98.5 -99 -99.5 -99.5 -98 -98.5 -98.5 0 -98.8333 -99.3333 -99 0 0 -98.5 -98.5 -98.5 -99.5 -99.5 0 -100.5 -100.5 -99 -99.4 -99.4 0 0 0 0 0 0 0 0 0 0 -99.5 -99.5 0 -101 -101 -100 0 0 0 -101.167 -101.167 -101 -100 0 0 -100.5 0 0 0 0 0 0 0 0 0 -101.333 -101.333 -102 0 0 0 -101 -101.5 -101.5 0 -101.333 -102.167 -101 -101.5 -101.5 -102 -101.667 -101.5 -101.5 -101 0 0 -102 -102 -102 0 -102 -101.5 -101.5 -102 0 0 -102 -102 -101.333 0 -103 -103.5 -103.5 -102 0 -102.5 -102.5 -103 0 0 -104 -102 -102.5 -102.5 -103 -103 -103.5 -103.5 -102.5 0 0 -104 -103 0 0 -104 -104 0 0 -104 -103 0 0 -104 -104 -104.4 -104.4 -103 -103 -103.5 -103.5 -104 -104 -104.333 0 0 0 0 0 0 0 0 0 0 -104 0 0 -104 -104 -104.5 -104.5 0 0 -104 0 0 -106 0 0 0 -105.5 -105 0 -104.8 -104.8 0 0 -106.333 -105.667 -106 0 -106 0 0 -105 0 -105.667 -105.667 -106 0 -106 -106 -106 0 0 0 0 0 0 -106 -105.333 -106.5 -106.5 0 -106 0 -106.5 -106.5 -107 -106.5 -106.333 -106 -105.5 -105.5 -107 -106 -106 0 0 -107 -107 -107 -107 -106.5 -106.5 -107 0 -107 0 -107.25 -107.25 -107.5 0 -107 -107 -106.5 -106.5 0 -107 -107 -107 -107.4 -107.4 0 -108 -107 -107 0 0 -108 -108 0 -108 0 -108.5 -108.5 -109 -108 0 -108 -107.5 -107.333 -107.333 -108 -108 0 -108 -108 0 0 -109 0 -109 -108 -108 0 -108.5 -108.5 -109 -109 -109 0 -109 -108 0 0 -109.667 -106.667 0 -109 -109 0 -109 -109.5 -109.5 -110 -110 0 -110 -110 0 -110 -109 0 0 -110 -110 -110 -110 -110 0 -110 -106.5 -110 -110.5 -110.5 0 -111 -110 0 -111 -110 0 -110.5 -110 -112 -111 -111.4 -111.4 -112 -111.667 0 -112 0 -112 -112 0 -112 -112 -111 -112 -111 -111 -111.667 -111.667 -112 -112.5 -112 -112 0 0 0 -112 -112 0 0 0 -113 0 0 -113 -112 0 -112 -112 0 -112 -112 -112.75 -112.75 -113 0 -113 -112.667 0 0 0 -114 -113.667 0 -113.667 -113.667 -114 -113.5 -113 0 -113.5 0 -113.5 0 0 -114.667 -114 0 0 0 -114.5 -114 -114.5 -114 0 -114.5 -114 0 0 0 0 0 0 0 0 0 -115 0 -115 -114 0 -115 -115 -114.667 0 -115 0 -115 -114.5 0 0 0 0 0 0 0 0 0 -116 -115 -115 -115 -115 0 -116 0 -115 -115 -115 0 -115 0 0 0 0 0 0 0 0 0 -116 -116 -116.5 -116 -116.5 -116.5 -116 0 0 0 -116 0 -117 0 -116.667 0 -116.667 0 -116 0 0 -117 0 -117 -117 -116.667 0 0 -117 0 0 0 -118 0 -118 0 -117.667 0 -118 -118 0 -118 0 0 0 0
0 0 0 0 0 0 0 0 0 0 0 0 0 0 0 0 0 0 0 0 0 0 0 0 0 0 0 0 0 0 0 0 0 0 0 0 0 0 0 0 0 0 0 0 0 0 0 0 0 0 0 0 0 0 0 0 0 0 0 0 0 0 0 0 0 0 0 0 0 0 0 0 0 0 0 0 0 0 0 0 0 0 0 0 0 0 0 0 0 0 0 -90.1667 -90.1667 -90.5 -90.5 -89.5 -89.5 -90 -90 0 0 -91 -91 -91.5 -91.5 -90.5 -90.5 -91 -91 0 0 0 0 -90.8333 0 0 0 0 0 0 0 0 0 0 0 0 0 0 0 -93.3333 -92 -92 -92.3333 -92.3333 -91 -91.5 -91.5 0 0 -92.5 -92.5 -93 -93 -91.9 -92.1667 -92 0 0 -93 -93 -93.5 -93.5 -92.5 -92.5 -93.6667 -93.6667 -93 -93.5 -93.5 -92.5 -92.5 -93 -93 0 0 -94.4 -94.4 -94.5 -93 -93 -93.5 -93.5 0 0 -95 -95 -93.5 -93.5 -93.5 0 0 -95 -95 -95 0 0 0 0 0 0 -95 -95.5 -95.5 -94.5 -94.5 0 0 -95 -95.6667 -95.6667 -94.5 -94.5 -95.5 -95.5 -95.5 0 0 0 0 0 0 0 0 0 0 0 -95 -94 -94 0 0 -96.5 -96.5 -95.3333 -95.5 -95.5 -95.1667 -95.1667 0 -96.3333 0 0 0 0 0 0 0 0 0 0 0 -95.5 -95.5 -97 0 0 0 0 -97 -97 -97 -97.5 -97.5 -98 -96.5 -96.5 0 -97 -97 -96.3333 -96.3333 -97 -97 -97 -97.5 -97.5 0 0 0 0 0 0 -97.8333 -97.8333 -98 -98.5 -98.5 0 -97.5 -97.5 -98.6667 -98.6667 -97 0 0 -99 -95.25 -95.25 -96.8333 -96.8333 -99 0 0 0 -98.5 -98.5 0 -98.5 -98.5 -98.5 -98.5 -98.5 0 0 -99 -99.5 -99.5 -98 -98.5 -98.5 0 -98.8333 -98.8333 -99 0 0 -100 0 0 0 0 0 -100.5 -100.5 -99 -99.4 -99.4 0 -100 -100 -100.25 -100.25 -100.25 0 0 0 0 0 0 0 0 0 0 0 0 0 0 -101.167 -101 0 -101.5 -101.5 -100.5 -100.5 -100.5 0 -101.667 -101.667 -100.333 0 0 0 0 0 -102 -100.5 -100.5 0 -102 -101.5 -101.5 0 -101.333 -101.333 -101 -101.5 -101.5 -102 -101.5 -101.5 -101.5 -101 0 0 -102 0 0 0 0 0 0 0 0 0 0 -102 -101.333 -101.333 0 -103.5 -103.5 -102 0 -102.5 -102.5 -103 0 0 -104 -102 -102.5 -102.5 0 -103 -103.5 -103.5 -102 0 0 -104 -103 0 0 -104 -104 0 0 -104 -103 -103.333 0 0 0 0 0 0 0 0 0 0 0 -104.333 -104.333 0 -104.5 -103.5 -103.5 -104 -104 -104.5 -104.5 -105 -104 0 0 -105.5 -104 -104.5 -104.5 -105 0 0 0 0 -106 -104.5 0 0 -105 0 0 -105.5 -105.5 -105 0 -106.333 -106.333 -105.5 -105.5 0 0 0 -105 0 -106 -105.667 -106 -106 -106 -106.5 -106.5 0 0 0 0 0 0 -106 -106 -106.5 -106.5 -107 0 0 -106.5 -106.5 -107 -106.5 -106.5 0 -105.667 -105.667 -107 -106 -106 -107.667 -107.667 -107 -107 -107 -107 -106.5 -106.5 -107.5 -108 -107 0 -106.833 -107.25 -107 -106.333 -107 -107 -106.667 -106.667 0 -107 0 -107 -107.5 -107.5 -107 -108 -108 -107 0 0 -108 -108 0 -108 0 -108.5 -108.5 -109 -108 0 -107.5 -107.333 -107.5 -107.5 -108 -108 0 -108 -108 0 0 -109 0 -109 -108 -108 0 -108.5 -108.5 -109 -109 -109 0 -109 -109 0 -109.5 -109.5 -109 0 -110 -109 0 -109 -109 0 0 -110 -109 -110 -110 0 -110 -109 0 0 -110 -110 0 -110 -110 0 -110 -110 -110 -110 0 0 -111 -111 0 -111 -110 -111 -110 -110 -112 -111 -111.5 -111.5 -112 -112 0 -112 -112 -112 -112 0 -112 -112 0 -112 -111 0 -111.667 -111.667 -112 -112 -112 -112 -112 -112 0 -112 -112 0 -112 0 0 -112.5 0 -113 -112.5 0 -112 -112 0 -112 -112 -112.5 -112.5 -113 -113 -113 -113 -113 0 0 0 0 0 0 0 0 -113 -113 0 -113.5 0 -114 -113 0 0 -114 0 -114 0 0 0 0 0 0 0 0 0 0 0 0 0 0 -115 -114.667 0 -115 0 0 -114 0 -115 0 0 0 0 0 -115 -114 0 -115.5 -115 0 -115 0 0 0 0 0 0 0 0 0 0 -116 0 -115 -115 -115 0 -115 0 0 -116 -116 -116 -116 0 -116 0 -116 -116 -116.5 0 -116 -116 -116 -116 0 -20.5556 0 0 -117 0 -116 0 -51.5 0 -116 0 0 -69.5 -105.5 -117 -117 -116.5 0 0 0 0 0 0 0 0 0 0 -117.333 0 0 -118 0 -118 -118 0 -118 -118
0 0 0 0 0 0 0 0 0 0 0 0 0 0 0 0 0 0 0 0 0 0 0 0 0 0 0 0 0 0 0 0 0 0 0 0 0 0 0 0 0 0 0 0 0 0 0 0 0 0 0 0 0 0 0 0 0 0 0 0 0 0 0 0 0 0 0 0 0 0 0 0 0 0 0 0 0 0 0 0 0 0 0 0 0 0 0 0 0 0 0 0 0 -90.5 -90.5 -89.5 -89.5 -90 -90 0 0 -91 -91 -91.5 -91.5 -90.6667 -90.6667 -91 -91 0 0 0 0 -90.8333 -90.8333 -91.5 -91.5 -91.5 0 0 0 0 -91.5 -91.5 0 0 0 0 0 0 0 0 0 0 -91 -91.5 -91.5 0 0 -92.5 -92.5 -93 -93 -91.9 -91.9 -92.5 -92.5 0 -92.5 -92.5 -93.5 -93.5 -92.5 -92.5 -92.8333 -93.6667 -93 -93.5 -93.5 -92.5 -92.5 -93 -93 -93.5 -93.5 -94.5 -94.5 -94.5 -93 -93 -93.5 -93.5 0 0 -94.8333 -94.8333 -93.5 -93.5 -93.5 0 0 -95 -95 -95 -93.3333 0 0 0 0 0 0 0 0 0 0 0 0 -95 -95.4 -95.6667 -94.5 -94.5 -95.5 -95.5 0 -95.5 -95.5 -96.1667 -96.1667 -95.6667 -95.6667 -95.5 -95.3333 0 0 0 0 0 0 0 0 -96.5 -96.5 -95.6667 -95.5 -95.5 0 -95.1667 0 -96.3333 -96.3333 -96 -96 -96 -96.5 -96.5 -97 -97 -97 0 0 -95.5 -95.5 -97 -97 -97 -96.5 -96.5 -97 -97 -97 -97.5 -97.5 -98 -96.5 -96.5 0 -97 -97 -96.5 -96.5 -97 -97 -97 -97.6667 -97.6667 -98 -96.4 0 0 0 0 0 0 0 0 0 0 -97.5 -97.5 -98.3333 -98.6667 -97 0 0 0 -95 -95 -99.4286 -99.4286 -98.25 0 0 0 -98.5 -98.5 0 -98.5 -98.5 -98.5 -98.5 -98.5 0 0 -99 -99.5 -99.5 -98 -98.5 -98.5 0 -99 -99 -99 0 0 -100 -98.5 -98.5 -99.3333 0 0 0 0 0 0 0 0 0 0 0 0 -100.25 0 -101 -101 -100 -100.5 -100.5 0 -101 -101 -100 -100.5 -100.5 0 0 0 -101 -100 0 0 0 0 0 0 0 -101.667 -100.333 -100.5 -100.5 -101 0 0 0 0 0 0 -102 -101.5 -101.5 0 -101.5 -101.5 -101 -101.5 -101.5 -102 -101.5 -101.5 -101.5 -101 0 0 -103 -102 -102 -102 -102 -102.6 -102.6 -102 0 0 0 0 0 0 0 -103.5 -103.5 -102 -102 0 0 -103 0 0 -104 -102 -102.5 -102.5 -103 -103 -103.667 -103.667 -102 0 0 -104 -103 -103.5 -103.5 -104 -104 0 0 -104 -103 -103.333 -103.333 -104 -104 -104.5 -104.5 -103 0 -104.667 -104.667 -104 0 -104.5 -104.5 -105 0 -104.5 -104.5 -104 -104 -104.667 -104.667 -105 0 0 0 0 0 0 0 -105 -105 -104 0 0 0 0 0 0 0 0 0 0 0 -105 0 -106.5 -106.5 -105.5 -105 0 -105.5 -105.5 0 0 -106 -106 -106 -106 -106 0 0 0 0 -106 -105.333 0 0 0 0 0 0 0 0 0 0 0 -107 -106.5 -106.5 -106 -105.667 -105.667 0 -106.5 -106 -107.333 -107.667 -107 -107 -107 -107 -107 -107 -107.5 -108 -107 0 -106.833 -106.833 -107.5 -106 0 -106.5 0 0 0 -107 0 -107 -107.5 -107.5 0 0 0 -107 0 0 -108 -108 -108 -108 -108 -108.5 -108.5 -109 -108 0 -109 -107.333 -107.5 -107.5 -108 -108 0 -108 -108 0 0 -109 0 -109 -109 -108 -109 -108.5 -108.5 -109 -109 -109 0 -109 -109 0 -109.667 -109.667 -106.667 0 -110 -109 0 -109 -109 0 0 -110 -109 -110 -110 0 -110 -109 0 -110.5 -110.5 -110 0 -110 -110 0 -110 -110 -110 -110 0 0 -111 -111 0 -111 0 -111 -110 0 0 -111 -111 -111.4 -112 -112 0 -112 -112 -112 -112 0 -112 -112 -111 -112 -111 -111 0 -111.5 -111.5 -112 -112 -112 -112 -112 0 -112 -112 0 0 0 -113 -112 0 -113 -112 0 -112 -112 0 -112 -112 -112 -112.5 -112.5 -112.5 -113 -112.5 -112.5 -112.667 0 0 0 0 0 0 0 0 0 0 -113 0 -114 -113 0 -114 0 0 -114 0 -114.5 -114 0 -114 0 -114 -114 -114.5 0 0 0 0 0 -115 -114.667 0 0 0 -115 -114 0 0 0 -114 0 -115 0 0 0 0 0 -114.833 0 0 -116.5 -115.5 -115.5 0 -116 0 0 -115 -115 0 -116 0 -115 -30 -115 0 -115 -115 0 0 -116.5 -116 -116 0 -116 0 -88 0 -116 -116 -116.333 -116 0 -116.5 0 -48 -116 0 0 0 0 0 0 0 -117 0 0 -117 0 -118 -117 -116 0 0 -117 0 -117.5 -118 -118 0 -117 0 -117.333 0 0 0 0 -118 0 0 -118 -118
0 0 0 0 0 0 0 0 0 0 0 0 0 0 0 0 0 0 0 0 0 0 0 0 0 0 0 0 0 0 0 0 0 0 0 0 0 0 0 0 0 0 0 0 0 0 0 0 0 0 0 0 0 0 0 0 0 0 0 0 0 0 0 0 0 0 0 0 0 0 0 0 0 0 0 0 0 0 0 0 0 0 0 0 0 0 0 0 0 0 -90.3333 0 0 -90.5 -90.5 0 0 0 0 0 0 0 0 0 0 0 -90.6667 -91 -91 0 0 0 0 -92.5 -92.5 -91.5 -91.5 -91.3333 0 0 -92 -92 -91.5 -91.5 0 0 0 0 0 0 0 0 0 0 0 0 0 0 0 -92.5 -92.5 -93 -93 -91.9 -91.9 -92.5 -92.5 0 -92.5 -92.5 -93.5 -93.5 -92.5 -92.5 -92.8333 -92.8333 -93 -93.5 -93.5 -92.5 -92.5 -93 -93 -93.5 -93.5 -94 -94 -94.5 -93 -93 -93.5 -93.5 0 0 0 0 0 0 0 -93 -93 -95 -95 -95 -93.3333 -93.3333 -94.5 -94.5 0 0 -95 -95.3333 -95.3333 -94.5 -94.5 -94.8333 0 -95 -95.4 -95.4 -94.5 -94.5 -95.5 -95.5 -94 0 0 -96 -96 -95.3333 -95.6667 -95.5 -95.3333 -95.3333 -96.5 -96.5 -96.5 -95.5 -95.5 -96 -96 0 0 -95.5 -95.5 -95.5 0 0 0 0 0 0 0 0 0 0 0 0 -97 0 0 0 0 0 -97 -97 -96.5 -96.5 -97 -96.5 -96.5 -97.5 -97.5 -98 -96.5 -96.5 -97 0 0 -97.5 -97.5 -97 -97 -97 0 -97.6667 -98 -96.4 -96.4 -97 -97 -97 -97.5 -97.5 -98 -97 -97 0 -97.5 -97.5 -98.3333 -98.3333 -98.5 -97.5 -97.5 0 -95.8333 -95.8333 -99.4286 -99.4286 -98.25 0 0 0 -98.5 -98.5 0 0 0 -99.5 -99.5 -98.5 0 0 -99 -99.5 -99.5 -98 -98.5 -98.5 0 -99 -99 -99 0 0 -100 -98.5 -98.5 -99.3333 -99.3333 0 -100.5 -100.5 -100.333 -99.5 -99.5 -100 -100 -100 0 0 0 -99.5 -99.5 -99.5 -100 -100.5 -100.5 0 -101 -101 -100 -100.5 -100.5 0 -101 -101 0 0 0 0 -100.5 -100.5 -100.5 0 0 0 0 0 0 0 -101.5 -101.5 -102 0 0 0 -102 -101.5 -101.5 -100 0 0 -101 -101.5 -101.5 0 0 -101.5 -101.5 -101 0 0 -103 -102 -102 -102 -102 -102.6 -102.6 -102 0 0 0 0 0 0 0 0 0 0 0 0 0 -103 -103.5 -103.5 -104 -103.5 -102.5 -102.5 -103 -103 -103.333 -103.667 -102 0 0 -104 -103 -103.5 -103.5 -104 -103.667 -102.5 -102.5 -104 -103 -103.5 -103.5 -104 -104 -104 -104 -103 0 -104.333 -104.667 -104 0 0 0 0 0 0 0 0 0 0 -104.667 -105 -105 0 0 -105.5 -104 -104.5 -104.5 -105 -105 -104 0 0 -106 -104 0 0 -105 -105 -105 -105.333 0 -106 0 -106.5 -106.5 -105.5 -105 0 -105.6 -105.6 -105 0 0 0 0 0 0 0 0 0 0 0 -105.333 -105.333 -106 -106 -106 -106.5 -106.5 -107 -107 -106 -106 0 0 -107 -107 -106 0 0 0 0 0 -107.333 -107.333 0 0 0 -107 0 0 0 0 -107 0 -107.25 -107.25 -108 -107 0 -107 -106.5 -106.5 0 -108 0 -107.333 -107.5 -107.5 -107.5 -108 -108 -107 0 0 -108 -108 -108 -108 -108 0 0 -109 -108 0 -109 -107.5 -107.5 -107.5 -108.333 -108 -108 -108 -108 -73.75 0 -109 0 -109 -109 -108 -109 -108.5 -108.5 -109 -109 -109 -109 -109 -109 0 -109.5 -109.5 -109 0 -110 -109 0 -109 -109 -109.5 -109.5 -110 0 -110 -110 0 -110 -109 0 -110.5 -110.5 -110 0 -110 -110 0 -110 -110 -110 -110 0 0 -111 -111 0 -111 0 -111 -110 0 -111 -111 -111 -111.5 -111.4 -112 -112 -112 -112 -112 -112 0 -112 -112 -111 0 -111 -111 0 0 0 0 -112 -112 -112 -112 0 -112 -112 0 0 0 -113 -113 0 0 -112 0 -113 -112 0 -112 -112 -112 -112.25 -112.25 -112.5 -113 -112.5 0 0 -113.333 -114 -114 0 -114 -114 0 -114 0 -114 0 0 -114 -113 0 -114 0 -115 -114 0 -114 -114 0 -114 0 -114 -114 -114 0 -114 0 0 0 0 -115 -115 -114.5 -114.5 -115 -114.5 -114 0 -115 -114.5 -114 -115 -114.667 0 -115 0 -114.333 -114.833 0 0 -116.5 0 -115.5 0 -116 -115 0 -115 -115 0 -116 -115.5 -115 0 -115 0 -115.5 0 -116 0 0 -116.5 -116 0 -116 0 -116.5 0 -116 -116 -116.333 0 -29.5 0 0 0 -53 0 -117 0 0 0 0 0 -117 0 0 0 0 0 0 -117 -117.5 -117 0 -118 0 0 -117.5 0 0 0 -118 0 -5 -118 0 -118 0 -118 -118 -118
0 0 0 0 0 0 0 0 0 0 0 0 0 0 0 0 0 0 0 0 0 0 0 0 0 0 0 0 0 0 0 0 0 0 0 0 0 0 0 0 0 0 0 0 0 0 0 0 0 0 0 0 0 0 0 0 0 0 0 0 0 0 0 0 0 0 0 0 0 0 0 0 0 0 0 0 0 0 0 0 0 0 0 0 0 0 0 0 0 0 -90.3333 -90.3333 -90.5 -90.5 -90.5 -90.8333 -90.8333 0 0 0 0 0 0 0 0 0 0 0 0 0 0 0 0 0 0 0 0 0 0 0 -92 -92 -91.5 -91.5 -92 -92 -92.5 -92.5 0 0 -93.5 -93.5 -92.3333 0 0 0 0 0 0 -92.5 -92.5 -93 -93 -93.6667 -93.6667 -92.5 -92.5 0 -92.5 -92.5 -93.5 -93.5 -92.5 -92.5 -93 -93 -93.5 -93.5 -94 -92.5 -92.5 -93 -93 -93.5 -93.5 -94 -94 -94 -94.5 -94.5 0 0 0 0 -94.5 -94.5 -95 -93.3333 0 -93 -93 0 0 -95 -93.5 -93.5 -94.5 -94.5 0 0 -95 -94.8333 -95.3333 -94.5 -94.5 -94.8333 -94.8333 0 -95.4 -95.4 -94.5 -94.5 0 0 0 0 0 -96 -96 -95.3333 -95.3333 -95.5 -95.5 -95.5 -96.5 -96.5 -96.5 -95.5 -95.5 -96.1667 -96.1667 0 0 -95.5 -95.5 -95.5 -95 -95 0 -96.5 -96.5 -96.1667 -96.1667 -96 -96.3333 0 0 0 0 0 0 0 0 0 -97.1667 -97.1667 -96.5 -96.5 -97 -96.5 -96.5 0 0 -98 -96.5 -96.5 -97 0 0 -97.5 -97.5 0 -97 -97 0 0 -98 -96.4 -96.4 -97 0 0 -97.6667 -97.6667 -98 -97 -97 0 0 0 0 0 0 0 0 0 0 0 0 -99.4286 -98.25 -99.4286 -99.4286 0 -98.5 -98.5 -98.5 0 0 -99.5 -99.5 -98.5 0 0 0 -99.5 -99.5 -98 -98.5 -98.5 0 -99.1667 -99.1667 -99 -99.3333 0 -100 -98.5 -98.5 -99.5 -99.5 -100 -100.167 -100.167 -100 -99.5 -99.5 -100 -100 -100 -100 -100.5 -100.5 0 0 0 0 0 0 0 -101 -101 -100 -100.5 -100.5 0 -101 -101 -101 -100 0 0 -101.5 -100.5 -100.5 0 -101.5 -101.5 -101.667 -100.5 -100.5 -101 -101.667 -101.667 -102 0 0 0 -102 -101.5 -101.5 0 -101.5 -101.5 -102 -101.5 -101.5 -101.5 0 0 0 0 0 0 0 0 0 0 0 0 -102.6 -102 0 0 0 -102 -102.5 -102.5 0 -103.667 -103.667 -102 0 0 0 0 0 0 -103.667 -103 -102.5 -102.5 -103 -103 -103.333 -103.333 -102 0 0 0 0 0 0 0 0 -102.5 -102.5 -103 -103 -103.5 -103.5 -104 0 0 0 -103 0 -104.333 -104.333 -104 0 -104.5 -104.5 -104.5 -103 0 0 -104 0 0 0 0 -105 -103.5 -103.5 0 -104 -104.667 -104.667 -105 -105 -104 0 0 -106 -104 0 0 -105 -105 -105 -105.333 -105.333 -106 0 -106.5 -106.5 -105.5 -105 0 -105.6 -105.6 -105 -105 0 -105.5 -105.5 0 -106 -106.5 -106.5 0 0 0 -105.5 -105.5 -106 0 -106 0 0 -107 -107 -106 -106 0 0 0 0 0 0 0 0 -107 0 0 0 0 0 0 0 0 0 -107 0 -107 0 -107 -107 0 0 -107.5 0 0 0 0 -108 0 -107 -107.5 -107.5 -108 0 0 0 0 0 0 0 0 -108 -108 0 0 0 -109 0 -108.667 -107.5 -107.5 -107.5 -108.333 -108.333 -108 -108 -107.5 -108.25 -108.5 -108.5 -108 -109 -109 -108 -109 -108.5 -108.5 -109 -109 -109 -109 -109 -109 0 -109.667 -109.667 -109.5 0 -110 -109 0 -109 -109.333 -109.5 -109.5 -110 -110 0 -110 0 -110 -109 0 -110.5 -110.5 -110 -110 -110 -110 0 -110 -110 -110 -110 0 0 -111 -111 0 -111 -110 -111 -111 0 0 -111 -111 -111.4 -111.5 -112 -112 -112 -112 -112 -112 0 -112 -112 -111 0 -111 -111 -111 -111.5 -111.5 0 -112 -112 -112 -112 -112 -112 -112 0 -112 0 -113 -113 0 -113 -113 0 -113 -112 0 -112 -112 0 -112 -112.333 -112.333 -113 -112.667 0 0 -114 -114 -114 0 -114 -114 0 -114 -113 0 -113 0 -114 -113 0 -114 -114 0 -114 -114 0 -114 0 -114 -114 -114 -114 0 -114 -114 -115 -115 -115 -115 -114.5 0 -114.5 -114.667 -115 -115 -114 -114 0 -114 0 -115 -114 0 -115 0 -113.5 -113.5 0 0 -118 -114.333 0 0 -116 -28 0 -115 -115 0 -116 -115.5 0 0 -115 0 0 0 0 -116 0 -117 0 0 -116 0 -117 0 -116.5 0 -116.5 -116 0 0 0 -5.5 0 0 0 0 0 0 0 0 -117 -117 0 -117 -4.66667 -75.5 -117 -117 0 -117 0 0 -118 0 0 0 -117 0 -118 0 -118 -118 0 -118 0 -118 -118 -118
0 0 0 0 0 0 0 0 0 0 0 0 0 0 0 0 0 0 0 0 0 0 0 0 0 0 0 0 0 0 0 0 0 0 0 0 0 0 0 0 0 0 0 0 0 0 0 0 0 0 0 0 0 0 0 0 0 0 0 0 0 0 0 0 0 0 0 0 0 0 0 0 0 0 0 0 0 0 0 0 0 0 0 0 0 0 0 0 0 0 -90.5 -90.5 0 -90.5 -90.5 -90.8333 -90.8333 0 0 0 0 0 0 -91.5 -91.5 -92 -92 0 0 0 0 0 0 0 0 0 0 0 0 0 0 0 0 0 0 0 0 0 0 0 -93.5 -93.5 -92.3333 -92.3333 -92.5 -91 -91 0 0 0 0 0 0 0 -93.6667 -92.5 -92.5 0 -92.5 -92.5 -93.5 -93.5 0 0 -93 -93 0 0 -93.5 -92.5 -92.5 -93 -93 -93.5 -93.5 -93.8333 -93.8333 0 -94.5 -94.5 -93.5 -93.5 0 0 -94.5 -94.5 -95 -93.3333 -93.3333 -94 -94 0 0 -95 0 0 0 0 0 0 -95 -94.8333 -94.8333 -94.5 -94.5 -95 -95 -95 0 0 -94.5 -94.5 -94.8333 0 0 0 0 0 0 -95.5 -95.5 0 0 0 -96.5 -96.5 -96.3333 -95.5 -95.5 -96.1667 -96.1667 -96.5 -96.5 -95.5 -95.5 -95.5 -95 -95 0 -96.5 -96.5 -95.9 -96.1667 -96 -96.3333 -96.3333 -96.7 -96.7 -97 -96 -96 -96.5 -96.5 0 -96.8333 -97.1667 -96.5 -96.5 -96.5 0 0 0 0 -98 -96.5 -96.5 -97 0 0 -97.5 -97.5 0 0 0 0 0 0 0 0 0 0 0 0 -97.6667 -98 -97 -97 -97 -97.5 -97.5 -98.5 -98.5 -98.5 -97.6667 -97.6667 0 0 0 0 0 0 0 0 0 -98.5 -98.5 -98.5 0 0 -99.5 -99.5 -98.5 0 0 0 0 0 0 0 0 0 0 -99.1667 -99 -99.3333 -99.3333 -100 -100 -100 -99.5 -99.5 -100 -100.167 -100.167 0 -99.5 -99.5 -100 -100 -100 -100 -100.5 -100.5 -99.5 0 0 -100 -100.333 0 0 0 0 0 0 0 0 -100.5 -100.5 -101 -100.5 -100.5 0 -101.5 0 0 0 -101.5 -101.5 -101.5 -100.5 -100.5 -101 -101.4 -101.667 -102 -100.5 -100.5 -101 0 -101.5 -101.5 0 -101.5 -101.5 -102 -101.5 -101.5 -101.5 -101 -101.5 -101.5 -101 0 0 -103 -101.667 -101.667 -102 0 0 0 0 0 0 -102 -102 -102.5 -102.5 0 -102.833 -103.667 -102 -102 0 0 -103 0 0 0 0 0 0 -103 -103 -103.5 -103.5 -102 0 0 0 0 0 0 -104 0 0 0 0 0 0 0 0 0 -104.167 -104.167 -103 0 -104.5 -104.5 0 -104 -104.5 -104.5 -104.5 -103 0 0 -104 0 0 0 0 0 0 0 0 0 0 -104.667 -105 -105 -104 0 0 -106 -104 0 0 -105 -105 -105 -105.5 -105.5 -106 -105 -106.5 -106.5 -105.333 -105 0 -105.333 -105.6 -105 -105 0 -105.5 -105.5 -106 -106 -106.5 -106.5 -105 0 0 0 0 0 0 0 0 0 0 0 -106 0 -107.5 -107.5 -106 0 -106 -106.5 -106.5 0 -107 -106 0 0 -107 -107 0 -107 -107.5 -107.5 -107 0 -106.5 0 -106.5 -106.5 -107 -107 0 -107 0 0 0 0 0 0 0 0 0 0 0 0 0 0 0 -108 -108 0 -108 0 0 0 0 0 -108 -107 0 0 -108 -108 0 -108 -114 -108.25 -108.667 -108.667 0 -109 0 0 -109 -108.5 -108.5 -109 0 0 0 0 0 0 0 0 0 0 -110 -109 0 -109 -109 0 0 -110 -110 -110 -110 -109 -110 -110 0 -110.5 -110.5 -110 0 -111 -110 -110 -110 -110 -110 -110 -110.5 -110.5 -111 -111 0 -111 0 -111 -111 0 0 -111 -111 -111.4 -111.4 -112 -112 -112 -112 -112 -112 -112 -112 -112 -111 0 -111 -111 0 -111.5 -111.5 0 -112 -112 -112 -112 -112 -112 -112 0 -112 -113 -113 -113 0 -113 -113 0 -113 -112 0 -112 -112 0 -112 -112.333 -112.333 -112.5 -112.667 0 -113 0 0 0 0 0 0 0 -114 -113 0 -114 -113 -114 -113 0 -114 -114 0 -114 0 0 -114 0 -114 -114 -114 -114 0 -114 -114 -115 -115 -115 -115 -115 -114.5 -114.5 -114.667 0 -114 -114 0 0 0 0 0 0 0 -115 0 -112.667 -115.333 -114.667 -114.667 -116.5 -113.5 0 0 -116 -115 0 -115 -115 0 -116 -115.5 -115 0 -115 0 -116 0 -116 0 0 0 0 0 -74.5 0 -82.6667 -18 -116 -116 -116.5 -116 0 0 0 0 -53.5 0 0 0 0 0 0 0 0 0 0 -117 0 -118 -117 -117 0 0 0 -118 -118 0 -117.5 -117 -117 0 -118 0 0 -118 0 -118 -117.5 -118 0 0
0 0 0 0 0 0 0 0 0 0 0 0 0 0 0 0 0 0 0 0 0 0 0 0 0 0 0 0 0 0 0 0 0 0 0 0 0 0 0 0 0 0 0 0 0 0 0 0 0 0 0 0 0 0 0 0 0 0 0 0 0 0 0 0 0 0 0 0 0 0 0 0 0 0 0 0 0 0 0 0 0 0 0 0 0 0 0 0 0 0 -90 -90 0 -90.5 -90.5 -90.8333 -90.8333 0 0 0 0 0 0 -91.5 -91.5 -92 -92 -90.8333 -90.8333 0 0 0 0 0 0 0 0 0 0 0 0 0 0 0 0 0 0 0 0 0 0 0 -92.5 -92.5 -92.5 -91.1667 -91.1667 0 0 -92.3333 0 0 0 0 0 0 0 0 0 0 0 0 -94 -94 -93 -93 0 0 -93.5 0 0 0 0 0 0 0 0 -94 -94.5 -94.5 -93.5 -93.5 0 0 -94.5 -94.5 -95 -93.5 -93.5 -94 -94 0 0 -95 -93.3333 0 0 0 0 0 0 0 0 0 0 -95.1667 -95.1667 -95 0 0 -94.5 -94.5 -94.8333 -94.8333 -94 0 0 0 0 0 0 0 0 0 -96.5 -96.5 -96.3333 -95.5 -95.5 -96 -96 0 0 -95.5 -95.6667 -95.6667 -96.5 -96.5 0 -96.5 -96.5 -95.9 -95.9 -96 -96.5 -96.5 0 0 -97 -97.5 -97.5 -96.5 -96.5 0 -96.8333 -96.8333 -97.5 -97.5 -96.5 0 0 0 0 -98 -96.5 -96.5 -97 0 0 -97.5 -97.5 -98 -96.5 -96.5 0 0 -98 -98.1667 -98.1667 -97 0 0 0 0 0 -98.5 -98.5 -97 0 0 -99.6667 -99.6667 -98 -97.3333 -97.6667 0 -95 -95 -100 -100 -98 -100 -100 0 0 0 0 0 0 0 0 -100 0 0 0 0 0 0 -98.5 -98.5 0 0 0 0 0 0 0 0 0 0 0 0 0 -100.167 0 0 0 -99.5 -99.5 -99.5 -100 -100.5 -100.5 -99.3333 0 0 -100 -100.333 -100.333 0 0 0 0 0 0 0 0 0 0 -100.5 -100.5 0 -101.5 -100.5 -100.5 0 -101.5 -101.5 -101.5 -100.5 -100.5 -101 -101.4 -101.4 -102 -100.5 -100.5 -101 0 -101.5 -101.5 -101.6 0 0 -102 -101.5 -101.5 -101.5 -101 -101.5 -101.5 -102 0 0 -103 -101.333 -101.667 -102 -102 -102.5 -102.5 0 0 0 0 0 0 0 0 -102.833 -102.833 -102 -102 0 0 -103 -103.5 -103.5 0 -103 0 0 -103 -103 -103.5 -103.5 -102 -102.5 -102.5 -104 -103 -103.333 0 -104 -103.5 -102.5 -102.5 -103 0 -103.5 -103.5 -104 -104 -103.833 -104.167 0 0 0 0 -104 0 0 0 0 0 0 0 -105 0 -104.5 -104.5 -105 -105 -103.6 -103.6 0 -105 0 0 0 0 0 0 0 -106 -104 0 0 -105 -105 -105 0 0 -106 0 0 0 0 0 0 -105.333 -105.333 -106 -105 0 -105.5 -105.5 -106 0 -106 -106 -105 0 -106 -105.5 -105.5 -106 -106 -106 -106.5 -106.5 -107 0 -106 0 -107.5 -107.5 -106 0 -106 -106.5 -106.5 0 -107 -106 0 0 -107 -107 -107 -107 -107.667 -107.667 -107 0 -106.5 0 -107.5 -107.5 -107 -107 0 -107 -106.333 0 0 -108 -107 0 -107.5 -107.5 -108 0 0 0 0 0 -108 -108 -108 0 -108 -108.5 -108.5 -108.5 0 0 -108.5 -107 -107.5 -107.5 -109 -108.5 -108 -108 -107.667 0 -108.333 -108.333 -109 -109 -109 0 0 -108.333 -108.333 -109 -109.5 -109 -109 -109 -109 0 -109.5 -109.5 -110 0 0 -109 -110 -109 -109 0 0 -110 -110 -110 -110 -109 -110 -110 0 -110.5 -110.5 -110 -110 -111 -110 0 0 0 0 0 0 0 0 -111 0 -111 -110 -111 -111 -110 -112 -111 -111 0 0 -112 -112 -112 -112 -112 -112 -112 -112 -112 -111 0 -111 -111 0 -111 0 0 -112 -112 0 -112 -112 -112 -112 0 -112 0 -113 -113 0 -113 -113 0 -113 -112 0 -112 -112 0 -112 -112 -112.5 -112.5 -113 0 -113 0 -114 -114 -114 -114 -114 0 -114 -113 0 -114 -113 -114 -113 0 -114 -114 0 -114 -114 0 -114 0 -114 -114 -114 -114 0 -114 0 -115 -115 -115 -115 -115 -115 -114.5 -114.5 -114 -114 -114 -114 0 -115 0 0 0 -115 -115 0 -112.667 -115.167 -114.5 -114.5 -118 -116 -116 0 -116 -115 0 -116 -115 0 0 -115.5 -115 0 -115 0 -116 0 -116 0 0 -33.5 0 -117 0 0 0 -116 0 -116 -116 -116 -1.3125 -116 0 -117 -53.5 0 -117 -117 -44.5 0 -117 0 0 0 0 0 -22.4681 -55.1667 -24.25 -15.1481 0 -1.42857 0 0 0 0 0 -117 -117 0 -118 0 -118 -118 0 0 -29 0 0 -118
0 0 0 0 0 0 0 0 0 0 0 0 0 0 0 0 0 0 0 0 0 0 0 0 0 0 0 0 0 0 0 0 0 0 0 0 0 0 0 0 0 0 0 0 0 0 0 0 0 0 0 0 0 0 0 0 0 0 0 0 0 0 0 0 0 0 0 0 0 0 0 0 0 0 0 0 0 0 0 0 0 0 0 0 0 0 0 0 0 0 -90 -90 0 -90 -90 -90.5 -90.5 -89.5 -89.5 0 0 0 0 -91.5 -91.5 -92 -92 -90.8333 -90.8333 -91.5 -91.5 0 0 -92.5 -92.5 -91.5 -91.5 -91.8333 -90.1667 -90.1667 0 0 0 0 0 0 0 0 -91.5 -91.5 0 0 -94 -94 -92.5 -92.4 -91.1667 0 0 -92.3333 -92.3333 -93 -93 -93.5 -93.5 -92.5 -92.5 0 -92.5 -92.5 -93.5 -93.5 -94 -94 -93 -93 -93.5 -93.5 -93.5 -93.5 -93.5 -93 -93 -93.5 -93.5 -93.5 -93.5 -94 -94.5 -94.5 -93.5 -93.5 -94 -94 0 0 -95 -93.6667 -93.6667 -94 -94 -94.4 0 -95 -93.3333 -93.3333 -94.5 -94.5 0 0 -94 0 0 -94.5 -94.5 0 -95.1667 -95 0 0 -96 -96 -95 -95 -95 0 0 -96.1667 -96.1667 -95.5 -95.5 0 0 0 0 0 0 0 0 0 0 0 0 0 0 -95.6667 -96.5 -96.5 -95 0 0 -95.9 -95.9 -96 -96.5 -96.5 0 0 -97 -97.5 -97.5 -96.5 -96.5 -95.5 0 0 -97.5 -97.5 -96.5 -96.5 -96.5 -97.5 -97.5 -98 -96.5 -96.5 -97 -97 -97 -97.5 -97.5 -98 -96.5 -96.5 -97.5 -97.5 0 -98.1667 -98.1667 -97 0 0 0 0 0 0 0 0 0 0 0 -99.6667 -98 -97.3333 -97.3333 0 -95 -95 -100.4 -100.4 -98 -100.4 -100.4 0 0 0 0 -98.5 -98.5 -99.5 -99.5 -99.75 -98.5 -98.5 -99 -99.1667 -99.1667 -99.3333 -98.5 -98.5 0 -99 -99 -99 -99.5 -99.5 -100.5 -100.5 -100.667 -100.5 -100.5 0 0 0 -100 -99.5 -99.5 0 0 0 0 0 0 0 0 0 -101 -100.5 -100.5 0 -101 -101 -100 -100.667 -100.667 -100.5 0 0 0 0 0 0 -101.667 -100.5 -100.5 -101 -101.667 -101.667 -101.5 -100.5 -100.5 -101 -101.4 -101.4 -101.5 -101.5 -101.5 -101 0 -101.667 -101.667 0 0 0 -102 -102.5 -102.5 -101.5 -101 -101.5 -101.5 -102 0 0 -103 -101.333 -101.333 -102 0 -102.5 -102.5 -103 -101.5 -101.5 0 -102 0 0 0 0 0 -102 -102 0 0 -103 -103.667 -103.667 0 -103 -102.5 -102.5 -103 -103 -103.5 -103.5 0 0 0 -104 -103 -103.333 -103.333 0 -103.5 -102.5 -102.5 -103 0 -103.5 -103.5 -104 -104 -103.833 -103.833 -103 0 -104.5 -104.5 -104 -104 0 0 -104.5 0 0 0 0 0 -104.5 -104.5 -105 -105 -103.6 -103.6 0 -105 -104.5 -104.5 0 -105 -105 0 0 -105.5 -104 0 0 -105.5 -105 -105 -105.5 -105.5 -106 0 0 0 0 0 0 0 0 0 0 0 0 0 0 0 -106 -106 -106.5 0 -106 -105.5 -105.5 -106 -106 -106 -106.667 -106.667 -107 -107 -106 0 0 0 0 0 0 0 0 0 -107 -106 0 0 -107 -107 -107 -107 -107.5 -107.667 -108 0 -106.5 0 -107.5 -107.5 -107 -107 0 -107 -106.333 -106.333 0 -108 -107 0 -107.5 -107.5 -108 -108 -108 0 0 0 0 0 0 -108 0 0 0 -108.5 -108 0 -108 -107 -107.5 -107.5 0 -108.5 0 -108 -107.667 0 0 0 -109 -109 0 0 0 0 -108.333 -108.333 0 -109 -108.5 -109 -109 -108.5 0 0 0 -110 -110 -110 -110 -109 -109 0 0 -110 -110 -110 -110 0 0 0 0 0 0 0 0 -111 -110 -110 -110 -110 -110 -110.333 -110.5 -110.5 -111 -111 0 -111 -110 0 -111 -110 -112 -111 -111.4 0 0 -112 -112 -112 -112 -112 -112 -112 -112 -112 -111 0 -112 -111 0 -111 0 0 -112 -112 0 -112 -112 -112 -112 0 -112 -113 -113 -113 0 -113 -113 0 -113 -112 0 -113 -112 0 -112 -112.333 -112.5 -112.667 -112.667 0 -113 0 0 -114 -114 -114 -114 0 -114 -113 0 -114 -113 -114 -113 0 -114 -114 0 -114 -114 -115 -114 0 -114 -114 0 -114 0 -114 -114 0 -115 -115 -115 -115 -115 -115 -114 -114 0 -114 -114 -115 0 0 0 0 -115 -115 0 -115 -115 -114.5 -115.667 -116.5 -116 -116 0 -116 0 0 0 0 0 0 0 0 0 0 0 0 0 0 0 0 -117 -116 -117 -117 0 -115 0 0 -116 -117 -116 0 -116 0 -117 0 -116.5 0 0 -116 0 0 0 0 0 -117 0 -35.9318 0 -117 -66 0 -20.4444 0 0 0 -88 -117.5 0 0 0 0 0 -118 -118 0 0 -36.5 0 -118 -39.3333
0 0 0 0 0 0 0 0 0 0 0 0 0 0 0 0 0 0 0 0 0 0 0 0 0 0 0 0 0 0 0 0 0 0 0 0 0 0 0 0 0 0 0 0 0 0 0 0 0 0 0 0 0 0 0 0 0 0 0 0 0 0 0 0 0 0 0 0 0 0 0 0 0 0 0 0 0 0 0 0 0 0 0 0 0 0 0 0 0 0 0 0 0 0 0 0 0 -89.5 -89.5 -90 -90 0 0 -91.5 -91.5 -91.8333 -91.8333 -91.1667 -91.1667 -91.5 -91.5 0 0 -92.5 -92.5 -91.5 -91.5 -91.8333 -91.8333 -90.1667 0 0 -90.8333 -90.8333 -91.5 -91.5 -92.5 -92.5 -91.5 -91.5 -92 -92 -94 -94 -92.5 -92.4 -92.4 0 0 -92.85 -92.85 -92.5 -92.5 -93.6667 -93.6667 -92.5 -92.5 -92.5 -92.5 -92.5 -93.5 -93.5 -94 -94 -93 -93 -93.5 -93.5 -93.3333 -93.5 -93.5 -93 -93 -93.5 -93.5 -93.5 -93.5 0 -94.5 -94.5 -93.5 -93.5 -94 -94 -94.6667 -94.6667 -95 -95 -93.6667 -94 -94 -94.4 -94.4 -95 -93.5 -93.5 -94 -94 -93.5 -93.5 0 -95.1 -95.1 -94.5 -94.5 0 0 0 0 0 0 0 -95 -95 0 0 0 0 -96.1667 -95.5 -95.5 -95.6667 -94.5 -94.5 0 0 -96.5 -95.5 -95.5 -96 -96 -96.4 0 0 0 0 0 0 0 0 0 0 0 0 -96.5 -96.5 0 0 -97 -97.5 -97.5 0 0 0 0 0 0 0 0 0 0 -97.5 -97.5 -97.5 -96.5 -96.5 -97 -97 -97 -97.5 -97.5 -98 -98 -98 -97.5 -97.5 0 -98 -98 -97 -97 -97 0 0 -98 -98.5 -98.5 -97 0 0 0 0 0 0 0 0 -92.5 -92.5 -99.8182 -99.8182 -98 -99.8182 -100.4 0 -98.5 -98.5 -98.5 -98.5 -98.5 0 0 0 -98.6667 -98.6667 -99 -99.1667 -99.1667 -99.3333 -98.5 -98.5 0 -99 -99 -99 -99.5 -99.5 0 0 -100.667 -100.5 -100.5 -100 -100 -100 -100 -99.5 -99.5 -99.5 -99.5 -99.5 -100 0 0 0 0 0 0 0 0 0 0 0 0 -100.333 -100.667 -100.5 0 0 -101 -100.5 -100.5 0 -101.5 -100.5 -100.5 -101 -99.8333 -101.667 -101.5 -100.5 -100.5 -101 -101.5 -101.5 -101.5 -101.5 -101.5 -101 0 0 -101.667 0 0 0 -102 0 0 0 0 0 0 0 0 0 0 0 0 -102 0 -102.5 -102.5 -103 -101.667 -101.667 0 -102 -102.5 -102.5 0 -103 -103 -103 0 0 0 0 0 -103.667 -103.5 -103 -102.5 -102.5 -103 -103 -103.5 -103.5 -102 0 0 -104 -103 -103.5 -103.5 0 -103.5 -103.5 -103.5 -103 0 -103.5 -103.5 -104 -104 -104 -104 -103 0 -104.5 -104.5 -104 -104 0 0 -104.5 0 0 0 0 0 0 0 0 0 0 -103.6 0 -105 -104.5 -104.5 0 -106 -105 0 0 -105.5 -104 0 0 -106 -105 -105 -105.5 -105.5 -106 -106 -105.167 -105.167 0 0 -105 -105.5 -105.5 -106 -105 0 -105.5 -105.5 -106 0 0 0 0 0 0 0 0 0 0 0 0 -106.667 -107 -107 -106 0 -107 -107 -106 0 -106 -106.333 0 0 -107 0 0 0 -107 -107 -107 -107 -107.333 -107.5 -108 0 -106 0 -107.5 -107.5 -107 -107 0 -107 -106.5 -106.5 0 -108 -107 0 -107.5 -107.5 -108 -108 -108 -108 0 -108.5 -108.5 -108 -108 0 -108 -108.667 -108.667 -108.5 -108 -108.5 0 -107 -107.5 -107.5 -109 -108 -108 -108 -107.5 0 -108.5 -108.5 -109 -109 -109 -108 0 -109 0 0 0 0 0 0 -109 0 -109.6 -109.6 0 0 -109.5 -110 0 -110 -109 0 0 -110.5 -110 0 0 -110 -110 -110 0 -110.5 -110.5 -111 0 0 0 0 -110 -110 -110 -110 -110.5 -110.5 -111 -111 0 -111 -110.5 0 -111 -110.5 0 -111.5 -111 0 -111.667 -111.667 -112 -112 -112 0 -112 -112 -112 -112 -111 -112 -112 -111 -112 -111.667 0 0 -112 -112 0 -112 -112 -112 -112 0 0 -113 -113 -113 0 0 -113 0 -113 -112 0 -113 -112 0 -112 -112.333 0 -112.667 -112.667 0 0 0 0 -114 0 0 0 0 0 0 0 -114 -113 -114 -113 0 -114 -114 0 -114 -114 0 0 0 -114 -114 0 -114 0 -114 -114 0 -115 -115 -115 -115 -115 -115 -114 -114 -114 0 0 0 0 0 0 0 0 0 0 -29.3333 -115 -28.5 -28.5 -117 -29.3333 -116 0 -116 -116 -116 -116 -115 0 0 -116 -115 -116 -115 0 -116 -115 -116 0 0 -69.6667 -116 0 -117 -116 -115 0 -116 -116 -117 -116 0 -116 0 -117 0 -117 0 -117 0 0 -117 0 -117 -116 0 -118 0 0 0 -117 -117 -117 0 -118 0 0 -117.333 -117 -117 0 -118 -118 -118 0 0 0 -117 0 -118 -118
0 0 0 0 0 0 0 0 0 0 0 0 0 0 0 0 0 0 0 0 0 0 0 0 0 0 0 0 0 0 0 0 0 0 0 0 0 0 0 0 0 0 0 0 0 0 0 0 0 0 0 0 0 0 0 0 0 0 0 0 0 0 0 0 0 0 0 0 0 0 0 0 0 0 0 0 0 0 0 0 0 0 0 0 0 0 0 0 0 0 -90 -90 0 0 -92 -90.3333 0 -89.5 -89.5 -90 -90 0 0 -91 -91 -91.5 -91.5 0 0 -91.5 -91.5 0 0 -92.5 -92.5 -91.5 -91.5 -92 -92 -90.5 0 0 -92.5 -92.5 -91.5 -91.5 -92 -92 -91.5 -91.5 -92 -92 0 0 -92.5 -92.4 -92.4 0 0 -92.85 -92.85 0 0 0 -93.6667 -92.5 -92.5 -92.5 -92.5 -92.5 -93 -93 -93.5 -93.5 -93 -93 -93.5 -93.5 0 -93.5 -93.5 -93 -93 -93.5 -93.5 0 0 -94 -94.1667 -94.1667 -93.6667 -93.6667 -94 -94 -94.3333 -94.6667 -95 -95 -95 -94 -94 -94.4 -94.4 -95 -93.5 -93.5 -94 -94 -94.5 -94.5 0 -95.1 -95.1 -94.5 -94.5 -95 -95 -95 0 0 0 0 0 0 0 0 0 0 0 -95.5 -95.5 -95.6667 -94.5 -94.5 0 0 -96.5 -95.5 -95.5 -96 -96 -96.4 -96.4 -97 -97 -97 -96.1667 -96.1667 -95 0 0 -97.5 -97.5 0 -96.5 -96.5 -95.5 -95.5 0 -97.5 -97.5 -96.5 -96.5 -95.5 0 0 -97.5 -97.5 0 0 0 0 0 0 0 0 0 -97 -97 0 0 -98 -98 -98 -97.5 -97.5 0 -97.5 -97.5 -97 -97 -97 0 0 -98 -98.5 -98.5 -97 0 0 -99.5 -99.5 -98 -98.5 -98.5 0 -97.5 -97.5 -99.8182 -99.8182 -98 -99.8182 -99.8182 0 -98 -98 -98 -98.5 -98.5 -99.6667 -99.6667 -99.5 -98.3333 -98.6667 -99 -99 -99 -99 -98.5 -98.5 -98.5 0 0 -99 -99.5 -99.5 0 0 -100.5 -100.5 -100.5 -100 0 0 -100 -100.5 -100.5 -99.5 -99.5 -99.5 -100 -100.5 -100.5 0 0 0 0 -100.5 -100.5 0 0 0 0 -100.333 -100.333 0 0 0 -101 -101.5 -101.5 0 0 -100.5 -100.5 -101 -99.8333 -99.8333 0 -100.5 -100.5 -101 0 0 -101.5 -101.667 -101.667 -101 0 0 0 0 0 0 -102 -102.5 -102.5 -101.5 -101 -101.333 0 0 0 0 0 0 0 -102 0 0 0 0 0 -101.667 0 -102 -102.5 -102.5 0 -103 -103 -103 -102 0 0 0 0 0 0 0 0 0 -103 0 0 0 0 0 0 -104 -103 -103.5 -103.5 0 0 -103.6 -103.6 -103 0 -103.5 -103.5 -104 0 -103.5 -103.5 -104 0 -104.5 -104.5 -104 -104 0 0 -104.5 -104 0 0 -105 -104 -104.5 -104.5 -105 -105 0 0 0 0 0 0 0 0 0 0 0 -105.5 -104 -104.5 -104.5 0 0 0 0 0 0 0 0 -105.167 -105 -105 -105 0 0 0 0 0 0 0 -106 0 -106 -106 -106 -106 -106 0 0 -106 0 0 0 0 0 0 0 0 0 0 -106 0 -106 -106.333 -106.333 0 -107 -106 0 0 -108 -107 -107 0 -107.333 -107.333 -108 0 -107.5 0 -107.5 -107.5 -107 -107 0 -107 -106.5 -106.5 0 -108 -107 0 -108.5 -108.5 -108 -108 -108 -108 0 -108.5 -108.5 -108 -108 0 -108 -107.833 -108.667 -108 0 -109 0 0 0 0 0 0 0 -108 -108 0 -108.5 -108.5 -109 -109 -109 0 -109 -109 -108.5 -108.5 0 -109 -109 -109 -109 -109 -109.6 -109.6 -110 -110 -110 -110 -110 -109.5 -109 -109.5 -109.5 -110.667 -110 -110 0 -109.333 -110 -110 0 -110.5 -110.5 -110.333 0 -110.5 -110 0 0 0 0 0 0 0 -111 -111 0 -111 0 0 0 0 0 0 -111 0 -111.5 -111.5 -112 -112 -112 0 -112 -112 -112 -112 -111.5 -112 -112 -111 -112 -111.667 0 0 -113 -112 0 -112 -112 0 -112 -112 -112 -112 -113 -113 0 -113 -113 0 -113 -112 0 -113 -112 0 -112.25 -112.5 0 -112.5 0 0 0 0 0 0 0 0 0 0 0 -114 0 0 0 0 -114 0 -114 0 0 -115 -114 -115 -114 0 -114 -114 0 -114 0 -114 -114 0 -115 -115 -115 -115 -115 -114 -114 -114 -114 -114 -114 0 -115 -115 -115 -115 0 -115 -115 -115 -115 0 0 -116.5 -116 -116 0 -116 -116 0 -116 -115 0 0 -116 -115 0 -115 -116 -116 0 -116 -116 0 -117 -116 0 -117 -116 -115 0 -116 0 -117 -67 0 -117 0 0 -116 0 0 -117 -116 0 -117 0 -117 0 0 -118 -22 0 0 0 0 -117 0 0 0 -118 -117 -117 -117 -117 -118 0 -118 -118 -118 -117 -117 0 0 0
0 0 0 0 0 0 0 0 0 0 0 0 0 0 0 0 0 0 0 0 0 0 0 0 0 0 0 0 0 0 0 0 0 0 0 0 0 0 0 0 0 0 0 0 0 0 0 0 0 0 0 0 0 0 0 0 0 0 0 0 0 0 0 0 0 0 0 0 0 0 0 0 0 0 0 0 0 0 0 0 0 0 0 0 0 0 0 0 0 0 -90 -90 0 0 -92 -90.3333 -90.3333 -91 -91 0 0 -91.5 -91.5 -91.1667 -91.1667 -91.5 -91.5 -90.3333 0 -91.5 -91.5 0 0 0 0 -91.5 -91.5 -92 -92 0 0 0 0 0 -91.5 -91.5 -92 -92 -91.5 -91.5 -92 -92 0 0 -92.3333 -92.6667 -92.6667 0 0 -92.3333 -92.85 0 0 0 0 0 0 0 0 0 0 0 0 0 0 0 -93.5 -93.5 0 -93.5 -93.5 -94.5 -94.5 -93.5 -93.5 0 0 0 0 0 0 -93.6667 -94 -94 -94.3333 -94.3333 -95 -95 -95 -94 -94 -94.6667 -94.6667 -95 -95 -95 -94 -94 -94.5 -94.5 0 0 -95.1 -94.5 -94.5 -95 -95 -95.3333 0 0 -95.3333 0 0 0 0 0 0 0 0 0 0 0 0 0 0 0 -96.5 -95.5 -95.5 -96 -96 -96.4 -96.4 0 -95.5 -95.5 -96.1667 -96.1667 -95 0 0 -97.5 -97.5 -96 -96.5 -96.5 -95.5 -95.5 0 -97.5 -97.5 -96.5 -96.5 -97 -96.8333 0 -97.5 -97.5 0 0 0 0 0 -97.5 -97.5 -97.5 -97.5 -97.5 -97.3333 0 0 -98 -98 -98 0 0 0 0 0 0 0 0 0 0 -98 -97.8333 -97.8333 -97 0 0 -99.5 -99.5 -98 -98.6667 -98.6667 0 -97.5 -97.5 -99.8182 -99.8182 -98 -99.8182 -99.8182 0 -98 -98 0 -98.5 -98.5 -99.3333 -99.6667 -99.5 -98.3333 -98.3333 -99 -99 -99 -99 -98.5 -98.5 -98.3333 0 0 -99 -99.5 -99.5 -98.5 -98.5 -100.5 -100.5 -100.5 -100 0 0 -100 -100.5 -100.5 -99.5 -99.5 -99.5 -100 -100.5 -100.5 0 0 0 0 -100.667 -100.667 -100.5 0 0 0 0 0 0 0 0 0 -101.5 -101.5 -100.5 0 -100.5 -100.5 -101 -100 -100 0 -101.5 -101.5 -101 -101.5 -101.5 -101.5 -101.333 -101.667 -101 0 -101 -101 -101 -101.5 -101.5 -102 -102.667 -102.667 0 -101 -101.333 -101.333 -102 0 0 -103 -101.5 -101.5 -102 -102 -102.5 -102.5 0 0 0 0 0 0 0 -103 -103 -103 -103 -102 0 0 -103 -103.5 -103.5 -103.5 -103 -102.5 -102.5 -103 0 0 0 0 -102.5 -102.5 0 -103 -103.5 -103.5 0 -103.5 -103.6 -103.6 -104 0 -103.5 -103.5 -104 0 -103.5 -103.5 -104 0 -104.667 -104.667 -104 -104 0 0 -104.5 -104 0 0 -105 -104 0 0 -105 -105 -103.5 -103.5 0 -105 -104.5 -104.5 -105 0 0 0 0 -105.5 -104 -104.5 -104.5 0 -105 -105 -105.5 -105.5 -106 -106 0 0 0 0 0 0 0 -106 -105 0 -105.333 0 0 0 -106 -106 -106 -106 -106 0 0 -106 0 -106 0 0 0 0 0 0 0 0 0 0 -106 -106.5 -106.5 0 -107 -107 0 0 -108 -107 -107 0 -107.5 -107.5 -108 0 -107.5 0 -107.5 -107.5 -107 -107 0 0 -106.5 -106.5 0 -108 -107 0 -108.5 -108.5 -108 -108 -108 0 0 0 0 0 0 0 -107.5 -107.833 -107.833 -108 -108 -108 -108 -107 -107.5 -107.5 0 -108 0 0 0 0 0 0 0 0 0 0 0 -109 -108.5 -108.5 0 -109 -109 -109 -109 -109 -109.333 -109.6 -110 0 -110 0 0 -110 0 0 0 -110.667 -110 0 -110 -110 0 -110 -110 -110.5 -110.5 0 0 -110.5 0 -110 -110 -110 0 0 -109.667 -110.333 0 0 0 0 0 0 0 0 0 -112 -110 0 0 0 0 0 0 0 -112 -112 -112 -112 0 0 0 0 0 0 0 -112.333 -112.5 -112 0 -112 -112 0 0 0 -113 -112.5 0 0 -112.5 -113 -113 -112.5 -113 -113 0 -113 -112 0 -112.25 -112.5 0 -112.5 -112.5 -112.667 -112.667 -114 0 -114 -114 -114 -114 0 -114 -114 -114 -114 -113 -114 -114 0 -114 -114 0 -115 -114 0 -114 0 -114 -114 0 -114 0 -114 -114 0 -115 -115 -115 -115 -114.5 -114 0 -114 -114 0 0 0 0 0 0 0 0 -115 -115 -115 -115 -28.5 -28.5 -117 -29.3333 -116 0 -57 -116 -116 -116 -115 0 0 -116 -115 0 -115 0 -116 0 -116 -116 0 -117 -116 0 -117 -116 -115 0 -116 0 -117 0 0 -117 0 -117 -116 0 0 -117 -116 0 -117 0 -117 -117 0 -118 -30 0 0 0 0 -117 0 -118 -118 0 0 0 0 0 0 -118 -118 -118 0 -117 -117 0 -118 -118
0 0 0 0 0 0 0 0 0 0 0 0 0 0 0 0 0 0 0 0 0 0 0 0 0 0 0 0 0 0 0 0 0 0 0 0 0 0 0 0 0 0 0 0 0 0 0 0 0 0 0 0 0 0 0 0 0 0 0 0 0 0 0 0 0 0 0 0 0 0 0 0 0 0 0 0 0 0 0 0 0 0 0 0 0 0 0 0 0 0 -90 -90 -90.5 -90.5 0 -90.5 -90.5 -91 -91 -90 -90 -90.5 -90.5 -90.8333 -91.1667 -91.5 -91.5 -90.3333 -90.3333 -91.5 -91.5 -92 -92 -92.5 -92.5 0 0 -92 -92 0 0 0 0 0 -91.5 -91.5 -92 -92 -92.5 -92.5 -91.8333 -91.8333 0 0 -92.6667 -92.3333 -92.6667 0 0 -92.3333 -92.3333 -92.5 -92.5 -93.6 -93.6 -92.5 -92.5 -92.3333 0 0 -93 -93 0 0 0 0 0 0 0 -93.5 -93.5 -94.5 -94.5 -93.5 -93.5 -94 -94 0 0 0 0 0 0 0 0 0 -94.5 -94.5 -94.5 -94 -94 -94.3333 -94.6667 -95 -95 -95 -94.1667 -94.1667 -94.5 -94.5 -94 -94 0 -95.6667 -95.6667 -95 -95 -95.3333 -95.3333 0 -95.3333 -95.3333 -96.5 -96.5 -95 0 0 -96 -96 -96.5 -96.5 -95.5 0 0 0 0 0 0 0 -95.5 -95.5 -96.5 -96.5 0 0 0 -95.8333 -96.1667 -95 0 0 -97 -97 -96 0 0 0 0 0 0 0 -96.5 -96.5 -97 -96.8333 -96.8333 -97.5 -97.5 -96.5 0 0 0 0 0 0 0 -97.5 -97.5 -97.3333 -97.5 -97.5 -98 -98 -98 -97.5 -97.5 0 -97.5 -97.5 -98 0 0 0 0 0 0 0 0 0 0 0 0 0 0 -98.6667 0 -99 -99 -98.5 -98.5 -98 -100.714 -100.714 0 0 0 -98 -98.5 -98.5 -99.3333 -99.3333 -99.5 -99.5 -99.5 -99 -99 -99 -99 -98.6667 -98.6667 -98.6667 0 0 -99 -99.5 -99.5 -98.5 -98.5 0 -100.6 -100.6 -100 -100 -100 -100 -100.5 -100.5 -99.3333 -99.5 -99.5 -100 -100.5 -100.5 -99.5 0 0 -101 -100.333 -100.667 -100.5 0 0 -101 -101.5 -101.5 -100.5 -100.5 -100.5 -101 -101.5 -101.5 -100.5 0 -100.5 -100.5 -101 -100 -100 0 -101.5 -101.5 -101 0 0 -101.5 -101.333 -101.333 0 0 0 0 0 0 0 -102 -102.333 -102.667 0 0 0 0 -102 -101.5 -101.5 0 -101.5 -101.5 -102 -102 -102.5 -102.5 -103 -103 -103 0 -102 -102.5 -102.5 -103 0 0 -103 -102 -102.5 -102.5 -103 -103 -103 -103 -103 -103.5 -103.5 -103 -103 0 0 -103 -102.5 -102.5 0 -103 -103.5 -103.5 0 -103 -103.333 -103.6 -104 0 -103.5 -103.5 -104 -103.5 -103.5 -103.5 -104 0 -104.333 -104.667 -104 -104 0 0 -104 -104 0 0 0 0 0 0 -105 -104.5 -104.5 -104.5 0 -105 -104.5 -104.5 -105 0 -105 0 0 0 0 -104.5 -104.5 0 0 -105 0 0 -106 -106 -105 -105 0 -106 -105 0 0 -106 0 0 -105.333 -105.333 -106 0 -105.5 -105.5 -105.5 -106 -106 -106.667 -106.667 -106 0 -106 -106 -106.5 -106.5 -107 -107 0 -106.667 -106.667 -106 0 0 0 0 -107 0 0 0 -107.5 -107.5 -107 -107 0 -107.5 -107.5 -108 0 -107 -106 0 0 0 -107 -107 -107 -107.5 -107.5 0 0 0 0 0 0 -108 -108 -108 -108 0 -108.5 -108.5 -108 0 -109 -107.5 -107.5 -107.5 0 -108 -108 0 -108 -107 0 0 -108 -108 -108 -108 -108 -108.5 -108.5 -109 -109 -109 -109 0 0 0 0 0 0 0 0 0 0 -109.333 -109.333 -110 0 -110 -110 0 0 -109 -109.5 -109.5 0 0 0 0 0 0 -110 -110 -110 -110.5 0 0 0 -111 0 0 -110 0 -111 0 -110.333 -110.333 -110.5 0 -111 0 -112 -112 -111 0 -111.667 -110.5 0 -111.667 -111.667 -112 -112 -112 0 0 -111.667 -112 -112 -112 0 -111.5 0 0 0 0 0 -112.333 -112 0 -113 -112 0 -112 0 0 -113 0 -113 -113 -113 -113 0 0 0 0 -113 -112 0 -112 0 0 0 0 0 0 -113.333 0 -114 -114 -114 -114 0 -114 -114 0 -114 0 -114 -114 0 -114 0 -115 -115 -114 0 0 0 -114 0 0 -114 0 -114 0 0 -115 -115 -115 -114.5 -114.5 -114.5 0 -114 -114 -114 -114 -115 -115 -115 0 0 -115 0 -115 -115 -116.5 -115.667 -115.667 -39 -116 -116 0 -116 -116 0 -116 0 0 0 -115 -115 0 -116 0 -116 0 -116 -116 0 -117 -116 0 -117 -116 -116 0 -116 0 -117 -117 0 -117 0 -117 -116 0 0 -117 -56.5 -43.5 -117 0 -117 -117 0 -118 -117 0 -117 -117 0 -117 0 -118 -118 0 -117 -117 -117 -117 0 -118 -81 -118 0 -117 -117 0 0 -118
0 0 0 0 0 0 0 0 0 0 0 0 0 0 0 0 0 0 0 0 0 0 0 0 0 0 0 0 0 0 0 0 0 0 0 0 0 0 0 0 0 0 0 0 0 0 0 0 0 0 0 0 0 0 0 0 0 0 0 0 0 0 0 0 0 0 0 0 0 0 0 0 0 0 0 0 0 0 0 0 0 0 0 0 0 0 0 0 0 0 -90 -90 -90.5 -90.5 0 -90.6667 -90.6667 -91 -91 -90 -90 -90.5 -90.5 -90.8333 -90.8333 -91.5 -91.5 -90.5 -90.5 -91 -91 -91.5 -91.5 -92.5 -92.5 -92.8333 0 -92 -92 0 0 0 0 0 0 0 0 0 0 0 0 0 0 0 -92.6667 -92.3333 -92.3333 0 0 -92.5 -92.5 -92.5 -92.5 -93.6 -93.6 -94 -94 -92.3333 0 0 -93 -93 -93.5 -93.5 -93 -93 -93.5 -93.5 0 -93.6667 -93.6667 -94 -94 -93.5 -93.5 -94 -94 0 -94.1667 -94.1667 -93.5 -93.5 -94 -94 0 0 -94.5 -94.5 -94.5 -94 -94 -94.3333 -94.3333 -95 -95 -95 -94 -94 -94.5 -94.5 -94 -94 0 -95.3333 -95.6667 -95 -95 -95.5 -95.5 -94 0 0 -96.5 -96.5 -95 -95.6667 -95.6667 0 0 -96.5 -96.5 -95.5 -95.5 -95.5 0 0 -96.5 -94.9 -94.9 -95.6667 -95.6667 -96.5 -96.5 0 0 0 -95.8333 -95.8333 -96 -95 -95 -97 -97 -96 -96 -96 -96.5 -96.5 0 0 0 0 0 0 0 0 -97.5 -97.5 0 -96.6667 -96.6667 0 0 0 0 0 -97 -97 -97 -97.5 -97.5 -98 -98 -98 -97.5 -97.5 -97.5 -97.5 -97.5 -98 0 0 -97.5 -97.5 -98 -98 -98 0 0 0 0 0 0 0 0 -99 -96.5 -96.5 -100.714 -100.714 -97.75 -100.714 -100.714 0 0 0 -98 -98.5 -98.5 -99.5 -99.5 -99.5 -99.6 -99.6 -99 0 0 -99 -99.3333 -98.6667 -98.6667 0 0 -99 -99.5 -99.5 -98.5 -98.5 0 -100.6 -100.6 -100 -100 -100 -100 -100.5 -100.5 -99.6667 -99.5 -99.5 0 -100.5 -100.5 0 0 0 -101 -100.333 -100.333 -100.5 0 0 -101 -101.5 -101.5 -100.667 -100.5 -100.5 -101 -101.5 -101.5 -100.5 0 -100.5 -100.5 -101 0 0 0 0 0 0 0 0 -101.667 -101.5 -101.5 -101 0 0 0 0 0 0 -102 -102.333 -102.333 -103 -101 -101.5 -101.5 -102 -102.5 -102.5 0 -101.5 -101.5 -102 -102 -102.5 -102.5 -103 -103 -103 -102 0 -102.5 -102.5 -103 -102.9 0 0 0 0 0 0 0 0 0 0 0 0 -103 -103 0 0 -103 -102.5 -102.5 0 -104 -103.5 -103.5 0 -103 -103.333 -103.333 -104 0 -104.5 -104.5 -104 -103.5 -103.5 -103.5 -104 0 -104.333 -104.333 -104 -104 0 0 -104 -104 0 0 -105 0 0 0 0 0 -104.5 -104.5 0 -105 -104.5 -104.5 -105 0 -105 -105.5 -105.5 -105.5 -104 -104.5 -104.5 -105 -105 -105 -105.333 0 -106 -106 -104.5 -104.5 0 -106 -105 0 0 -106 -106 0 -106.5 -106.5 -106 0 -105 -105.5 -105.5 -106 -106 -106 -106.667 -106 0 -106 -106 -106.5 -106.5 -107 -107 0 -106.333 -106.667 -106 0 -107 0 0 0 0 0 0 0 0 -107 -107 0 -107.5 -107.5 -108 0 -107 -107 -107.667 -107.667 0 0 0 0 0 0 0 -108 -107 -107 0 0 0 0 -108 -108 0 -108.5 -108.5 -109 -108 0 -107.5 -107.5 -107.5 0 0 0 0 0 0 0 0 -108 0 0 0 0 0 0 0 0 0 -109 0 -109 -108.5 -108.5 0 -109 -109 0 -109 0 0 0 0 0 0 0 -109 -110 -110 -109 0 0 -110 0 -110 -110 0 -110 -110 0 -110.333 -110.5 -111 -111 0 -110 -111 -110 0 0 0 0 0 0 0 0 0 -112 0 0 0 -111.667 -111 0 0 0 -112 0 0 0 -112 -111.667 -112 -112 -112 -112 -112 -111 0 -112 0 -112.25 0 0 0 0 0 0 0 0 0 -113 0 -113 0 0 0 0 0 0 0 0 0 0 0 0 0 0 0 0 -112 0 0 -114 -114 0 -114 -114 -114 -114 0 0 0 0 0 0 0 0 0 0 0 0 -114 0 -114 -114 0 -114 0 -114 -114 0 -115 -115 -114 -114 -114.5 -114 0 -114 -114 -114 -114 0 -115 0 0 0 -115 -115 -115 -115 -115 -114.5 -114.5 -115.167 -116 -116 0 -116 -116 -116 -116 0 0 0 -116 -115 0 -116 0 -116 0 -116 -116 0 -117 -116 0 0 -116 -116 0 -116 0 -117 0 0 -117 0 -117 -116 0 0 -117 0 -117 -117 0 -117 -117 0 -118 -117 0 -117 -117 -117 -83 0 -118 0 0 -117 -117 -117 -117 0 -61.5 -118 -118 -117 -117 -117 0 0 -118
0 0 0 0 0 0 0 0 0 0 0 0 0 0 0 0 0 0 0 0 0 0 0 0 0 0 0 0 0 0 0 0 0 0 0 0 0 0 0 0 0 0 0 0 0 0 0 0 0 0 0 0 0 0 0 0 0 0 0 0 0 0 0 0 0 0 0 0 0 0 0 0 0 0 0 0 0 0 0 0 0 0 0 0 0 0 0 0 0 0 0 0 -90.5 -90.5 -90.9 0 -90.6667 -91 -91 -90 -90 -90.5 -90.5 0 0 -91.5 -91.5 -90.5 -90.5 -91 -91 -91.5 -91.5 -92.5 -92.5 -92.8333 -92.8333 -92 -92 -92 -90.5 -90.5 0 0 0 0 -92 -92 0 0 0 0 0 0 0 0 0 0 0 0 0 0 0 0 -93.6 -94 -94 -92.3333 0 0 -93 -93 0 0 0 0 0 0 0 -93.3333 -93.6667 -94 -94 -93.5 -93.5 -94 -94 -94 -94 -94 -93.6667 -93.6667 -94 -94 -94.3333 0 -94.5 -94.5 -94.5 -94 -94 0 0 -94.25 0 0 -95.6667 -95.6667 -94.5 -94.5 -94 -94 0 -95.3333 -95.3333 0 0 0 0 0 0 0 0 0 0 0 -95.6667 0 0 -96.5 -96.5 -95.5 -95.5 -95.5 -94.5 -94.5 0 -96.5 -96.5 -95.3333 -95.6667 -96.5 -96.5 0 -96.5 -96.5 -96 -96 -96 -95 -95 0 0 -96 -96 -96 -96.5 -96.5 0 -97 -97 -96.5 -96.5 -97 -97 -97 -97.6667 -97.6667 -98 0 -96.6667 0 0 -97.5 -97.5 -97.5 -97 -97 -97 0 0 -98 -98 -98 -97.5 -97.5 -97.5 -97.5 -97.5 -98 -97 -97 -97.6 -97.6 -98 -98 -98 -98 0 0 0 0 0 0 0 0 -91.5 -91.5 -97.3333 -97.3333 -98.8 -98.8 -100.714 0 0 0 -98 -98.5 -98.5 0 0 -99.5 -99.6 -99.6 -99 0 0 -99 -99.3333 -99.3333 -98.5 0 0 -99 -99.5 -99.5 -100.167 -100.167 0 -100.333 -100.6 -100 -100 -100 0 -100.5 -100.5 -99.5 -99.5 -99.5 0 -100.5 -100.5 0 0 0 0 0 0 0 0 0 0 -101.667 -101.667 -100.5 -100.5 -100.5 -101 -101.5 -101.5 -100.5 0 -100.5 -100.5 -101 -101.667 -101.667 0 0 0 0 0 0 -101.5 -101.5 -101.5 -102 0 -101.167 -101.167 -101 0 0 0 0 0 0 0 0 0 -102 -102.5 -102.5 0 -101.5 -101.5 -102 -102 -102.5 -102.5 -102.5 -102.5 -102.5 -102 0 -102.5 -102.5 -103 -102.9 -102.9 -103 -102 -102.5 -102.5 0 -103 -103 0 0 0 0 0 -103 0 0 -103 -102.5 -102.5 0 -104 -103.5 -103.5 0 0 0 0 0 0 0 0 0 0 0 0 -104 0 -104.5 -104.5 0 0 0 0 -104 -104 -104.667 -104.667 -105 -104 -104.5 -104.5 -105 -104.5 0 0 0 0 0 0 -105 0 -105 -105 -105 -105 -105 -104.5 -104.5 -105 -105 -105 -105.333 -105.333 -106 -106 -104.5 -104.5 0 -106 -105 0 0 -106 -106 0 -106.5 -106.5 -106 0 -105 -105.5 -105.5 -106 -106 -106 -105.5 -105.5 0 -106 -106 0 0 0 0 0 -106.333 -106.333 -106 0 -107 -106.5 -106.5 -107 -107 -107 0 -107.333 0 0 0 0 0 0 -107.5 0 0 0 0 -107.667 -108 -107 -107 -107 0 0 0 0 0 0 0 0 -108 0 -108 -108 0 -108.5 -108.5 -109 -108 0 -107 -107 0 0 -108 0 -108 -108 -108 -108.333 0 0 0 0 0 0 -108.5 -108.5 -109 -109 -109 0 0 0 -108.5 -108.5 0 -110 -109 0 -109 0 0 0 0 -110 0 0 0 0 0 -109 0 0 -110 0 -110 -110 0 -110 -110 -110 -110.333 -110.333 -111 -111 -111 -110 0 0 0 -111 0 -110.5 -110.5 0 0 -111 -111 0 -111 -111 -110.333 0 -111 0 0 0 -112 0 -112 0 0 0 0 0 0 0 0 -111.333 -112 -112 0 -112.25 -112.25 -112 0 -112.5 -112 0 -112 0 0 -113 0 -113 -112.5 0 -113 -112.5 -113 -112.5 0 -112.5 -112 0 -112.75 0 0 -112.667 0 -113 -113 0 0 0 -113.667 0 -113.667 0 -114 -113.5 0 -114 -113.5 -114 -114 0 0 0 0 -115 0 -115 -115 0 -115 -114 0 -114 0 -114.5 -114 0 -115 0 -114.5 -114 -114.5 -114.667 0 -114 -114 -114 0 -115 0 0 0 -115 0 -115 0 -115 -116.5 -115.333 -114.667 -115.333 -112.667 -116 -116 -116 0 0 0 0 0 0 0 0 -116 -116 0 -116 -115 -116 -116 0 -69.6667 -117 0 0 -116 -116 0 -116 -116 -117 -117 0 -117 0 0 -116 0 0 -117 -117 -43.5 -117 0 -117 -117 0 -118 -117 -117 -117 -117 0 -117 0 -118 -118 -117 -117 -117 -117 -117 0 -61.5 -118 -118 -117 0 -117 0 0 -118
0 0 0 0 0 0 0 0 0 0 0 0 0 0 0 0 0 0 0 0 0 0 0 0 0 0 0 0 0 0 0 0 0 0 0 0 0 0 0 0 0 0 0 0 0 0 0 0 0 0 0 0 0 0 0 0 0 0 0 0 0 0 0 0 0 0 0 0 0 0 0 0 0 0 0 0 0 0 0 0 0 0 0 0 0 0 0 0 0 0 0 0 -90.5 -90.5 -90.9 -90.9 -91 -91.1 -91.1 0 0 -90.5 -90.5 0 0 0 0 -90.5 -90.5 -91 -91 -91.5 -91.5 -92 -92 -92.5 -92.5 -93.5 -93.5 -92 -92 -92 0 0 0 0 -92 -92 0 0 0 0 0 0 0 0 0 0 0 0 0 0 0 0 0 -93.5 -93.5 -92.5 0 0 -93 -93 0 0 -94 -94 0 0 0 -93.3333 -93.3333 -93.8333 -93.8333 0 0 0 0 0 0 0 0 -93.6667 -94 -94 -94.3333 -94.3333 -94.5 0 0 -94 -94 -94.5 -94.5 0 0 0 -95.3333 -95.6667 -94.5 -94.5 -95.5 -95.5 0 -95.5 -95.5 -94.5 -94.5 -95.5 -95.5 -95.6667 -94.5 -94.5 0 0 0 0 0 0 0 0 0 0 0 0 0 0 0 -96.5 -96.5 -95.3333 -95.3333 -96.5 -96.5 -95 0 0 -97.5 -97.5 -96 0 0 0 0 -96 -96 -96 -96.5 -96.5 0 -97 -97 -96.5 -96.5 -97 -97 -97 -97.3333 -97.6667 -98 0 0 -97.5 -97.5 0 -97.5 -97.5 0 0 0 0 0 -98 -98 -98 -97.5 -97.5 -97.5 0 0 -98 -97 -97 -97.6 -97.6 0 -98 -98 -98 -97.5 -97.5 0 0 0 0 0 0 0 0 0 -97.3333 -98.8 -98.8 -98.8 0 0 0 -98 -98.5 -98.5 -98 -98 0 -99.3333 -99.6 -99 0 0 -100.333 -99.5 -99.5 0 0 0 0 0 0 0 -100.167 0 -100.333 -100.333 -99.5 -99.5 -99.5 0 0 0 -99.5 -99.5 -99.5 0 -100.5 -100.5 -99 -99.5 -99.5 0 -100.5 -100.5 -100.5 -100.5 -100.5 -101 0 -101.667 -100.5 -100.5 -100.5 -101 -101.5 -101.5 -100 0 -101.5 -101.5 -101 -100.833 -101.667 0 -101.5 -101.5 -101 -101.5 -101.5 -101.5 -101.5 -101.5 -101 0 -102.333 -101.167 -101 0 0 0 -102.5 -102.5 -103 -101 -101.5 -101.5 -102 -102.5 -102.5 0 -102.5 -102.5 -102 -102 -102.5 -102.5 -102.5 -102.5 -102.5 0 -103 -102.5 -102.5 -103 -102.9 -102.9 -103 -102 -102.5 -102.5 0 -103.167 -103.167 -103 0 0 0 -104 0 0 0 -103 -103.5 -103.5 0 -104 -103.5 -103.5 0 -104.5 -103.5 -103.5 -104 0 -104.5 -104.5 -105 -103.333 0 0 0 0 0 0 -105 -104 0 0 -104 -104 -104.333 -104.667 -105 -105 -104.5 -104.5 -105 -104.5 -104.5 -104.5 0 -105 -104 0 0 0 0 0 0 0 0 0 0 -105 -105 -105 -105.5 -105.5 -106 -106 -104.5 -104.5 0 -106 -105 0 0 -106 -106 0 -106.5 -106.5 -106 0 -105 -105.5 -105.5 -106 -106 0 -106.5 -106.5 0 -106 -106 -106.5 -106.5 -107 -107 0 0 0 0 0 -107 -106.5 -106.5 -107 -107 -107 0 -107.333 -107.333 -107 0 -108 -107.5 -107.5 -107.5 -107 -107 -107 0 0 -108 0 0 0 0 0 0 0 0 0 -108.5 -108.5 -108 -108 0 -108 -108 -108.5 -108.5 -109 -108 0 -107 -107 0 0 -108 0 -108 -108 -108 -108.333 -108.333 -109 -108 0 -108 -108 -108.5 -108.5 0 0 -109 -109 0 -109 -109.5 -109.5 0 -110 -109 0 -109 -109 -109 -109.5 -109.5 -110 -110 -110 0 -110 -110 -109 0 0 -110 0 -110 -110 0 -110 -110 -110 -110.5 -110.5 -111 -111 -111 -110 0 -110 0 -111 0 0 0 0 0 0 0 0 0 0 0 0 -110 0 -111 -111.5 -111.5 0 -112 0 0 0 0 -112 -112 -112 -112 -111.5 0 -112 0 -112 -111.5 -111.5 0 -113 0 0 -112 0 0 -113 0 -113 -113 0 -113 -113 -113 -113 0 -112.5 -112.333 0 -113 -112 0 -113 0 -113 -113 0 -113.5 -113.5 -113.667 0 0 0 0 0 0 0 0 -114 0 0 0 -114.667 0 -115 -114 -115 -114.5 0 -115 -114 0 -115 0 0 -114 0 -114 0 -114 -114 0 -114.5 0 -114.5 0 -114 -114 0 -115 -115 -115 -115 -114.667 -115 -115 -113.5 -115 -115 -116 -115 -113.5 -116 -116 0 -116 0 -115 0 -115 0 -116 -115.5 -116 -116 0 -116 -115 -116 -116 0 -117 -117 0 0 0 0 0 -116 0 0 -117 0 -117 0 -117 -12.1429 -31.5 0 -117 -117 0 -117 0 -117 -117 0 -118 -117 -117 0 -117 -117 -117 0 0 0 0 0 0 -117 -117 0 -118 0 -118 -117 -117 -118 0 0 0
0 0 0 0 0 0 0 0 0 0 0 0 0 0 0 0 0 0 0 0 0 0 0 0 0 0 0 0 0 0 0 0 0 0 0 0 0 0 0 0 0 0 0 0 0 0 0 0 0 0 0 0 0 0 0 0 0 0 0 0 0 0 0 0 0 0 0 0 0 0 0 0 0 0 0 0 0 0 0 0 0 0 0 0 0 0 0 0 0 0 0 0 -90.5 -90.5 -90.9 -90.9 0 -91.1 -91.1 0 0 -90.5 -90.5 0 0 0 0 0 0 0 0 0 0 0 0 0 0 0 0 -92 -92 -92 0 0 -91.5 -91.5 -92 -92 0 0 0 0 0 0 -93.8333 0 0 0 0 0 0 0 0 0 0 0 0 -92.5 0 0 -91.5 -91.5 0 0 -94 -94 -93.5 -93.5 -93.3333 -93.5 -93.5 -94.1667 -94.1667 -94.6667 -94.6667 -94 -94 -94 0 0 0 0 0 0 0 0 0 0 0 -94 -94 -94.5 -94.5 0 0 0 -95.3333 -95.3333 -94.5 -94.5 -95.5 -95.5 0 -95.5 -95.5 -94.5 -94.5 -95.5 -95.5 -95.6667 -94.5 -94.5 0 0 -95 0 0 0 0 -96.6667 -96.6667 -95.5 0 0 0 0 0 -30.5 -30.5 -95.5 -95.5 -96.5 -96.5 -95 0 0 -97.5 -97.5 -96 0 0 0 0 0 0 0 0 0 -95.5 0 0 -96.5 -96.5 -96.5 -97 -97 -97.3333 -97.3333 -98 -96.5 -96.5 -97.5 -97.5 0 -97.6667 -97.6667 -97 -97 0 0 0 0 -98 -98 -97.5 -97.5 -97.3333 0 0 0 0 0 0 -97.6 0 -98 -98 -98 -97.5 -97.5 0 0 -99.5 0 0 0 -94.3333 0 0 0 0 0 0 0 0 0 0 0 0 0 0 0 -99.3333 -99.3333 -99 0 0 -100.5 -99.5 -99.5 -98.5 -98.6667 -98.6667 0 0 0 0 0 0 0 0 0 0 0 0 -100.667 -100.667 -99.5 -99.5 -99.5 0 -100.5 -100.5 -99 -99.5 -99.5 0 -100.5 -100.5 -100.333 -100.5 -100.5 -101 0 0 0 0 0 0 0 0 0 0 0 0 -101 -100.833 -100.833 0 -101.5 -101.5 -102 -101 -101 -101 -101.5 -101.5 -102 0 -102.333 -102.333 -101 -101.5 -101.5 0 -102.5 -102.5 -102.333 -101 0 0 -102 -102.5 -102.5 0 -102.5 -102.5 -102 -102 0 0 -102.5 -102.5 -102.5 0 -103 0 0 0 0 0 0 0 0 0 0 0 -103.167 -103 0 -103.5 -103.5 -104 -103 0 0 0 0 0 0 -104 -103.5 -103.5 0 -104 0 0 0 0 0 0 0 -103.333 -103.5 -103.5 -104 0 -104.5 -104.5 0 0 -104 -104 -104 -104 -104.333 -104.333 -105 -105 -104.5 -104.5 0 -104.667 -104.5 -104.5 0 -105 -104 -104.5 -104.5 0 -105 -105 -105 0 -105 0 0 -105 -105 -105 -105.5 -105.5 -106 -106 -104.5 -104.5 0 -106 -105 0 0 -106 -106 0 -106.5 -106.5 -107 0 -105 -105.667 -105.667 -106 0 0 0 0 0 -106 -106 0 0 -107 -107 0 -106.5 -106.5 -106 0 -107 -106.5 -106.5 -107 0 0 0 -107.5 -107.5 -108 -107 0 -107.5 -107.5 -107.5 -107 -107 -107 0 0 -108 -107 -107 -107 -107.5 -107.5 0 -108 0 0 0 0 0 -108 0 -108 -108 -108.6 -108.6 -109 -107.5 0 -107 0 0 0 0 0 0 0 0 -108.5 -108.5 -109 -108 0 -108 -108 -108.5 -108.5 -109 0 0 0 0 -109 -109.5 -109.5 0 -110 -109 0 -109 -109 0 0 0 0 0 -110 -109 0 -110 -109 0 0 -110 0 -110 -110 0 -110 -110 -110 -110.5 -110.5 -111 -111 -111 -110 0 -111 0 0 -110 0 0 -111 0 -111 -111 0 -111 -111 0 -111.5 0 0 -111 0 0 0 -112 0 -112 0 0 -112 -112 -112 -112 -111.5 0 -112 0 -112 -111.5 -111.5 0 0 0 0 0 0 0 -113 0 -113 -112.333 0 -112.5 -112.5 -112.5 -112.5 0 -112.5 0 0 0 0 0 0 0 0 -113 0 -113 -113.25 -113.25 0 -113.5 0 -114 -114 0 -114 -113.5 0 -113.5 0 0 -114.667 0 -115 -114 0 -114.5 0 -114.5 -114 0 -114.5 0 -115 0 0 -114 0 -114.667 0 0 -114 0 -114 -114 -114 0 0 -115 -114.5 -115 -115 -114.667 -115 -115 -115 -116.5 -114.833 0 -114.833 -114.333 0 -116 0 -116 0 -115 0 0 -116 -116 -115.5 0 -116 0 -116 0 -116 -116 0 -117 -117 0 0 0 0 -116 0 0 0 0 0 -117 0 -117 -116.5 0 0 -117 -117 0 -117 0 -117 -117 -117 -117 -117 0 0 0 -117 -117 0 -118 -118 -117 0 -117 0 0 0 0 0 -118 -117 -117 -118 0 0 0
0 0 0 0 0 0 0 0 0 0 0 0 0 0 0 0 0 0 0 0 0 0 0 0 0 0 0 0 0 0 0 0 0 0 0 0 0 0 0 0 0 0 0 0 0 0 0 0 0 0 0 0 0 0 0 0 0 0 0 0 0 0 0 0 0 0 0 0 0 0 0 0 0 0 0 0 0 0 0 0 0 0 0 0 0 0 0 0 0 0 0 0 -90.5 -90.5 -91 -91 0 -90.8333 -91.1 0 0 -90.5 -90.5 -91 -91 0 0 -92 -92 -91.1667 -91.1667 -91.5 -91.5 -92 -92 0 0 0 0 0 0 0 0 0 0 0 0 0 0 0 0 0 0 0 -93.8333 -93.8333 0 -93 -93 -92.75 -92.75 0 0 -93.1667 -93.1667 -93.5 -93.5 0 0 0 -91.5 -91.5 0 0 -94 -94 -93.5 -93.5 -93.5 -93.6667 -93.6667 -94 -94 -94.3333 -94.6667 -94 -94 -94 -94 -94 -94.5 -94.5 -93.8333 -93.8333 -94.5 -94.5 -94.5 -94.5 -94.5 -94 -94 -94.5 -94.5 -94.5 0 0 -95.5 -95.5 -94.5 -94.5 -95.6667 -95.6667 0 -95.5 -95.5 -94.5 -94.5 -95.5 -95.5 -95.5 0 0 -96.5 -96.5 -95 -95.5 -95.5 -96 -96 -96.3333 -96.6667 -95.5 0 0 0 0 0 0 0 0 0 0 0 0 0 0 -97.5 -97.5 -96 -95 -95 0 0 -97 -96 -96 -96.6667 -96.6667 -95.5 0 0 -96.5 -96.5 -96.5 -96.5 -96.5 -97.5 -97.5 -98 -98 -98 -97.6667 -97.6667 0 -97.3333 -97.6667 -97 -97 -97 -97.5 -97.5 -98 -98 -98 -97.5 -97.5 -97.3333 0 0 -98 0 0 0 0 0 0 0 0 0 0 0 0 0 -98.3333 0 0 -94.3333 -94.3333 -97 -97 -97 -99.5 -99.5 0 0 0 -99.5 -98.3333 0 0 0 0 -99.5 -99.5 0 -99 -99 0 -99.5 -99.5 -98.5 -98.3333 -98.6667 0 0 0 -100 -100 0 -100.5 -100.5 0 0 0 0 0 -100.667 -99.5 -99.5 -99.5 -100 -100.5 -100.5 -100.5 -99.5 -99.5 0 -100.5 -100.5 -100.333 -100.5 -100.5 0 -101.5 -101.5 -100 -100.5 -100.5 -101 -101.5 -101.5 -100 0 0 0 0 0 0 0 0 0 -102 -101 -101 0 -101.5 -101.5 -102 0 -102.5 -102.5 0 -101.5 -101.5 0 -102.5 -102.5 -102.667 -101 0 0 -102 -102.5 -102.5 0 -102.5 -102.5 -102 -102 0 0 -102.5 -102.5 -102.5 -102 0 -103.5 -103.5 -102.5 -102.5 -102.5 -103 -103 -102.5 -102.5 0 0 0 0 0 -103.5 -103.5 -104 -102.5 0 0 -103 -103 0 0 0 0 0 0 0 -103.5 -103.5 0 0 -104.333 0 0 0 0 0 0 0 0 0 0 -104 0 0 -104 -104 -104.5 -104.5 -105 -105 -104.5 -104.5 -104.667 0 0 0 0 -105 -105 -104.5 -104.5 0 -105 -105 -105 0 -105 -105.333 0 0 0 0 0 0 0 0 0 0 0 0 -105 0 0 -106 -106 0 -106.5 -106.5 -107 0 0 0 -105.667 -106 -106 -106 -106.5 -106.5 0 -107 -107 0 0 -107 -107 0 -106.5 -106.5 -107 0 -107 -106.5 -106.5 -107 0 0 0 0 0 0 0 0 0 0 0 0 -107 -107 -107.5 -107.5 -108 -108 -107 -107 -107.5 -107.5 0 -108 -108 0 -108.5 -108.5 -108 -108 0 -108 -108 -108.6 -108.6 -109 -107 0 -107 -107 0 0 -108 -108 0 -108 0 0 0 0 0 -109 -108 -108 -108.5 -108.5 -109 0 0 0 0 -109 -109.5 -109.5 0 -110 -109 0 0 -109 0 -109.5 -109.5 -110 -110 -110 0 -110 -110 -109 0 0 -110 0 -110 -110 0 -110 -110 -110 -110.5 -110.5 -111 -111 -111 0 -111 -111 0 -111 0 0 0 0 0 0 0 0 0 0 0 -111 -111 0 -111 0 0 0 -113 0 -113 -112 0 -112 0 0 -112 0 0 -112 0 -112 -111.5 -111.5 0 0 0 0 0 0 -113.5 0 0 0 0 0 0 0 0 0 -113 -112.5 -113 -113 0 -112 0 -113 0 0 -113 0 -114 -113 0 0 -114 0 -114 -114 -114 -114 -114 0 0 0 0 -114.5 0 -114.5 0 0 -115 0 -115 -114 0 -115 0 0 0 -115 -114 0 0 0 0 0 0 0 -114 -114 0 0 0 0 0 0 0 0 -115 -115 -116.5 -114.833 0 -114.833 0 -116 -115.5 -116 -0.25 0 0 0 0 -116 -116 -115.5 0 -116 0 0 0 0 0 0 0 0 0 0 0 0 0 0 -117 0 -46 -0.125 0 0 0 0 0 0 0 0 0 -117 -117 -117 0 -117 -117 -117 -117 -117 -117 0 -117 0 -118 -118 -117.333 -117 -117 -117 0 -118 0 0 -118 -117 -117 0 0 0 0
