-24.7231 -24.7231 -24.7231 -24.7231 -24.7231 -39.3816 -39.3816 -39.3816 -39.3816 -39.3816 -24.7231 -24.7231 -24.7231 -24.7231 0 0 -39.3816 -39.3816 -24.7231 -24.7231 -24.7231 -24.7231 -24.7231 -24.7231 -24.7231 -24.7231 -39.3816 -39.3816 -39.3816 -41.5037 -41.5125 -41.5125 -41.5125 -41.5125 -24.7231 -24.7231 -24.7231 -24.7231 -24.7231 -24.7231 -24.7231 -24.7231 -24.7231 -24.7231 -24.7231 -24.7231 -24.7231 -24.7231 -24.7231 -24.7231 -24.7231 -24.7231 -24.7231 -24.7231 -24.7231 -24.7231 -24.7231 -24.7231 -24.7231 -24.7231 -24.7231 0 0 -41.5125 -41.5125 -41.5125 -24.7231 -24.7231 -24.7231 -24.7231 -24.7231 -24.7231 -24.7231 -24.7231 -24.7231 -24.7231 -39.3816 -24.7231 -24.7231 0 0 0 -24.7231 -24.7231 -24.7231 -24.7231 -24.7231 -24.7231 -24.7231 -24.7231 -24.7231 -24.7231 -39.3816 -39.3816 -24.7231 -24.7231 -24.7231 -24.7231 -41.5125 -41.5125 -41.5125 -41.5125 -41.5125 -41.5125 -41.5125 -24.7231 -24.7231 -65.6961 -65.6961 -84.5688 -41.5125 -41.5125 -41.5125 -41.5125 -41.5125 -41.5125 -86.0667 -86.0667 -41.5125 -82.0177 -24.7231 -41.5125 -41.5125 -41.5125 0 -67.8333 0 -33.5 -33.5 -41.5037 -41.2511 0 0 -76.625 -76.625 -93.739 -77.8348 -89.25 0 -93.9355 -93.9355 -89.3351 -12.4667 0 0 0 0 0 0 -55.1364 -76.2167 0 0 0 0 -97.0455 -88.2024 -88.2409 -41.5125 -41.5125 -97.0455 -76 -89.3351 0 0 -85.7917 -85.7917 -86 0 -78 0 -85 0 0 0 0 -85 -85 -85 -84.5 -84.5 -63.5 -85 -96.5 -68 0 0 0 0 0 0 0 0 0 0 0 0 -83 -83 0 0 0 0 -83 0 0 0 0 -82 -82.5 -82.5 0 0 0 0 0 0 -81 0 0 0 0 0 0 0 0 -80 -80.5 -80.5 0 0 0 -80 0 -79 0 0 0 0 0 -79 -79 0 0 0 0 0 0 0 0 0 -78 -78 -78 0 0 0 0 -78 -78 0 -77 0 0 0 0 -76 -76.5 -76.5 -77 -76 0 0 0 0 0 -75 -75 -75 -75.5 -75.5 -76 0 0 -75 0 0 0 0 -74 -74 0 0 0 -74 0 0 0 0 0 -73 -73 -73 0 0 0 0 0 0 0 -73 -72 -72 0 -72 0 0 0 -72 0 0 0 0 0 0 0 -72 0 -72 0 0 -71 -71 0 0 0 0 0 0 -70 0 0 -69 -69 -69.5 -69.5 -70 0 -70 0 0 0 0 0 0 -68 -68 -68 -68 0 0 0 -67 -67 -67 0 0 0 0 0 -67 0 0 0 0 0 -68 0 0 0 0 0 0 0 -66 -66 -66 0 0 -65 0 0 0 0 -65 -65 -65 0 0 -64 0 0 0 -63.75 -63.75 0 0 0 -69 0 0 0 0 0 0 0 0 0 0 0 0 0 0 0 0 0 0 -59.5 0 0 -59.5 0 0 -62 0 -62.5 -21 -61 -60 0 0 0 -61 -74.5 0 -88.5 -60 0 0 0 -61 -60 0 -60 0 0 0 0 -60 -60 -60 -60 -60 0 -60.5 -60.5 -60.5 0 0 0 0 0 0 -56 -60.4667 0 0 -54.25 0 -60.4667 0 0 0 0 0 0 -86 -57.5714 0 0 -71 0 0 -55 0 0 -72 0 0 0 -56 -56 -56 0 -56 0 -56 0 0 0 -56 -56 -56 -56 -56 -56 -56 -56 0 -56 0 -56 -55 -54 0 -55 0 0 0 0 -54 -54 -54 -54 -54 -54 0 0 0 0 0 -53 -53 0 -53 0 -53 0 0 0 -54 -54 -53 0 -54 -53 -52 0 -53 0 0 0 0 0 -52 -52 -52 -52 0 0 0 -51 -51 0 -51 -51 0 0 0 0 0 -51 -50 -50 0 -50 0 -51 0 0 0 0 0 0 -51 0 -49 -49 0 -50 -49 -49 0 -49 0 0 -48 -48 -49 -49 0 0 0 0 -48 0 -49 -47 0 -48 -48 0 -48 0 -48 -47 0 -48 0 -47 -47 0 0 -47 -47 -47 -47 -47 -46 0
-24.7231 -24.7231 -24.7231 -24.7231 -24.7231 -24.7231 -24.7231 -24.7231 -24.7231 -24.7231 -24.7231 -24.7231 -24.7231 -24.7231 -24.7231 -24.7231 -39.3816 -24.7231 -24.7231 -24.7231 -24.7231 -24.7231 -24.7231 -24.7231 -24.7231 -24.7231 -41.5037 -41.5037 -41.5037 -41.5125 -41.5125 -41.5125 -41.5125 -41.5125 -41.5125 -41.5125 -41.5125 -41.5125 -41.5125 -41.5037 -41.5037 -41.5037 -39.3816 -24.7231 -24.7231 -24.7231 -24.7231 -24.7231 -24.7231 -24.7231 -24.7231 -24.7231 -24.7231 -24.7231 -39.3816 -39.3816 -39.3816 -41.5037 -41.5037 -24.7231 -24.7231 0 0 -24.7231 -24.7231 -24.7231 -24.7231 -24.7231 -24.7231 -24.7231 -24.7231 -24.7231 -24.7231 -24.7231 -24.7231 -39.3816 -39.3816 -24.7231 -24.7231 -24.7231 -24.7231 -24.7231 -24.7231 -24.7231 -24.7231 -24.7231 -24.7231 -24.7231 -24.7231 -24.7231 -24.7231 -24.7231 -39.3816 -36.3544 -36.3544 -36.3544 -36.3544 -41.5125 -24.7231 -24.7231 -24.7231 -24.7231 -41.5125 -41.5125 -41.5125 -41.5125 -41.5125 -41.5125 -41.5125 -41.5125 -41.5125 -41.5125 -41.5125 -41.5125 -41.5125 -41.5125 -41.5125 -41.5125 -24.7231 -80.6986 -41.5125 -41.5125 -41.5125 -43.6423 0 -67.8333 0 98 98 -82.2426 -41.5125 0 -41.5125 -41.5125 -41.5125 -47.7529 -90.3141 0 0 -84.5688 -84.5688 -88.0516 -88.0516 -74.2353 -71.4545 -94.9158 -94.9158 -76.2167 -77.0328 -77.0328 0 -72.5385 0 0 0 0 -81.7 -74 -82.3447 -82.3447 0 0 -83.7857 0 -72.5 -91.5 -91.5 0 0 -85 0 -62.7143 0 0 0 0 -85 0 0 0 0 -85 0 -96.5 -68 -84 0 0 0 0 0 0 0 0 0 -84 0 0 -83 -83 0 0 0 -83 0 0 0 0 0 0 0 -81 0 -81 0 0 0 0 -81.5 -81.5 0 0 0 -81 -81 -80 -80.5 -80.5 0 0 -80 -80 0 0 -79 -79 -79.5 -79.5 -80 0 0 0 0 0 0 -78.6667 -78.6667 -79 0 0 0 -78 -78 -78 -78 -77 0 0 0 -78 -77 0 0 0 0 0 0 0 0 -77 -76 -76 0 -76 0 0 0 0 0 0 -76 -76 0 0 -75 0 -74 0 0 0 0 0 0 0 0 -74 -74 -74 0 0 0 0 -73 -73 -72 -72 -72.5 -72.5 -73 -72 0 0 -72 -72 -72 0 0 0 0 0 0 0 0 0 0 0 0 0 0 -72 -71 -71 0 0 0 0 -70 -70 -70 -70 0 0 0 0 0 -70 -70 -69 0 0 0 -69 0 -69 0 0 -68 0 0 -68 0 0 -67 -67 -67 -67 0 0 0 0 -67 -67.5 -67.5 0 0 0 0 0 0 -67 0 -67 -67 0 0 -66 -66 0 0 0 -65 -65 0 -65 -65 -65 -65 0 0 0 0 -64 -95.5 -74.5 -63.75 0 0 54.85 0 0 0 0 0 -67 0 0 0 0 0 -65 0 0 0 0 0 0 0 0 0 -59 0 0 0 0 0 0 0 -60.5 0 -60 -60.5 -61.5 0 0 0 -74.5 0 -59 0 0 -61 -60 0 0 0 -60 -60 0 -60 -60 -60 -60 0 0 0 -60.5 -74.5 -63 -63 0 -45.5 0 0 -97 -60.4667 0 0 0 0 0 0 0 0 0 0 0 0 0 0 0 0 0 0 -55 0 0 -70.5 0 0 -57.5 0 0 0 0 0 -56 -56 -56 -56 0 -56 -56 -56 -56 -56 0 -56 -55 0 -56 0 -56 -55 -54 0 -55 -54 0 -54 0 -54 -54 -54 0 0 0 -54 -54 0 -54 -53 -53 0 0 0 -53 -53 -52 0 0 -54 -54 0 -54 -53 0 0 0 0 -52.5 -52.5 -52 0 -53 0 -52 0 0 0 -52 0 -51 -51 0 -51 0 0 -51 0 -52 -51 -51 0 0 0 0 0 0 -50 -50 -50 -50 -50 0 -50 0 -49 -49 -49 0 -49 -49 0 -49 -49 0 0 0 -49 0 -48 -48 0 -48 -48 0 -49 0 -48 0 0 0 0 -48 -48 0 -48 -48 0 0 -47 -46 0 -47 -47 -47 -47 -47 -46 0
-24.7231 -24.7231 -24.7231 -24.7231 -24.7231 -24.7231 -24.7231 -24.7231 -24.7231 -24.7231 -24.7231 -24.7231 -24.7231 -24.7231 -24.7231 -24.7231 -24.7231 -24.7231 -24.7231 -24.7231 -24.7231 -24.7231 -24.7231 -24.7231 -24.7231 -24.7231 -24.7231 -41.5037 -41.5037 -41.5125 -41.5125 -41.5125 -41.5125 -41.5125 -41.5125 -41.5125 -41.5125 -41.5125 -41.5037 -41.5037 -41.5125 -41.5125 -41.5125 -41.5125 -24.7231 -24.7231 -24.7231 -24.7231 -24.7231 -39.3816 -39.3816 -39.3816 -39.3816 -39.3816 -39.3816 -39.3816 -39.3816 -41.5037 -41.5037 -24.7231 -24.7231 -24.7231 -24.7231 -24.7231 -24.7231 -41.5125 -41.5037 -41.5037 -41.5037 -41.5037 -41.5037 -39.3816 -39.3816 -24.7231 -24.7231 -24.7231 -24.7231 -24.7231 -24.7231 -24.7231 -41.5125 -41.5037 -41.5125 -41.5125 -41.5125 -41.5125 -41.5125 -24.7231 -24.7231 -24.7231 -24.7231 -41.5125 -41.5125 -41.5125 -41.5125 -41.5125 -41.5125 -24.7231 -24.7231 -24.7231 -24.7231 -24.7231 -24.7231 -24.7231 -41.5125 -41.5125 -41.5125 -51.3156 -24.7231 -39.3816 -39.3816 -39.3816 -39.3816 -39.3816 -24.7231 -51.3156 -51.3156 -24.7231 -24.7231 -80.6986 -41.5125 -84.5688 -84.5688 -41.5125 0 0 0 -54 -54 -93.9355 -77.4773 0 0 -77.1667 -77.1667 0 -82.0177 0 -78.9848 -76.2167 -76.2167 0 -75.25 -41.5125 -89.3351 -77.4773 -77.4773 0 0 -77.0328 0 -72.5385 -72.5385 -56.2857 0 0 -73.5238 -75.875 -81.7 -81.7 0 0 -86 -86 -86.5 -86.5 0 0 -86 0 0 -85.5 -85.5 0 0 0 0 0 0 0 -85 -85 0 0 0 0 0 0 0 0 0 0 0 0 0 0 0 0 0 0 0 0 0 0 0 0 -82 -81.5 -81 0 0 0 0 -81 0 0 -80 0 0 0 0 0 -80 -80 -80 0 0 0 -80 0 -79 0 -80 0 -79 0 0 0 -80 0 0 0 0 0 0 0 -78.6667 -79 0 0 0 0 0 -78 -78 -77.5 -77.5 -78 -78 -78 -77 0 0 0 -76 -76 -76.5 -76.5 0 0 0 0 0 0 0 0 0 0 -75.6667 -75.6667 -76 -76 0 0 -75 0 0 0 0 -74 -74 0 0 0 0 -74 -74 -74 -74 -73 -73 -73 0 0 0 0 0 0 -73 -72 0 0 -72 -72 -72 0 0 0 0 0 0 0 0 0 -72 -72 -72 0 0 0 0 -71 -71 0 0 0 -70 -70 -70 -70 0 0 -69.5 -69.5 -70 -70 0 0 -69 0 0 -69 0 0 0 0 0 -68 0 0 0 0 0 0 0 -67 0 0 0 0 -67.5 -67.5 -68 0 0 0 -67 0 0 -67 0 0 0 0 0 0 -66 -66 0 -65 0 -65 0 -65 -65 -65 -64 0 0 -64 0 -64.5 0 0 0 0 99.1667 0 0 0 0 0 0 0 0 0 0 0 99.1667 0 0 0 0 0 0 0 0 0 0 0 0 0 0 0 0 -0.75 0 0 0 0 -60 0 0 -59 0 0 -73.25 -73.25 0 0 -31.6667 -60 0 0 -61 0 0 0 0 0 0 0 0 0 0 0 0 0 0 0 0 -53.2222 0 0 -54.25 -55 0 0 0 0 0 0 -70.6667 -54 0 0 0 0 0 0 0 0 -77.5 -77.5 -40.3333 0 0 0 -57.5 -57.5 0 0 0 -57 -56 -56 0 0 -56 -56 0 0 0 0 0 -56 -56 -56 0 -56 0 -55 0 -54 0 -54 -54 -54 -54 0 0 0 0 -54 -54 -54 0 -54 -54 0 0 0 -53 -53 -53 0 -53 -52 0 0 0 -53 0 -54 -53 0 -52 0 -53 -52.5 -52.5 -52 0 0 -52 0 -52 -52 0 -52 0 -51 -51 0 -51 0 -51 -51 -51 0 -51 -51 0 -50 0 -50 -50 0 -50 0 -50 -50 -50 0 0 0 -49 -49 0 -50 -49 -49 0 -49 -49 0 -48 0 -49 -48 -48 -48 0 -48 -48 0 -49 0 0 -48 -48 0 -48 -48 -48 0 0 0 -47 -47 -47 -46 0 -47 -47 -47 0 0 0 0
-24.7231 -24.7231 -24.7231 -24.7231 -24.7231 -24.7231 -24.7231 -24.7231 -24.7231 -24.7231 -24.7231 -24.7231 -24.7231 -24.7231 -24.7231 -24.7231 -24.7231 -24.7231 -24.7231 -24.7231 -24.7231 -24.7231 -24.7231 -24.7231 -24.7231 -24.7231 -24.7231 -24.7231 -24.7231 -24.7231 -24.7231 -24.7231 -24.7231 -24.7231 -24.7231 -24.7231 -24.7231 -24.7231 -24.7231 -24.7231 -24.7231 -24.7231 -24.7231 -24.7231 -24.7231 -24.7231 -24.7231 -24.7231 -24.7231 -24.7231 -24.7231 -24.7231 -24.7231 -24.7231 -39.3816 -39.3816 -39.3816 -41.5125 -24.7231 -24.7231 -24.7231 -24.7231 -24.7231 -24.7231 -24.7231 -24.7231 -41.5037 -41.5125 -41.5037 -41.5037 -41.5037 -39.3816 -24.7231 -24.7231 -24.7231 -24.7231 -24.7231 -24.7231 -41.5125 -41.5125 -41.5125 -41.5125 -41.5125 -41.5125 -41.5125 -41.5125 -41.5125 -41.5125 -41.5125 -41.5125 -41.5125 -24.7231 -24.7231 -24.7231 -24.7231 -24.7231 -24.7231 -70.0071 -70.0071 -24.7231 -24.7231 -24.7231 -41.5125 -41.5125 -41.5125 -41.5125 -41.5125 -65.2249 -65.2249 -65.2249 -24.7231 -24.7231 -41.5125 -41.5125 -41.5125 -51.3156 -51.3156 -24.7231 -24.7231 -24.7231 -24.7231 -41.5125 -41.5125 -83.4848 -90.3141 0 0 0 0 0 0 0 0 -91.1125 -91.1125 -60 0 -59 0 0 0 -68 -68 -90.3141 0 -58.2 -58.2 0 0 -61.8812 -89.5 -72.5385 -72.5385 0 0 -32.6 -86.3333 -78 -88.6373 -88.6373 0 0 0 -86 0 0 -86 -86 -86 -86 -85 -85.5 -85.5 0 0 -85 0 -85 0 0 -85 0 -85 0 0 0 0 0 0 -85 0 -84 0 -83.5 -83.5 -84 -84 0 -83 -83 0 0 0 -82 0 0 0 -81 -81 0 0 0 0 0 0 0 -80 -80.5 -80.5 -81 0 0 0 0 0 -79 0 0 -80 0 0 -79 -79 0 -78 -78.5 -78.5 0 0 0 0 0 0 0 0 0 0 0 0 0 0 -78 -78 -78 0 0 0 -78 -78 0 -77 0 -77 0 0 0 0 0 -77 0 0 0 0 0 0 0 -75 -75.3333 -75.5 -75.6667 0 -76 0 0 -75 0 0 0 0 0 0 0 0 0 -74 -74 -74 0 0 0 0 0 -73 -73 -72 0 0 0 0 -72 0 0 -72 -72 -72 0 0 0 -71 0 0 0 0 0 0 0 -72 -72 -71 0 -71 -71 0 0 0 -70 -70 -70 -70 -70 -70 0 -69.5 -69.5 -70 -70 -70 0 -69 0 0 0 -68 0 0 -69 -68 0 0 0 0 0 0 -67 -67 -67 -67 0 0 -67.5 -67.5 -68 -68 0 0 0 0 -67 0 0 0 -67 0 0 0 0 -66 -66 0 -65 0 0 0 0 0 0 -64.5 -64.5 0 -95.5 -64.5 0 0 0 0 0 0 33 0 0 0 0 0 0 0 0 0 0 0 0 0 0 0 0 0 0 0 0 0 0 0 0 0 0 0 -50 0 0 0 -64.5 0 0 0 0 0 0 0 0 0 0 -60 0 -60 0 0 0 -60 0 -60 -60 -60 0 0 0 0 0 0 0 0 0 0 -53.2222 0 0 -60.4667 -55 0 0 -64.3333 -64.3333 0 0 0 -60.4667 -64 -51 -70.6667 -70.6667 0 0 0 0 -48.598 -88.2857 -85.2222 0 -48.5 0 -57.5 -88.3333 -88.3333 -57 0 -57 -56 -56 -56 -56 -56 -56 -56 0 -56 0 -56 -56 -56 -56 0 -56 0 -55 0 0 -55 0 0 -54 0 -55 -54 -54 -54 0 -54 0 0 0 0 -54 -54 0 -53 -53 -53 -53 -53 0 0 0 0 -54 0 -54 -53 0 0 0 0 0 0 0 0 -53 -52 -52 -52 -52 0 -53 0 0 0 -52 -51 0 -52 0 0 0 -51 0 -52 -50 -50 -50 -50 0 0 0 0 0 0 -50 0 0 -49 -49 -49 0 0 -49 0 -49 -49 0 -50 0 -49 0 0 0 0 0 0 0 0 -48 -48 -47 -47 0 -48 -48 -48 0 -48 -48 -47 -47 -47 -46 0 0 0 0 -47 -47 -46 0
-24.7231 -24.7231 -24.7231 -39.3816 -39.3816 -39.3816 -39.3816 -39.3816 -39.3816 -24.7231 -24.7231 -24.7231 -24.7231 -24.7231 -24.7231 -24.7231 -24.7231 -24.7231 -24.7231 -24.7231 -24.7231 -24.7231 -24.7231 -24.7231 -24.7231 -24.7231 -24.7231 -24.7231 -24.7231 -24.7231 -24.7231 -24.7231 -24.7231 -24.7231 -39.3816 -39.3816 -39.3816 -24.7231 -24.7231 -24.7231 -24.7231 -24.7231 -24.7231 -24.7231 -24.7231 -24.7231 -24.7231 -24.7231 -24.7231 -24.7231 -24.7231 -24.7231 -24.7231 -24.7231 -24.7231 -24.7231 -24.7231 -24.7231 -24.7231 -24.7231 -24.7231 -24.7231 -24.7231 -24.7231 -24.7231 -24.7231 -39.3816 -39.3816 -39.3816 -39.3816 -24.7231 -24.7231 -24.7231 -24.7231 -24.7231 -24.7231 -24.7231 -24.7231 -24.7231 -24.7231 -24.7231 -24.7231 -41.5125 -41.5125 -41.5125 -41.5125 -41.5125 -41.5125 -41.5125 -41.5125 -24.7231 -24.7231 -24.7231 -24.7231 -24.7231 -24.7231 -24.7231 -70.0071 -70.0071 -70.0071 -24.7231 -24.7231 -24.7231 -24.7231 -24.7231 -24.7231 -24.7231 -65.2249 -65.2249 -24.7231 -24.7231 -24.7231 -24.7231 -41.5125 -41.5125 -41.5125 -41.5125 -41.5125 -41.5125 -24.7231 -24.7231 -61.8812 -61.8812 -76.25 0 0 -85.6 -85.6 0 102.75 83 -96.053 0 0 0 0 -57.2 0 -82.2426 -82.2426 -93.9355 0 0 -96.1111 0 -58.2 -58.2 0 0 -95 -83 -83 -83 0 0 0 0 -78 -78 -88.0516 0 0 0 -86 -86.5 -86.5 0 0 0 -86 -85 -85.5 -85.5 0 0 0 0 -85 0 0 0 0 0 -84 0 0 0 0 0 0 0 0 0 -83.5 -83.5 0 0 -82.5 -82 -82 0 0 0 -82 0 0 0 0 0 0 0 -81 0 0 0 0 0 0 0 -81 0 -80 -80 -80 0 -79.5 -79.5 -80 -80 0 0 0 0 0 0 -78.5 -78.5 -79 0 -78 0 0 0 0 0 0 -79 -79 0 0 0 0 -78 -78 -78 0 0 -78 -78 0 0 -77 -77 0 0 0 0 0 0 0 0 0 0 -75.5 0 0 0 -75.3333 -75.3333 -75.5 -76 0 0 0 -75 0 0 0 0 -74 -74.5 -74.5 0 0 0 0 0 -74 0 -73 -73 -73 0 0 0 -72.5 -72.5 -73 -73 -72 0 0 -72 -72 0 0 0 0 0 0 0 0 0 0 0 0 0 0 0 0 0 0 0 0 0 0 -70 -70 -70 -70 -70 0 0 -70 -70 -70 -70 0 0 0 0 -70 -69.5 0 0 -67.5 -85.3333 0 -68 0 0 0 0 -67 -67 -67 -67 0 0 0 -68 -68 -68 0 0 0 -67 0 -68 0 0 -5 0 0 0 -66 0 0 0 -66 -66 -65 0 -65 0 -66 -68 -64 0 -64 0 33 0 0 0 0 0 0 0 0 -12.4667 -72.1667 0 0 0 0 0 0 0 0 0 0 0 0 0 0 0 0 0 0 0 0 0 0 0 -90 0 0 0 0 0 0 0 0 -96.3333 0 -52.75 0 -59.5 0 0 0 -88 0 -61 0 -60 -60 -60 0 0 0 0 0 0 0 0 0 -42.4792 0 0 0 0 0 0 0 0 -60.4667 -35.7143 0 0 0 -92.5 -51 -51 -53.2222 0 -64 -73.9 0 -89.5833 -75.8667 0 -54.5 -70 0 -56.8333 -56.8333 0 0 -95.6667 -57 0 0 0 -56 -56 -56 0 0 0 0 0 0 0 0 0 0 0 -56 0 -55 0 0 -55 0 0 -54 0 -55 -54 -54 0 0 0 -54 -54 -54 0 -54 -54 -53 0 0 0 -53 -53 0 -53 0 0 -54 0 -54 0 -54 -52 0 -53 -52.5 -52.5 -54 0 -52 0 0 0 0 0 -52 0 -51 0 -52 -51 0 -52 -51 -51 0 -51 0 -52 -50 0 0 0 0 -50 -50 -50 -50 -50 -50 -50 0 0 -49 0 -49 -49 -49 0 -49 -49 0 -50 0 0 -48 -48 0 -48 -48 0 0 -49 -48 -48 -47 0 0 0 -48 -47 0 -48 -48 -47 -47 -47 0 -47 -47 -47 -47 -47 -47 -46 -46
-24.7231 -24.7231 -24.7231 -39.3816 -39.3816 -39.3816 -39.3816 -39.3816 -39.3816 -24.7231 -24.7231 -24.7231 -24.7231 -24.7231 -24.7231 -24.7231 -24.7231 -24.7231 -24.7231 -24.7231 -24.7231 -24.7231 -24.7231 -24.7231 -24.7231 -24.7231 -24.7231 -41.5125 -41.5125 -41.5125 -41.5125 -41.5125 -41.5125 -39.3816 -39.3816 -39.3816 -39.3816 -41.5037 -41.5037 -41.5125 -41.5125 -41.5125 -41.5125 -41.5125 -24.7231 -24.7231 -24.7231 -24.7231 -24.7231 -24.7231 -24.7231 -24.7231 -24.7231 -24.7231 -24.7231 -24.7231 -24.7231 -24.7231 -24.7231 -24.7231 -24.7231 -24.7231 -24.7231 -24.7231 -24.7231 -24.7231 -24.7231 -39.3816 -24.7231 -24.7231 -24.7231 -24.7231 -24.7231 -24.7231 -24.7231 -24.7231 -24.7231 -24.7231 -24.7231 -24.7231 -24.7231 -24.7231 -41.5125 -24.7231 -24.7231 -41.5125 -41.5125 -41.5125 -41.5125 -41.5125 -41.5125 -24.7231 -24.7231 -41.5125 -41.5125 -41.5125 -41.5125 -89.3351 -41.5125 -41.5125 -24.7231 -24.7231 -24.7231 -24.7231 -24.7231 -24.7231 -24.7231 -41.5125 -41.5125 -41.5125 -24.7231 -24.7231 -24.7231 -41.5125 -41.5125 -41.5125 -41.5125 -41.5125 -41.5125 -41.5125 -41.5125 -41.5125 -41.5125 0 0 0 0 0 -79 86.3333 0 0 0 0 0 0 0 0 -66.1667 -66.1667 -89.3351 0 0 -96.1111 0 0 0 0 -87.4167 -84.5688 -87 -73.5 -73.5 -67 0 0 -32.6 -96.5357 -96.5357 -89.625 0 0 -86 -86 -86.5 -86.5 0 0 0 -86 0 -85.6667 -85.6667 -85 0 0 0 0 0 0 0 0 0 0 0 -84.5 -84.5 0 -84 0 0 0 -84.5 -84.5 0 -83 0 -83 -82 -82 0 0 0 0 0 0 0 0 0 0 0 -81 0 -81 0 0 0 0 0 0 0 -80 -80 -80 0 -79.5 -79.5 0 -80 0 0 0 0 0 -78.5 -78.5 0 0 0 -78 0 0 0 0 0 0 -79 -79 -79 0 0 -78 0 0 -78.5 -78.5 0 -78 -78 -78 0 -77 -77 -76 0 -76.5 -76.5 -77 -77 -77 0 0 0 0 0 0 0 0 0 0 0 -76 0 0 -75 0 0 0 0 -74 -74.5 -74.5 0 0 0 -74 0 0 0 0 -73 -73 -73 -73 0 0 -73 -73 0 -72 0 0 0 -72 0 0 0 0 -71 0 0 0 0 0 0 -72 -72 -72 -72 0 -71 0 0 0 0 0 -70 -70 -70 -70 -70.5 -70.5 0 -70 -70 -70 -70 0 0 0 0 -69.5 -70 0 -26 0 -82.75 -68 0 0 0 -67 0 -67 -67 0 -67 0 0 0 -68 -68 -68 0 0 0 0 -67 0 0 37 0 0 -66 0 0 -66 -66 0 0 0 0 0 0 0 0 0 0 0 0 0 0 0 -22.75 0 0 0 0 0 0 0 -72.1667 0 0 0 0 0 0 0 0 0 0 0 -41.5125 -82.3447 0 0 0 0 0 0 0 0 0 -62 0 0 0 0 0 0 0 0 -63 0 0 0 0 -59.5 0 0 0 0 0 0 -60 0 0 0 -61 -62 -61 -66 0 -58.8333 -58.8333 -73.9 0 0 0 -43 -69 0 0 0 -47 0 -60.4667 0 0 0 0 0 0 0 -60.3333 0 0 0 0 0 -53.2222 -66 -32.8571 -73.9 0 -48.5 -57 0 0 -57.3333 0 3.66667 -56 0 -56 0 0 -56 -56 0 -56 -56 0 -56 -56 -56 -56 -56 -56 0 0 0 -56 -55 -54 0 -54 0 -55 0 0 -54 0 -54 -54 -54 0 0 0 0 0 0 -53 0 -53 -53 0 0 0 0 -54 0 -54 -53 0 -54 0 0 0 0 -54 0 0 -52 -52 0 -52 0 -52 -52 0 0 0 0 0 -52 -51 -51 0 -51 0 -52 -50 -50 -50 0 -51 -50 0 -50 -50 0 0 0 -50 -49 -49 0 -49 -49 0 -49 -49 -49 0 -50 0 -49 -48 -48 0 -48 0 -48 0 -48 0 -48 0 0 -48 -48 -48 0 -48 -48 -47 -47 -47 -47 0 -47 -47 -47 -47 -47 -47 0 0
-24.7231 -24.7231 -24.7231 -24.7231 -24.7231 -24.7231 -24.7231 -24.7231 -24.7231 -24.7231 -24.7231 -24.7231 -24.7231 -24.7231 -24.7231 -24.7231 -24.7231 -24.7231 -24.7231 -24.7231 -24.7231 -24.7231 -24.7231 -24.7231 -24.7231 -24.7231 -24.7231 -24.7231 -24.7231 -24.7231 -24.7231 -39.3816 -39.3816 -39.3816 -39.3816 -39.3816 -39.3816 -39.3816 -39.3816 -39.3816 -41.5037 -41.5037 -41.5125 -24.7231 -24.7231 -24.7231 -24.7231 -24.7231 -24.7231 -24.7231 -24.7231 -39.3816 -39.3816 -39.3816 -39.3816 -39.3816 -39.3816 -41.5125 -41.5125 -41.5125 -24.7231 -24.7231 -24.7231 -24.7231 -24.7231 -41.5125 -41.5125 -24.7231 -24.7231 -24.7231 -24.7231 -24.7231 -24.7231 -41.5125 -41.5125 -24.7231 -24.7231 -24.7231 -24.7231 -24.7231 -24.7231 -24.7231 -24.7231 -24.7231 -24.7231 -24.7231 -24.7231 -24.7231 -24.7231 -24.7231 -24.7231 -24.7231 -24.7231 -24.7231 -24.7231 -41.5125 -41.5125 -41.5125 -41.5125 -41.5125 -24.7231 -24.7231 -24.7231 -24.7231 -24.7231 -24.7231 -24.7231 -41.5125 -41.5125 -41.5125 -41.5125 -41.5125 -41.5125 -41.5125 -41.5125 -41.5125 -41.5125 -41.5125 -41.5125 -41.5125 -41.5125 -41.5125 -41.5125 -41.5125 0 0 0 0 -81.1667 -46.1787 -61.8812 -89.5 -39.5 -39.5 -38 -72.75 -78 0 -65.5833 -66.1667 -89.3351 0 0 -84.5179 0 0 0 -67 -77.0328 -80.75 -88.7917 -88.7917 -88.7917 -75.875 0 -96.5357 -93.5952 0 0 0 0 0 0 -86 0 0 -87 0 0 0 -85.5 -85.5 -85.6667 -85 -85 0 0 0 0 -86 -85 -85 -85 -84 0 0 0 0 0 -84 0 0 -83.5 -83.5 0 0 0 0 -82 -82 -81.5 -81.5 0 0 0 0 0 0 0 0 0 0 0 0 0 0 0 0 0 -81 0 -80 -80 -80 0 -79.5 -79.5 0 -80 0 0 0 0 0 0 0 -79 -79 0 0 0 0 0 -77 0 0 0 0 0 0 0 -78 -78 -78 -78.5 -78.5 0 -78 0 -78 -77 -77 0 0 0 0 0 0 0 -77 0 0 0 -75.5 0 0 -75 -75.5 -75.5 -76 -76 -76 0 0 0 0 0 0 0 0 0 0 0 0 0 0 -74 -74 0 0 0 0 0 -73 0 0 -73 -73 -73 0 0 0 0 0 0 0 0 0 0 -33 0 0 0 0 0 0 0 0 0 0 0 0 0 0 0 0 0 0 -70 -70 -70.5 -70.5 -71 0 0 -70 -70.5 0 -70 0 0 -70 -71 0 0 0 -38.6667 0 0 0 -68 -52.25 -67 0 -67 -67 -67.5 -67.5 0 0 0 0 0 -67 0 0 0 0 -5.5 -5.5 0 36 0 0 0 0 0 0 0 -24 8 -24.6667 0 -25.1667 0 0 -57 0 -25 0 0 0 0 0 0 0 0 0 0 0 0 -73 0 0 0 -78 -89.3351 0 0 0 0 0 58.75 0 0 0 0 0 0 0 0 0 0 0 0 0 -32 0 0 0 0 0 0 0 0 0 0 0 0 0 -63 0 0 0 0 0 -60 -60 -60 0 0 0 0 0 -58.8333 -58.8333 -40.7222 -40.7222 -40.7222 -55 -42.4792 0 0 -64.1579 -64.1579 -43.65 0 -92.5 -86.1667 -86 0 0 0 0 0 0 -46 0 -51.1011 0 -48.7647 -73.9 0 -81 -81 -80 -56.8333 0 0 0 0 -96 -57 0 -57 -56 0 -56 -56 -56 -56 0 0 -56 -56 0 0 0 -56 0 0 -55 0 -56 -55 0 0 -54 0 -55 -54 -54 -54 0 -54 0 0 -54 -54 -54 0 -54 0 -53 -53 -53 -53 0 -53 0 -53 0 0 -54 -53 0 -54 0 -53 -52.5 -52.5 -54 0 -53 -52 -52 0 0 0 0 0 -51 0 -52 -51 0 -52 -51 0 0 -51 -51 0 -51 -50 -50 0 -50 -50 -50 -50 0 0 0 -50 -50 -49 -49 0 -49 -49 0 0 0 -49 0 -49 0 -49 0 0 0 -48 -48 -48 0 -49 0 -47 -47 0 0 -48 -48 0 -48 -48 0 -47 -47 -47 0 -47 -47 -47 -47 -47 0 -46 -46
-24.7231 -24.7231 -24.7231 -24.7231 -24.7231 -24.7231 -24.7231 -24.7231 -24.7231 -24.7231 -24.7231 -24.7231 -24.7231 -24.7231 -24.7231 -24.7231 -24.7231 -24.7231 -24.7231 -24.7231 -24.7231 -24.7231 -24.7231 -24.7231 -24.7231 -24.7231 -24.7231 -24.7231 -24.7231 -24.7231 -24.7231 -24.7231 -24.7231 -24.7231 -24.7231 -24.7231 -24.7231 -24.7231 -24.7231 -24.7231 -24.7231 -41.5037 -41.5125 -24.7231 -24.7231 -24.7231 -24.7231 -24.7231 -24.7231 -24.7231 -24.7231 -39.3816 -39.3816 -39.3816 -39.3816 -39.3816 -39.3816 -41.5125 -41.5125 -41.5125 -24.7231 -24.7231 -24.7231 -24.7231 -24.7231 -41.5125 -41.5125 -24.7231 -24.7231 -24.7231 -41.5125 -24.7231 -24.7231 -24.7231 -41.5125 -24.7231 -24.7231 -41.5125 -41.5125 -41.5125 -41.5125 -41.5125 -41.5125 -41.5125 -41.5125 -41.5125 -41.5125 -41.5037 -41.5037 -41.5037 -41.5125 -24.7231 -24.7231 -24.7231 -24.7231 -24.7231 -24.7231 -41.5125 -24.7231 -24.7231 -24.7231 -24.7231 -24.7231 -41.5125 -24.7231 -24.7231 -24.7231 -24.7231 -24.7231 -24.7231 -24.7231 -24.7231 -24.7231 -41.5125 -41.5125 -41.5125 -41.5125 -41.5125 -41.5125 -41.5125 -41.5125 -41.5125 -41.5125 -41.5125 0 -74.2353 0 0 0 0 -43 -41.5125 0 0 -38 -72.75 -49.7143 0 -65.5833 -65.5833 -60 -68.2348 -68.2348 0 0 0 0 0 0 0 -67.75 -67.75 0 -75.875 -93.739 -93.5952 -87.6111 -86.0167 -86.0167 -96.5357 0 0 0 -86.5 -86.5 -87 -87 -86 0 0 -85.5 -85.5 -86 -85 -85 0 0 0 0 0 0 0 -85 -84 0 0 -85 0 0 0 0 -83 -83.5 -83.5 -83 0 0 0 -82 0 -81.6667 -81.6667 0 0 0 0 -81 -81 -81.5 -81.5 0 0 0 0 0 0 -80.5 -80.5 0 0 0 -80 -80 0 0 -79.5 -79.5 0 0 0 0 -79 0 0 0 0 0 0 0 0 0 0 0 0 0 0 -78 -78 -78 0 -78 -78 -78 -78 0 0 0 -78 0 0 0 0 0 0 0 0 -77 -77 -77 0 0 0 0 -75.5 0 0 0 0 -76 -76 -76 0 0 0 -75 0 0 0 0 -74.5 -74.5 0 0 0 0 0 0 0 0 0 -73 -73 -73 0 0 0 0 -73 -73 0 0 0 0 -72 0 0 0 0 9 -62.3333 -62.3333 0 0 0 -72 -72 -72 -72 -71 0 0 0 0 0 0 0 0 -70 0 -70.5 -70.5 -71 0 0 0 0 -70.5 0 -70 0 0 -53.5 0 0 0 -92 0 -62 0 0 -67 -39.6667 0 -69 0 -67.5 -67.5 -68 0 0 0 -68 0 0 0 -80.6667 0 -40.75 -23.3333 -55 -51.8333 -51.8333 -44.1 -44.1 -23 -22.5 -10.8 -10.8 -10.8 -73 7 7 -24.5 -25.1667 -57 -23.3333 0 0 -24 0 0 0 -9 0 0 0 -8.4 0 0 0 0 0 0 0 0 0 0 -70.2 0 0 -34.9871 0 0 0 0 0 0 0 0 0 0 0 -64.1579 0 0 0 -64.5 -16 0 0 0 0 0 0 0 0 0 0 0 0 -63 0 0 0 -61.5 0 0 0 0 0 0 0 0 0 0 -62.3333 -43.65 0 -65 -45.5 -50.7949 -32.1429 -41.6367 -50.9444 -43.65 -43.65 0 0 -64.3333 -86 -86 0 0 -40.7222 0 0 0 0 -77 0 0 -46.2333 -43.5 -48.598 -89.5833 -75.6667 0 0 -55 -57 -76 -57 -57 0 0 -56 0 0 0 0 0 -56 -56 -56 0 0 -56 0 -56 -56 0 -55 0 0 0 -54 0 -54 0 -55 -54 0 -54 0 -54 -54 -54 -54 0 -54 -54 0 0 0 0 0 -53 0 -53 0 -53 0 0 -54 -53 0 -54 -53 -53 -52.5 -52.5 0 0 0 -52 0 0 -52 0 -52 0 -51 0 -52 -51 0 -52 -51 0 -52 -51 0 -52 -51 -50 0 0 0 0 0 0 -50 0 -50 -50 -50 0 0 0 0 -49 -49 0 -49 -49 0 -49 0 0 -48 -48 0 -49 -48 0 -49 0 0 0 0 0 -48 -48 -48 0 0 0 -48 0 -47 -46 0 -47 -47 -47 -47 -47 -47 -47 -46
-24.7231 -24.7231 -24.7231 -24.7231 -24.7231 -24.7231 -24.7231 -24.7231 -24.7231 -24.7231 -24.7231 -24.7231 -24.7231 -24.7231 -24.7231 -24.7231 -24.7231 -24.7231 -24.7231 -24.7231 -24.7231 -24.7231 -24.7231 -24.7231 -24.7231 -24.7231 -24.7231 -24.7231 -24.7231 -24.7231 -24.7231 -24.7231 -24.7231 -24.7231 -24.7231 -24.7231 -24.7231 -24.7231 -24.7231 -24.7231 -24.7231 -24.7231 -24.7231 -24.7231 -24.7231 -24.7231 -24.7231 -24.7231 -24.7231 -24.7231 -24.7231 -24.7231 -24.7231 -24.7231 -24.7231 -24.7231 -24.7231 -24.7231 -24.7231 -24.7231 -24.7231 -24.7231 -24.7231 -24.7231 -24.7231 -24.7231 -24.7231 -24.7231 -24.7231 -24.7231 -41.5125 -24.7231 -24.7231 -24.7231 -41.5125 -41.5125 -24.7231 -24.7231 -24.7231 -24.7231 -41.5125 -41.5125 -41.5125 -41.5125 -41.5125 -41.5125 -41.5125 -41.5037 -41.5037 -41.5037 -41.5125 -24.7231 -24.7231 -24.7231 -24.7231 -24.7231 -24.7231 -24.7231 -24.7231 -24.7231 -24.7231 -24.7231 -24.7231 -41.5125 -41.5125 -41.5125 -41.5125 -24.7231 -24.7231 -24.7231 -24.7231 -24.7231 -24.7231 -24.7231 -24.7231 -24.7231 -24.7231 -61.8812 -89.3351 -70.0071 -70.0071 -70.0071 -24.7231 -24.7231 -70.0071 -74.2353 0 0 -36.5 -66 0 0 -78.3182 -78.3182 -38 -72.75 -49.7143 -38 0 0 -94.9158 -96.053 0 0 0 0 -49 0 0 0 0 0 -90.9091 0 0 -80.75 0 0 -91.2667 0 0 0 -86 0 0 0 0 -86 0 0 0 0 0 0 0 -86 0 0 0 0 0 -85 0 -84 -84.5 -84.5 -84.5 0 -83 -83 0 0 0 0 0 -83 -83 0 0 0 0 -81.6667 0 -82 0 0 0 0 0 0 0 -81 0 0 0 0 0 0 0 0 0 -80 -80 0 0 0 0 0 0 0 -79 -79 -79 -79.6667 -79.6667 0 0 0 0 0 0 0 0 0 0 0 0 -78 -78 0 -77 -77 0 0 0 0 0 -78 0 -78 -77 0 0 0 0 0 0 -77 -77 -77 0 0 0 0 0 0 0 0 0 -76 -76 0 0 -75 -75 0 0 0 0 0 0 0 0 0 0 0 -74 0 0 0 0 0 0 -73.5 -73.5 0 -73 -73 -73 0 0 -72 -72 -72 0 0 0 0 0 -32.5 -32.5 -54.75 0 0 0 0 0 0 0 0 0 -71 -71 0 0 0 -71 -70 -69.3333 -69.3333 -70 0 0 -44.5 -44.5 0 0 -19 0 -75 4.83333 0 -53 0 0 0 0 -62 0 0 -96.3333 0 -96.1 -96.1 0 -67.3333 -67.3333 0 -67.6667 -67 0 0 -11.5 -27 -27 -27 -24 0 -55 -23.5 -23.5 -44.1 -44.1 0 0 0 -25 -24.5 -24.5 0 0 0 -24.5 -23.5 -72.5 -23.3333 -23.3333 -24 -24 0 0 0 -88 34.3333 -24 0 0 0 0 0 0 0 0 -24.75 0 -43.4078 0 0 0 0 0 0 0 -16.5 0 0 0 -76 0 0 0 0 0 0 0 -30 0 0 0 0 0 0 -61.5 0 0 0 0 0 0 0 0 0 -59 -58 -59 -58 0 0 0 0 0 0 -58 0 0 -62.3333 -65.8333 -48.7647 -48.7647 -50.7949 -50.7949 -41.6367 -38.6762 -59 -57.3333 -57.3333 -86 0 0 0 0 0 -53.2222 -76.3333 -40.7222 0 -66 -60.3333 0 0 0 -89.5833 -65 0 0 0 -97 -56.5 0 0 0 0 0 0 -57 -56 0 -56 -56 -56 -56 -56 -56 -56 -56 0 -56 0 0 0 0 -56 0 -56 0 -54 0 -54 0 0 0 0 -54 0 -54 -54 -54 -54 0 0 0 -54 0 -53 0 -53 -53 0 0 0 -53 0 0 -54 -53 0 -54 0 0 0 0 -52 0 -52 -52 -52 -52 0 0 -52 0 -51 0 0 0 0 -52 -51 0 -51 -51 0 -52 -51 -50 -50 -50 -50 -50 0 -50 -50 0 0 0 0 -49 -49 0 -49 -49 0 -49 -49 0 0 0 0 -49 -48 0 -49 -49 -48 0 0 -48 -48 -47 -47 0 -48 -48 -47 0 -48 -48 0 0 0 -46 0 -47 -47 -47 -47 -47 -47 -47 0
-24.7231 -24.7231 -24.7231 -24.7231 -24.7231 -24.7231 -24.7231 -24.7231 -39.3816 -24.7231 -24.7231 -24.7231 -24.7231 -24.7231 -24.7231 -24.7231 -24.7231 -24.7231 -24.7231 -24.7231 -24.7231 -39.3816 -39.3816 -39.3816 -24.7231 -24.7231 -24.7231 -24.7231 -24.7231 -41.5125 -41.5037 -41.5037 -41.5037 -41.5037 -24.7231 -24.7231 -24.7231 -24.7231 -24.7231 -24.7231 -24.7231 -24.7231 -24.7231 -24.7231 -24.7231 -24.7231 -24.7231 -24.7231 -24.7231 -24.7231 -39.3816 -39.3816 -39.3816 -24.7231 -24.7231 -24.7231 -24.7231 -24.7231 -24.7231 -24.7231 -24.7231 -43.6423 -43.6423 -43.6423 -24.7231 -24.7231 -24.7231 -24.7231 -24.7231 -24.7231 -24.7231 -24.7231 -24.7231 -24.7231 -24.7231 -24.7231 -24.7231 -24.7231 -24.7231 -24.7231 -24.7231 -24.7231 -24.7231 -24.7231 -24.7231 -24.7231 -24.7231 -41.5037 -41.5037 -41.5125 -24.7231 -24.7231 -24.7231 -24.7231 -24.7231 -41.5125 -41.5037 -24.7231 -24.7231 -24.7231 -24.7231 -24.7231 -41.5125 -41.5125 -41.5125 -41.5125 -41.5125 -24.7231 -24.7231 -24.7231 -24.7231 -24.7231 -24.7231 -24.7231 -24.7231 -24.7231 -41.5125 -61.8812 -89.3351 -70.0071 0 0 -24.7231 -24.7231 -24.7231 -89.3351 -89.3351 0 -66 -81.1667 -82.3447 0 0 -78.3182 0 0 -77.0328 -93.9355 -93.9355 0 -89.3351 -96.053 0 -49.7143 -55.1364 -55.1364 0 0 0 -84.5179 -93.4 -93.4 -88.2024 -71.4545 -86.5 -93.739 0 0 0 0 0 0 -86 0 0 0 0 -86 -86 0 0 0 0 0 0 0 -85 -85.5 -85.5 0 0 0 0 0 0 0 -84 0 -83 -83 0 0 0 0 0 -83 0 -82 0 0 0 0 0 0 0 0 0 0 0 0 0 0 -81 0 0 0 0 0 0 -81 0 0 -80 0 0 0 -80 0 0 0 0 0 -79 0 -79.6667 0 0 0 0 0 0 0 0 0 0 -78 -78 -78 -78 0 -77 -77 -77 0 0 0 0 -78 0 -78 -77 0 -77 0 0 0 0 0 0 0 0 0 0 0 0 0 0 0 -76 -76 -76 -75 0 -75 -75 0 0 0 0 0 -75 0 0 0 0 0 0 -74 0 0 -73 -73 -73.5 -73.5 -74 0 0 -73 -73 0 0 0 -72 0 0 0 0 0 -72 -72 0 -54.75 -12.8333 0 -71 0 -72 -72 -72 0 0 0 0 -70 -70 0 0 0 0 0 0 0 -43.6667 -43.6667 -29.6667 0 -34 -61 0 0 0 -5.5 0 0 -61 -45.25 0 0 -64.5 0 0 -96.3333 0 -25.5 -67.3333 -67.3333 -96.1 0 0 0 0 0 0 -27 0 -22.5 -22.5 0 0 0 0 0 0 0 0 0 0 -23.5 0 0 -24.5 -24.5 -23.5 8 -24 -24 -25 0 0 0 0 0 -26 34.3333 -25.5 -74.5 0 0 0 0 0 0 0 0 0 0 0 0 0 0 0 0 0 0 0 0 0 0 0 0 0 0 0 0 -78 0 0 0 0 0 0 0 0 0 0 0 0 0 0 0 0 -63 0 0 0 -57 0 -61.5 0 0 -62.3333 0 0 0 0 0 -52 0 -48.7647 -28.2466 -39.7879 -73.9 -35.7143 0 -86 0 -53.2222 -48 0 0 0 0 0 0 -64.1579 0 -50.4714 0 0 0 0 -89.5833 -89.5833 0 0 0 0 -56 -56.8333 0 0 0 0 0 -57 -56 -56 -56 -56 0 0 0 0 0 0 0 -56 0 -56 -55 -56 -56 0 -56 0 0 0 -54 0 -55 -54 -54 -54 0 -54 -54 0 0 -54 0 -54 -54 -54 -53 0 0 0 0 -53 0 -53 -53 0 -54 -53 0 0 -53 -53 -52.5 -52.5 -54 0 -53 0 0 0 -52 0 -52 0 0 0 -52 -51 0 -52 -51 0 0 0 0 -52 -51 -50 -50 -50 -50 -50 0 0 0 0 -50 -50 0 -49 0 -50 0 0 0 0 0 -49 0 -49 -49 -49 -48 0 0 0 0 -49 -49 -48 0 -49 -47 0 -48 -47 0 0 0 0 0 -48 -47 0 -47 -47 -47 -47 -47 -47 -47 0 -46
-24.7231 -24.7231 -24.7231 -24.7231 -24.7231 -24.7231 -24.7231 -24.7231 -24.7231 -24.7231 -24.7231 -24.7231 -24.7231 -24.7231 -24.7231 -24.7231 -24.7231 -24.7231 -24.7231 -24.7231 -24.7231 -24.7231 -24.7231 -24.7231 -24.7231 -24.7231 -24.7231 -24.7231 -24.7231 -24.7231 -41.5037 -41.5037 -41.5037 -41.5037 -41.5037 -41.5037 -41.5037 -39.3816 -39.3816 -39.3816 -39.3816 -39.3816 -39.3816 -41.5037 -41.5037 -41.5037 -41.5037 -24.7231 -24.7231 -24.7231 -39.3816 -39.3816 -39.3816 -39.3816 -39.3816 -39.3816 -39.3816 -39.3816 -39.3816 -39.3816 -39.3816 -41.5125 -43.6423 -43.6423 -24.7231 -24.7231 -24.7231 -24.7231 -24.7231 -24.7231 -24.7231 -24.7231 -24.7231 -24.7231 -24.7231 -24.7231 0 -24.7231 -24.7231 -24.7231 -24.7231 -24.7231 -24.7231 -24.7231 -24.7231 -24.7231 -39.3816 -24.7231 -24.7231 -24.7231 -24.7231 -24.7231 -41.5125 -41.5125 -41.5125 -41.5125 -41.5037 -24.7231 -24.7231 -24.7231 -24.7231 -24.7231 -24.7231 -24.7231 -24.7231 -24.7231 -24.7231 -41.5125 -41.5125 -41.5125 -24.7231 -24.7231 -24.7231 -39.3816 -24.7231 -24.7231 -24.7231 -24.7231 -24.7231 -70.0071 -70.0071 -24.7231 -41.5125 -24.7231 -24.7231 -41.5125 -41.5125 0 -72.5192 -81.1667 -82.3447 0 0 0 -96.053 -52.7143 -41.5125 -93.9355 -93.9355 -94.9158 -73.5238 -91.3241 -91.3241 -88.6373 -88.6373 0 0 -62 -96.053 -86.2428 -86.2428 -86.2428 -82.3447 0 99.1667 -66.7143 -82.5 -82.5 0 0 0 0 -86.3333 0 0 -87 0 0 0 0 0 0 -86 0 0 0 0 0 0 0 0 -84.5 -84 0 0 0 -84 0 0 -83 0 -83.5 -83.5 -84 -84 0 0 -82 0 -82.5 -82.5 0 0 0 0 -81 0 -81.5 -81.5 0 0 0 0 0 0 0 0 -81 -81 -81 0 0 0 0 0 0 0 0 0 0 0 -79 -79 0 0 -79 0 0 0 0 0 -78 0 0 0 -78 -78 -78 -78 0 0 0 0 0 0 -78 0 -77 -76 0 0 0 0 0 0 0 0 -77 -77 0 0 0 -76 -76 0 0 0 0 0 0 -76 0 -75 -75 -75 0 0 0 0 0 -75 0 0 0 -74 -74 0 0 0 0 -73 -73 -73.5 -73.5 -74 0 0 -73 -73 0 0 0 -72 0 0 0 0 0 -71.5 -71.5 0 0 28 0 0 0 0 0 0 0 0 0 0 -35.5 27 -55.8333 -46 -29.6667 -29.6667 -30 0 -5.5 -34.6667 -34.6667 -29.6667 -76.5 -75 4.83333 23 0 -5.5 0 -21 0 28 0 -31.1667 0 0 0 -39.3333 -67.3333 0 -96.1 -96.1 -67.3333 -69 0 0 0 0 -26.5 -57.6667 0 0 -23 -25 0 0 -24 -23.5 -24.75 -23.75 0 0 0 0 0 0 -55 -55 -23.75 -23.75 0 0 0 0 -28.5 34 0 0 -26.3333 -25 -25 -10.5 0 0 0 0 0 0 0 0 0 0 0 0 0 -76 0 12.4167 12.4167 0 0 0 0 0 0 -82.5641 0 -1.96667 0 0 0 0 0 -28.2609 -28.2609 -82.0177 0 0 0 0 0 0 0 0 0 0 0 -59.5 -54 0 0 0 0 0 -58 0 0 0 0 0 -43.5 -58 0 0 0 -48.7647 0 -43.4078 -44 -90 0 0 0 -71 0 0 0 0 0 0 0 -65.8333 0 0 0 0 0 0 0 -49.6667 -74.5 -95 0 0 0 0 -56.8333 0 -26.3333 0 -57 -57 0 0 -56 -56 -56 0 -56 -56 -56 -56 0 0 0 -56 0 -56 0 0 0 0 -56 0 -54 0 -55 0 -54 -54 0 -54 -54 -54 -54 0 -54 0 0 0 0 0 -53 -53 -53 -53 0 -53 -53 0 0 0 0 -54 0 0 -52 -53 -55 0 -53 -52 0 -52 0 -53 -52 0 -53 0 -51 -51 0 0 0 0 -51 -51 0 -52 -51 0 -50 -50 -50 0 -50 -50 -50 0 -50 -50 0 -50 0 0 -49 -49 0 -49 -49 0 -49 -49 -49 -49 -48 0 -49 -48 0 -49 -49 -48 0 0 0 0 0 0 0 -48 -48 -47 0 -48 -47 0 0 0 -47 0 -47 -47 -47 -47 -46
-24.7231 -24.7231 -24.7231 -24.7231 -39.3816 -24.7231 -24.7231 -24.7231 -24.7231 -24.7231 -24.7231 -24.7231 -24.7231 -24.7231 -24.7231 -24.7231 -24.7231 -24.7231 -24.7231 -24.7231 -24.7231 -24.7231 -24.7231 -24.7231 -24.7231 -24.7231 -24.7231 -24.7231 -24.7231 -24.7231 -41.5037 -41.5037 -41.5037 -41.5037 -41.5037 -41.5037 -39.3816 -39.3816 -39.3816 -39.3816 -39.3816 -39.3816 -39.3816 -39.3816 -39.3816 -41.5037 -41.5037 -24.7231 -39.3816 -39.3816 -39.3816 -39.3816 -39.3816 -39.3816 -39.3816 -39.3816 -39.3816 -39.3816 -39.3816 -39.3816 -39.3816 -41.5125 -41.5125 -41.5125 -41.5125 -41.5125 -41.5125 -41.5125 -41.5125 -24.7231 -24.7231 -24.7231 -41.5125 -41.5125 -41.5125 -24.7231 -24.7231 -24.7231 -24.7231 -24.7231 -24.7231 -24.7231 -24.7231 -24.7231 -24.7231 -41.5125 -41.5125 -57.3316 -57.3316 -24.7231 -24.7231 -57.1569 -41.5125 -41.5125 -41.5125 -41.5125 -41.5125 0 0 -36.3544 -24.7231 -24.7231 -24.7231 -24.7231 -24.7231 -24.7231 -24.7231 -41.5125 -41.5125 -41.5125 -41.5125 -39.3816 -39.3816 -39.3816 -24.7231 -24.7231 -24.7231 -24.7231 -24.7231 -24.7231 -24.7231 -41.5125 -41.5125 -24.7231 -41.5125 -41.5125 -41.5125 0 -72.5192 -96.4167 -96.4167 0 0 0 -93.4 -78 -78 -78 -78 0 0 -82.3447 0 0 0 0 -61.3333 0 -78 0 0 0 -65 -75.3333 0 0 11.5667 11.5667 0 -66.7143 0 0 -86.3333 -86.3333 0 -87 0 0 0 0 0 0 -86 0 0 0 -85.5 -85.5 0 0 0 0 0 0 0 -84 -84 0 0 0 0 -83.5 -83.5 0 0 0 0 0 0 -82.5 -82.5 -82 0 0 0 0 0 0 0 0 0 0 0 0 0 0 0 -81 -81 -81 0 0 -80 0 0 0 0 0 0 0 0 -79 -79 0 0 0 0 -79 -79 0 -78 0 0 0 0 -79 -78 -78 0 0 0 -77 -77.5 -77.5 0 0 0 0 -76 0 -76 0 -77 -77.5 -77.5 0 0 -77 -77 -77 0 0 -76 -75 0 0 0 0 -76 -76 0 -76 0 0 0 0 0 0 0 -75 -75 0 0 0 0 0 -74 0 0 0 0 -73.5 -73.5 -74 -74 0 0 -73 0 0 0 0 -72 0 0 0 0 0 0 0 -54.75 7 0 -72 0 -72 -72 0 0 0 0 -46.8333 -46.8333 -2.5 -32 -2 0 10.2 10.2 0 0 -62 -62 -34.6667 0 24.8333 24.8333 24.8333 24.8333 -33 -67.75 -32.5 -32.5 -33.3 23.5 23.5 -61 0 0 -1 -39.6667 -52.25 0 0 0 0 -39.3333 0 0 -82.5 -91.3333 -26 -57.6667 0 0 -23 -23 -23 0 0 -19 0 -23.75 0 -24.5 -25.75 -22.3333 0 -20.5 -24.75 -26 0 0 -82.7 0 -82.7 -11.5 0 0 0 -26 -88 34.3333 -25.5 -10.5 -70 0 -12.5385 -28.2466 0 0 0 0 0 0 0 0 0 0 0 0 0 0 0 0 0 0 0 0 0 -36.1923 0 0 0 0 0 0 -47.2053 -52.7636 -45 0 0 0 0 -12 0 -75.3333 0 0 0 0 0 0 0 0 0 0 0 0 -29 -42.3333 0 0 -56 0 0 0 0 -48.7647 0 0 0 -24.75 -52.9167 -52 0 -42.2364 -40 -32.25 0 0 0 -40.7222 0 -43.65 -43.65 -52 85.5 85.5 0 -52.3333 0 0 0 0 0 0 0 0 0 -57 -26.3333 -57 -57 -57 -57 -56 0 -56 -56 -56 -56 -56 0 0 -56 -56 0 -56 -56 -56 -55 0 -56 0 -56 0 -54 0 0 -54 -54 -54 0 -54 -54 0 0 0 0 -54 -54 -54 -53 0 0 0 0 0 0 0 -53 0 -54 -53 0 -54 0 0 0 0 -52 0 -52 0 -53 -52 0 0 0 0 0 0 -51 -51 0 -51 -51 0 -51 -51 0 -51 -51 -51 -50 -50 -50 0 -50 -50 -50 0 0 0 0 0 0 -49 -49 -49 0 -49 -49 0 0 0 -49 -48 -48 0 -49 -48 0 -49 -48 0 0 -49 -47 0 -48 -47 0 -48 -48 0 0 0 0 0 -47 -47 -47 0 -47 -47 -47 0 0
-24.7231 -24.7231 -39.3816 -39.3816 -39.3816 -39.3816 -24.7231 -24.7231 -24.7231 -24.7231 -24.7231 -24.7231 -24.7231 -24.7231 -24.7231 -24.7231 -39.3816 -24.7231 -24.7231 -24.7231 -24.7231 -24.7231 -24.7231 -24.7231 -24.7231 -24.7231 -24.7231 -24.7231 -24.7231 -24.7231 -24.7231 -24.7231 -24.7231 -24.7231 -24.7231 -24.7231 -24.7231 -24.7231 -24.7231 -24.7231 -24.7231 -24.7231 -24.7231 -24.7231 -24.7231 -24.7231 -24.7231 -24.7231 -24.7231 -24.7231 -24.7231 -24.7231 -24.7231 -24.7231 -24.7231 -24.7231 -39.3816 -39.3816 -39.3816 -39.3816 -24.7231 -24.7231 -41.5125 -41.5125 -41.5125 -41.5125 -41.5125 -41.5125 -41.5125 -24.7231 -24.7231 -24.7231 -24.7231 -24.7231 -41.5125 -24.7231 -24.7231 -24.7231 -24.7231 -24.7231 -24.7231 -24.7231 -24.7231 -24.7231 -41.5125 -41.5125 -41.5125 -57.3316 -57.3316 -24.7231 -24.7231 -57.1569 -24.7231 -24.7231 -57.3316 -57.3316 -57.3316 -24.7231 -24.7231 -24.7231 -41.5125 -41.5125 -41.5125 -41.5125 -41.5125 -41.5125 -41.5125 -57.3316 -57.3316 -57.3316 -24.7231 -24.7231 -24.7231 -36.3544 -36.3544 0 0 0 -39.3816 -57.3316 -57.3316 -57.3316 -57.3316 -24.7231 -41.5125 -41.5125 -41.5125 -74 0 -76 0 0 0 0 0 0 0 -90.9091 -90.9091 -37 -77.8348 0 -93 0 0 0 0 0 0 0 0 -93.739 0 -56.2857 0 -86.8333 -66.7143 -66.7143 0 -66.7143 0 0 0 0 0 -87 0 -86 -86 0 0 0 -86 0 -85 0 -85 -85 0 0 -84 0 0 0 0 -84 -84 0 0 0 0 -83.6667 -83.6667 0 0 0 0 0 0 0 0 0 0 -82 0 0 -81.5 -81.5 -82 -82 0 0 0 0 0 0 0 -81 0 -81 0 0 -80 -80.5 -80.5 0 -80 0 0 0 0 0 0 0 0 -79 -79 0 0 0 0 0 0 0 0 0 0 0 0 0 0 -77 0 0 0 0 -78 0 0 0 0 -76 -76 0 0 0 0 0 0 -77 -76 -76 -76 -75 0 0 0 -76 -76 -76 -75 -75 0 -76 0 0 0 0 0 -75 0 0 0 0 0 -74 -74 0 0 0 0 -73.6667 -73.6667 0 -74 0 0 -73 0 0 0 0 0 0 0 -96 -72.5 -72.5 -72.5 0 0 -18 -45.5 -15 0 0 0 -77.5 -35 0 -32.3333 0 -31 -32 27 27 10.2 10.2 -32 -11.3333 0 -12.3333 -2 -47 -32 24.8333 24.8333 -33.5 -33.5 -32 -33 0 -33.3 0 -45.25 0 -55.3333 0 0 -1 0 0 0 -9 0 0 -69 0 0 0 0 0 0 -23 0 0 -24 -23 -23 0 0 0 0 0 0 0 0 0 0 0 0 0 -20.5 5.5 5.5 0 0 0 0 -25 -26 -26.3333 -26.3333 0 0 0 0 0 0 0 0 0 0 0 0 0 0 0 0 0 0 0 0 0 0 0 0 0 0 0 0 0 0 0 0 0 -33.5556 -22.75 -21.2 0 0 0 -60.4 0 -21 -26 0 0 0 0 0 0 0 0 -54.5 0 0 0 0 -72.75 0 0 0 0 0 0 0 0 -27.7143 0 -95 0 0 0 -52.9167 -42.2364 -42.2364 0 0 0 0 0 0 0 -73.9 -73.9 0 0 -75 0 71 0 0 0 0 0 0 0 0 0 0 0 0 -57 -57 0 0 -56 -56 0 0 0 0 -56 -56 -56 -56 0 -56 0 0 -55 0 -56 0 -56 -55 -54 0 -55 -54 -54 -54 0 0 -54 0 0 0 -54 -54 -54 -54 -53 0 -53 -53 -53 -53 0 -53 -52 0 0 0 0 0 0 0 -52 -53 -52 0 -52 0 -53 0 0 -52 -52 0 -52 0 -51 -51 0 0 -51 0 -51 -51 0 -51 -51 0 -50 -50 -50 0 -50 0 0 0 -50 -50 0 -50 -49 -49 0 0 0 0 0 0 -49 -49 -49 -48 -48 0 -49 -48 0 -49 -48 -48 0 -49 0 -48 -48 -47 0 0 0 -47 0 -48 -47 0 -47 -47 -47 0 -47 0 0 0 -46
-24.7231 -24.7231 -39.3816 -39.3816 -39.3816 -39.3816 -24.7231 -24.7231 -24.7231 -24.7231 -24.7231 -24.7231 -24.7231 -24.7231 -24.7231 -39.3816 -39.3816 -39.3816 -39.3816 -24.7231 -24.7231 -24.7231 -24.7231 -24.7231 -24.7231 -24.7231 -24.7231 -24.7231 -24.7231 -24.7231 -24.7231 -24.7231 -24.7231 -24.7231 -24.7231 -24.7231 0 -24.7231 -24.7231 -24.7231 -24.7231 -24.7231 -24.7231 -24.7231 -24.7231 -24.7231 -24.7231 -24.7231 -24.7231 -24.7231 -24.7231 -24.7231 -24.7231 -24.7231 -24.7231 -24.7231 -24.7231 -24.7231 -24.7231 -24.7231 -24.7231 -24.7231 -24.7231 -24.7231 -24.7231 -24.7231 -24.7231 -24.7231 -24.7231 -24.7231 -24.7231 -24.7231 -24.7231 -24.7231 -24.7231 -24.7231 -24.7231 -24.7231 -24.7231 -24.7231 -24.7231 -24.7231 -24.7231 -24.7231 -24.7231 -24.7231 -41.5125 -41.5125 -57.3316 -24.7231 -24.7231 -57.1569 -24.7231 -24.7231 -57.3316 -57.3316 -24.7231 -41.5125 -41.5125 -41.5125 -41.5125 -41.5125 -41.5125 -41.5125 -41.5125 -41.5125 -41.5125 -36.3544 -24.7231 -24.7231 -24.7231 -24.7231 -24.7231 -36.3544 -36.3544 -39.3816 -39.3816 0 -39.3816 -24.7231 -57.3316 -57.3316 -57.3316 -74.5 0 -90.9091 -90.9091 0 82.6667 0 -77.9091 0 0 -86.0167 -41.5125 -88.0516 -41.5037 -41.5125 -41.5125 -86.2428 0 0 -52.5 0 0 -95.7143 -49.7143 0 0 0 0 -48.3889 -48.3889 -65.6961 11.5667 -86.8333 -86.8333 -66.7143 11.5667 -85.4 0 0 0 0 0 0 0 0 0 0 0 0 0 0 0 -84 -84.5 -84.5 0 0 -84 0 0 -83.5 -83.5 0 0 0 -83 0 0 0 -83.6667 -83.5 0 0 0 0 0 0 0 0 0 0 0 -81 -81.5 -81.5 -82 0 0 0 0 0 0 0 0 -81 0 -81 0 0 0 0 0 0 -80 0 0 0 0 0 0 0 0 -79 -79 -79 0 0 -78 0 0 0 0 -79 -78 -78 0 0 0 0 0 0 0 0 -78 -77 0 0 0 0 0 0 0 0 -77 -77 -77 0 0 -76 -76 -75 0 0 0 0 0 -76 -75 -75 -75 0 -75 0 0 0 0 0 0 0 0 0 0 -74 -74 -74 0 0 0 -73.5 -73.6667 0 -74 0 0 -73 0 0 0 0 0 -0.5 0 0 0 0 -91 -35 0 32 0 -28 -30 0 -11 -29 0 -30 33 33 2 -29.3333 -29.3333 -33.6667 -33.6667 0 -34 -32 0 0 -2 -32 -31.3333 0 0 -32 0 0 0 -30 0 -31.1667 -30 0 -74.5 -59 -59 -21 0 0 -73.25 0 0 -69 0 0 0 0 0 0 -23.5 -24 -23 0 0 -21.5 -21.5 -22 -22 0 0 0 0 0 0 0 0 0 0 0 0 0 0 0 0 0 -25 -24 -24 0 -48.25 -48.25 0 -23.5 0 0 -52 0 0 0 0 0 0 -4.5 0 0 0 0 0 0 0 0 0 0 0 0 -28.2609 0 0 0 0 0 0 0 0 0 0 0 0 0 0 0 0 -49.9048 -38.2857 -60.4 0 0 0 0 -60.4 -58.8333 -40.7222 -60.4 -82 0 -38.6762 -27.7143 -27.7143 -50.7949 -44.6705 -48.1429 -39.3392 -34.5 -38.6667 0 0 0 -52.9167 0 -52.9167 0 -26.55 -42.2364 -42.2364 -60.5 0 0 0 -32.8571 0 -46.2333 0 0 0 0 -58.2667 -43.9605 -52.1833 0 0 0 0 0 0 0 0 0 0 -57.8333 0 0 -57.5 -57.5 -57 -56 -56 -56 -56 -56 -56 -56 -56 0 0 0 0 -56 0 -55 0 0 0 0 0 -54 0 0 -54 -54 -54 0 -54 -54 0 -54 0 -54 0 0 0 0 0 -53 -53 -53 -53 0 -53 0 0 0 -53 0 -54 0 -54 -52 -53 0 0 -52 0 -53 -52 0 -52 -52 -52 0 0 0 0 0 -51 -51 -51 -51 0 -51 -51 -51 -51 -50 -50 -50 0 -50 -50 -50 0 -50 -50 0 -50 0 0 -49 -49 0 -49 -49 0 -49 -49 -49 -48 -48 0 -49 -48 0 -49 -48 -48 0 -48 0 -48 0 0 0 -48 -48 -47 0 -48 -48 0 -47 0 0 0 0 -47 -47 0 -46
-24.7231 -24.7231 -39.3816 -39.3816 -39.3816 -39.3816 -24.7231 -24.7231 -39.3816 -39.3816 -39.3816 -24.7231 -24.7231 -24.7231 -24.7231 -39.3816 -39.3816 -39.3816 -39.3816 -24.7231 -24.7231 -24.7231 -24.7231 -39.3816 -24.7231 -24.7231 -24.7231 -24.7231 -24.7231 -24.7231 -39.3816 -39.3816 -24.7231 -39.3816 -39.3816 -39.3816 -39.3816 -39.3816 -39.3816 -39.3816 -39.3816 -24.7231 -39.3816 -39.3816 -39.3816 -39.3816 -39.3816 -39.3816 -39.3816 -24.7231 -24.7231 -24.7231 -24.7231 -24.7231 -24.7231 -24.7231 -24.7231 -41.5125 -41.5125 -41.5125 -24.7231 -24.7231 -24.7231 -24.7231 0 0 -41.5125 -41.5125 -24.7231 -41.5125 -41.5125 -24.7231 -24.7231 -24.7231 -24.7231 -24.7231 -24.7231 -24.7231 -24.7231 -24.7231 -24.7231 -24.7231 -24.7231 -24.7231 -24.7231 -24.7231 -24.7231 -24.7231 -57.3316 -24.7231 -24.7231 -39.3816 -39.3816 -39.3816 0 -41.5037 -41.5037 -24.7231 -24.7231 -24.7231 -24.7231 -24.7231 -24.7231 -24.7231 -24.7231 -24.7231 -24.7231 -24.7231 -24.7231 -24.7231 -39.3816 -39.3816 -24.7231 -24.7231 -24.7231 -39.3816 -39.3816 0 -39.3816 -24.7231 -24.7231 -24.7231 -57.3316 -57.3316 0 0 -26 0 0 -48 0 0 -30.6667 -62 -82.2426 47 -88.0516 -88.0516 -89.3351 -86.2428 -53.25 -78.2222 -88.2024 -88.2024 -77.0328 -95.7143 -77.0328 -97 0 0 0 0 -48.3889 -65.6961 11.5667 0 0 0 0 -65.6961 0 -86 -86.5 -86.5 0 -87 0 0 0 -85.5 -85.5 -86 -86 0 0 0 0 0 0 -85 -84 0 -84 0 0 0 -84 0 -83 0 0 0 0 0 0 0 0 -82 0 0 -83 -82 -82 0 0 -81 -81.5 -81.5 -82 -81 0 0 0 0 0 0 -82 0 0 0 0 0 -80.5 0 0 0 -80 0 -80 -80 0 -79 0 0 0 0 -79 -79 0 0 -78 -78.5 -78.5 -79 0 0 0 0 0 0 0 -77.5 -77.5 0 0 0 0 0 -77 -76 0 -76 0 0 -77 0 -77 0 -77 -77 -76 -76 -76 -75 0 0 0 -76 0 -76 -76 -75 0 0 0 0 0 0 0 -75 -75 0 0 0 0 0 0 -74 0 0 -73.3333 0 -73.5 0 -74 0 0 0 0 -32 -10.3333 0 -58.1667 0 0 0 0 0 0 0 0 -31 31.5 31 -10.3333 0 0 -29 0 0 -33.6667 -7.66667 2 -29.3333 2 0 0 0 0 0 0 0 -31.5 -31.5 0 -29 -28 0 32.5 0 0 -32 0 0 -30 -31 27 -30.5 -2.5 0 0 -59 -59 0 -31.6667 -74.5 -25 0 0 0 -23 0 0 0 -23 0 0 -22 -22 -21.5 -21.3333 -19 -21.8333 0 0 0 0 0 0 -17.6667 0 0 -23.5 0 -24.5 -24.75 0 -25 0 -23.5 0 -47.75 -47.75 -47.75 -48.25 0 -24 0 0 0 0 -26 0 -28.5 0 0 0 0 0 0 0 0 0 0 0 0 0 0 0 0 0 0 -74.3333 0 0 0 0 0 0 12.4167 0 0 0 0 0 0 0 0 0 0 0 -30 0 -37.5 -8.4 -32.1429 0 0 -38.6762 -27.7143 -58.8333 -50.7949 0 -32.1429 0 0 0 0 0 0 -35.7143 0 0 -52.9167 0 -42.2364 -52 -42.2364 -52.9167 0 0 0 -58.2667 0 -49.9 -45.0619 0 0 0 -45.0619 -37.6429 -1.96667 21.2143 0 0 0 0 0 0 0 0 0 0 0 0 0 -57 -56 0 -56 -56 0 -56 -56 -56 0 -56 0 -56 -56 0 0 0 0 0 -56 0 0 0 -55 -54 -54 -54 0 -54 -54 -54 -54 0 -54 -54 -54 0 -54 0 -53 -53 0 0 0 0 -53 0 0 0 -54 -54 0 -53 -52 -52 -52 0 -52 0 -52 -52 0 0 0 0 -52 -52 -51 -51 -51 -51 0 -51 -51 -51 0 -51 -51 -51 0 0 -50 -50 -50 0 -50 -50 -50 0 0 0 0 -50 -49 -49 -49 -49 -49 0 -49 -49 0 0 0 0 -49 -48 0 -49 -48 -48 0 -48 -47 0 -48 -48 0 -48 -48 -47 0 -48 0 0 0 -47 -46 -47 -47 -47 -47 0 -47
-24.7231 -24.7231 -24.7231 -39.3816 -39.3816 -39.3816 -24.7231 -24.7231 -39.3816 -39.3816 -39.3816 -24.7231 -24.7231 -24.7231 -24.7231 -39.3816 -39.3816 -39.3816 -39.3816 -24.7231 -24.7231 -24.7231 -24.7231 -39.3816 -24.7231 -24.7231 -24.7231 -24.7231 -24.7231 -24.7231 -24.7231 -24.7231 -24.7231 -39.3816 -39.3816 -39.3816 -39.3816 -39.3816 -39.3816 -39.3816 -24.7231 -24.7231 -24.7231 -24.7231 -24.7231 -39.3816 -39.3816 -39.3816 -39.3816 -39.3816 -39.3816 -39.3816 -39.3816 -39.3816 -39.3816 -39.3816 -39.3816 -24.7231 -24.7231 -24.7231 -24.7231 -41.5125 -41.5125 -24.7231 -24.7231 -24.7231 -24.7231 -24.7231 -41.5125 -41.5125 -41.5125 -41.5125 -41.5125 -24.7231 -24.7231 -24.7231 -41.5125 -41.5125 -24.7231 -24.7231 -24.7231 -24.7231 -24.7231 -24.7231 -24.7231 -24.7231 -24.7231 -24.7231 -24.7231 -24.7231 -41.5125 -41.5037 -41.5037 -41.5037 -39.3816 -39.3816 -39.3816 -24.7231 -24.7231 -24.7231 -24.7231 -24.7231 -24.7231 -24.7231 -24.7231 -24.7231 -24.7231 -41.5125 -41.5125 -41.5125 -41.5037 -41.5037 -41.5037 -41.5125 -24.7231 -39.3816 -39.3816 -39.3816 -39.3816 -39.3816 -39.3816 -41.5125 -41.5125 -41.5125 -82.3447 -82.3447 0 0 0 0 0 0 0 -41.5125 -93.9355 -82.2426 -88.2409 -88.2409 0 -93.5 -75.875 -77.0328 -77.0328 -77.0328 -41.5125 -77.0328 -41.5125 0 -93 0 0 0 -41.5125 0 -83.6667 0 0 0 -74.8333 11.5667 0 0 0 0 0 -87 0 -86 -86.5 -86.5 0 0 0 0 -84 0 0 -85 -85 0 0 0 0 0 0 0 -84 0 0 0 0 0 -84 0 -83 0 0 0 0 0 0 0 0 -82 0 -81 -81.5 -81.5 0 -81 0 0 0 -81 0 0 0 0 0 0 0 0 -80.3333 -80.5 0 0 0 0 0 0 0 0 0 -80 -80 -80 0 -79 0 0 -78 -78.5 -78.5 -79 0 0 -78 -78 0 0 0 0 0 -78 -78 0 -78 0 0 0 0 -76 -76.5 -76.5 -77 0 0 0 0 -77 0 -76 -76 -75.5 -75.5 0 0 -76 0 0 -76 -75 0 -75 -75 0 0 0 0 0 0 0 0 0 0 -74 -74 -74 0 -73.3333 -73.3333 -73.3333 -74 -74 -73 0 0 -78 0 -32 -15.5 32 -79 0 0 -62.3333 -62.3333 31 0 0 0 31.5 32 0 32 33 -31 -30 -29 32 0 -26.5 -25 -28.5 -28.5 -28.5 0 0 0 -31 0 0 0 -29.5 0 -29 0 -30 -30 -32.5 -28.5 -28 -28 -28 -32.5 -28.5 -31 -31 -74.5 0 0 -2 -73.25 0 -31.6667 -25.1667 -25.1667 -24 0 0 0 0 0 0 -23 -23 0 -22 0 -22 -21 -19 -21.8333 -21.8333 0 0 0 -22 0 0 0 -23 0 -24.5 0 -23.1667 -28 0 0 -23 0 0 -26 -19.5 -72 0 -23.6667 35 0 0 0 0 0 0 0 0 0 0 0 0 0 0 0 0 0 0 0 0 0 0 0 0 0 0 0 0 0 0 0 0 -38.75 0 0 0 0 0 0 0 -38.2857 0 -31.5 -65 -50.7949 -50.7949 -40.7222 -32.1429 0 0 -38.6762 -42.55 -34.7684 -48.5 -44.6705 0 -46 0 0 0 -36.1923 69 0 54 -32.1429 0 -42.3333 0 0 -43.65 0 -63 0 0 0 21.2143 -49.9 -45.0619 0 -76 -58 -75.6667 -69 0 0 0 0 0 80.8 0 -49.3333 -17.5 0 0 0 0 0 -57 -57 0 0 0 0 -56 -56 -56 -56 0 -56 0 -56 0 0 -55 0 -56 0 -56 0 0 0 -54 -54 -54 -54 0 -54 0 -54 -54 -54 -54 -54 -54 -54 -54 0 0 0 -53 -53 0 -53 -53 0 -53 0 -54 0 0 0 -52 -53 0 -52 -52 0 -52 0 0 -52 -52 -52 -52 0 -51 -51 -51 0 0 0 0 0 -51 -51 0 -51 -51 -50 -50 0 -50 -50 -50 0 0 -50 -50 -50 -50 -50 -49 -49 0 0 0 0 0 0 -49 -49 -48 -48 -48 -48 0 -49 -48 0 -49 -48 -48 0 -48 -47 0 0 -48 0 0 0 -48 0 -47 -46.5 -46.5 -47 -47 0 0 0 0
-24.7231 -24.7231 -24.7231 -39.3816 -39.3816 -39.3816 -24.7231 -24.7231 -39.3816 -39.3816 -39.3816 -39.3816 -39.3816 -39.3816 -39.3816 -39.3816 -39.3816 -39.3816 -39.3816 -24.7231 -24.7231 -24.7231 -24.7231 -24.7231 -24.7231 -24.7231 -24.7231 -24.7231 -24.7231 -24.7231 -24.7231 -24.7231 -24.7231 -24.7231 -39.3816 -39.3816 -39.3816 -39.3816 -24.7231 -24.7231 -24.7231 -24.7231 -24.7231 -24.7231 -24.7231 -24.7231 -24.7231 -39.3816 -39.3816 -39.3816 -39.3816 -39.3816 -39.3816 -39.3816 -39.3816 -39.3816 -24.7231 -24.7231 -24.7231 -24.7231 -24.7231 -24.7231 -24.7231 -24.7231 -24.7231 -24.7231 -24.7231 -24.7231 -24.7231 -41.5125 -41.5125 -41.5125 -41.5125 -24.7231 -24.7231 -24.7231 -41.5125 -41.5125 -24.7231 -24.7231 -24.7231 -24.7231 -24.7231 -24.7231 -24.7231 -24.7231 -41.5125 -41.5125 -24.7231 -24.7231 -24.7231 -24.7231 -24.7231 -24.7231 -24.7231 -24.7231 -24.7231 -24.7231 -24.7231 -41.5125 -41.5125 -41.5125 -41.5125 -41.5125 -24.7231 -41.5125 -41.5125 -41.5125 -41.5125 -61.8812 28.4889 -41.5037 -41.5037 -41.5125 -41.5125 -24.7231 -24.7231 -39.3816 -39.3816 -39.3816 -39.3816 -41.5125 -41.5125 -41.5125 -82.3447 -82.3447 -94.9158 -81.2143 0 0 56.5 56.5 -70.2 0 -90.9091 -48.3889 0 0 0 0 0 0 -77.0328 -77.0328 -89.3351 -89.3351 -77.0328 0 -93 -93 0 0 0 0 0 -77.5139 -77.5139 -87.4167 0 -97 0 0 0 0 0 -87 0 -86 0 0 0 0 -85 0 0 -84.5 -84.5 -85 -85 0 0 0 0 0 0 0 -84 0 0 0 0 0 0 0 0 0 0 0 0 0 -83 0 0 0 -81 0 0 -82 -82 0 0 0 -81 0 0 0 0 -80 0 -81 0 0 -80.3333 -80.3333 0 0 -80 0 0 0 0 0 0 0 0 -80 0 -79 -79 0 -78 -78.5 -78.5 0 0 -79 0 -78 -78 -78 0 0 0 0 0 0 0 -77 0 0 0 0 0 0 0 0 0 0 0 0 0 0 0 -75.5 -75.5 0 0 -76 -76 -76 0 0 0 0 0 0 0 0 0 0 0 0 0 0 0 0 0 0 0 -73.3333 -73.3333 -74 0 0 0 0 0 -48 -32 32 -15.5 -31 1 -30.5 -30.5 0.5 0.5 0.5 0 0 -30 0 -29.5 -29.5 0 0 0 0 0 0 -30 0 0 -29 0 0 0 -29 0 -31 0 -30 0 -29 0 0 0 -30 0 0 0 0 0 0 0 0 0 -33 -52.75 -52.75 -52.75 -31 -30.5 -30.5 -31.6667 -26 -26 0 0 0 0 0 0 0 0 0 0 -22 0 -23.5 -23.5 0 -21.5 -21.5 -21 0 -22 -22 -21.5 -21.5 0 -25 0 0 0 -26 -19.5 0 0 -24.5 -26 0 -24.5 -24.6667 -71.5 -23.6667 -23.6667 -26 -26 34 0 0 0 -25.5 0 0 0 0 0 0 0 0 0 0 0 0 0 0 0 0 0 -26.55 0 0 0 0 -94 44.6667 44.6667 0 0 0 0 0 0 -57 0 0 0 0 0 -60.4 -50.7949 -50.7949 -41.6367 0 -43.875 -32 -51.1011 -44.6705 -41.6367 -38.6762 -58.4 -32.1429 -44.8833 -47.4 -16.5 0 -38 -38 -37.6429 70 -44.8833 -41.6367 -41.6367 0 -38.6667 -38.2857 -50.1147 -52.9167 -21.2 0 -38 21.2143 21.2143 -42.255 -29 -59.6667 0 0 0 0 0 0 -1.5 0 0 0 0 0 0 -85.6667 -85.6667 0 0 -56 0 -57 0 -56 -56 -56 -56 0 0 0 0 0 0 -56 -56 -55 0 -56 0 -56 0 0 0 -55 0 0 -54 0 0 -54 -54 -54 -54 -54 0 0 0 0 -54 -53 -53 -53 -53 0 0 0 0 0 0 0 -53 -54 -54 0 -53 0 0 0 0 -52 0 -53 -52 -52 -52 -52 0 0 0 0 -51 0 -51 -51 -51 -51 -51 0 0 0 0 0 0 0 -50 -50 -50 -50 -50 0 -50 -50 0 0 0 -49 -49 0 -50 -49 -49 -49 -49 0 0 0 0 0 -49 -48 0 -49 -48 -48 0 -48 -47 0 -48 0 -47 0 -48 -48 0 -47 0 0 0 0 -47 0 -47 -47
-24.7231 -24.7231 -24.7231 -39.3816 -39.3816 -39.3816 -24.7231 -24.7231 -39.3816 -39.3816 -39.3816 -39.3816 -39.3816 -39.3816 -39.3816 -39.3816 -39.3816 -39.3816 -39.3816 -24.7231 -24.7231 -24.7231 -24.7231 -24.7231 -24.7231 -24.7231 -24.7231 -24.7231 -24.7231 -24.7231 -24.7231 -24.7231 -24.7231 -24.7231 -24.7231 -39.3816 -39.3816 -39.3816 -24.7231 -24.7231 -24.7231 -24.7231 -24.7231 -24.7231 -24.7231 -24.7231 -24.7231 -39.3816 -39.3816 -39.3816 -39.3816 -39.3816 -39.3816 -39.3816 -39.3816 -24.7231 -24.7231 -24.7231 -24.7231 -41.5125 -41.5125 -41.5125 -41.5125 -41.5125 -41.5125 -41.5125 -41.5125 -41.5125 -24.7231 -41.5125 -41.5125 -24.7231 -24.7231 -24.7231 -24.7231 -24.7231 -41.5125 -41.5125 -24.7231 -24.7231 -24.7231 -24.7231 -24.7231 -24.7231 -24.7231 -24.7231 -24.7231 -24.7231 -24.7231 -24.7231 -24.7231 -41.5125 -41.5125 -77.0328 -41.2511 -39.3816 -39.3816 -39.3816 -24.7231 -41.5125 -41.5125 -41.5125 -24.7231 -24.7231 -24.7231 -24.7231 -41.5125 -41.5125 -41.5125 -61.8812 28.4889 -41.5037 -41.5037 -41.5037 -41.5125 -41.5125 -24.7231 -24.7231 0 0 -43.6423 -43.6423 -24.7231 -39.3816 -61.2273 -61.2273 -66.0159 0 -80.3333 102.75 0 0 -70.2 -90.9091 0 -75.1667 -77.5597 -77.5597 0 -95.6667 -41.5125 0 -89.3351 -89.3351 -89.3351 -89.3351 -77.0328 -77.0328 -77.0328 -77.0328 -88.2024 -92.3333 0 0 0 0 0 -84.5688 0 -87.4167 0 0 0 0 0 0 0 -86 0 0 0 -85 0 0 0 -84.5 -84.5 -85 -85 0 0 0 0 0 0 0 -84 0 0 -83.5 -83.5 0 0 0 -83 0 0 -82.5 -82.5 0 0 -82 0 0 0 0 0 -82 -82 0 0 0 0 0 0 0 0 -81 0 -81 0 0 0 0 0 0 0 0 -80 0 -79 0 0 -80 -80 0 0 -79 -79 0 -78.5 -78.5 -79 0 0 0 -78 -78 -78 -78 0 0 -78 -78 -78 0 0 -77 0 0 -76 -76.5 -76.5 0 -77 0 -41 -41.3333 0 -53.5 -41.3333 -41.3333 -85.3333 0 0 0 0 0 0 0 0 -75 0 0 0 0 0 0 0 0 0 0 0 0 0 -74 -74 0 0 0 0 0 0 0 0 0 -32 -15.5 -31.6667 -31.6667 -32 34.5 34.5 0 -6 -30 -30 -32 34 -30 0 0 0 -28.5 0 0 0 0 -29 0 0 -29 -29 -28.5 -28.5 -29 0 -29 0 0 0 0 -30 0 -29 0 0 0 0 -29 -29 -29 0 -30 -28 -34 0 -30.5 -30.5 0 -31 -31 -31 -31 -30 0 -26 -25 0 0 -24 -28 -24.5 0 0 0 -23.5 0 0 0 0 0 0 -23.5 -24 0 -22 0 -21.5 -21.5 -23 -25 -23.25 -23.25 0 0 -24.6667 -24.6667 0 -23.6667 39 0 7.5 7.5 0 -70.5 7.5 7.5 0 33.3333 33.3333 0 0 0 0 0 0 0 0 0 0 0 0 0 0 0 0 0 0 0 0 3.33333 0 0 0 0 0 0 0 0 0 0 0 -28.2609 0 -40.7222 0 -61.5 0 0 0 0 0 -34.7684 -42.4792 -38.6762 -32.1429 -32 0 -41.6367 0 0 0 0 0 0 -50.4714 -44.8833 -34.7684 -55.1786 -37.5 -38 -55.1786 -55.1786 -47.2053 -45.0619 8.1 8.1 -47.2053 -38.2857 0 0 0 0 -38 -42.255 -38 -50.2222 0 85 0 0 0 0 0 78.3333 -54.5 0 0 0 0 -81.5 0 0 0 0 -96.3333 -11 -11 0 0 0 0 -56 -56 0 -56 0 -56 -56 -56 0 0 0 0 0 0 -56 0 -55 -54 -54 -54 0 -54 -54 0 -54 -54 -54 -54 -54 0 -54 -54 0 0 0 0 0 -53 -53 0 -53 0 -54 0 -54 -54 0 -52 0 -52 -52 0 -52 0 -52 -52 0 -52 -52 0 -52 0 -51 -51 0 0 0 0 0 0 0 -51 -51 -50 -50 0 -50 -50 -50 -50 -50 -50 0 0 0 -49 -49 -49 -49 -49 0 -49 -49 -49 0 0 0 -48 -48 -48 0 -48 -48 0 -49 -48 0 0 -47 -47 0 -48 -47 0 -48 -48 0 0 0 -46 0 -47 -47 -47 -47 0 -47
-24.7231 -24.7231 -24.7231 -24.7231 -39.3816 -39.3816 -39.3816 -24.7231 -24.7231 -24.7231 -24.7231 -39.3816 -39.3816 -39.3816 -24.7231 -24.7231 -39.3816 -39.3816 -39.3816 -24.7231 -24.7231 -24.7231 -24.7231 -24.7231 -24.7231 -24.7231 -24.7231 -39.3816 -39.3816 -41.5037 -41.5037 -41.5037 -41.5037 -39.3816 -24.7231 -39.3816 -39.3816 -39.3816 -24.7231 -24.7231 -24.7231 -24.7231 -24.7231 -24.7231 -24.7231 -39.3816 -39.3816 -39.3816 -39.3816 -39.3816 -39.3816 -39.3816 -39.3816 -39.3816 -39.3816 -24.7231 -41.5125 -41.5125 -24.7231 -24.7231 -24.7231 -24.7231 -24.7231 -24.7231 -41.5125 -41.5125 -41.5125 -41.5125 -41.5125 -41.5125 -41.5125 -24.7231 -24.7231 -24.7231 -24.7231 -24.7231 -24.7231 -24.7231 -24.7231 -24.7231 -24.7231 -24.7231 -24.7231 -24.7231 -24.7231 -24.7231 -24.7231 -24.7231 -24.7231 -24.7231 -41.5125 -41.5125 -41.5125 -41.2511 -41.2511 -41.2511 -39.3816 -39.3816 -24.7231 -41.5125 -41.5125 -77.0328 -77.0328 -57.3316 -24.7231 -24.7231 -41.5125 -41.5125 -41.5125 -61.8812 28.4889 28.4889 -41.5125 -41.5125 -41.5125 -41.5125 -24.7231 -24.7231 -43.6423 -43.6423 0 -43.6423 -39.3816 0 0 0 0 -66.1364 22.5 102.75 0 0 -90.75 0 0 0 -77.5597 -77.5597 -90.3141 -86.0667 -80.6986 0 -89.3351 -89.3351 -89.3351 -89.3351 0 -88.2024 -77.0328 -77.0328 -88.2024 -80.5 0 0 0 0 0 -85 -91 -84.5688 0 0 0 -87 0 0 -85.5 0 -85.5 -85.5 0 -85 0 0 0 -85.1667 -85.1667 -85 -85 0 0 0 -84.5 -84.5 -84 0 0 0 -83 -83.5 -83.5 0 0 -84 0 0 0 0 0 -83 -83 -82 0 0 0 0 0 -82 -82 0 0 0 0 0 0 0 -82 -81 0 0 0 -80 -80.5 -80.5 0 0 0 0 -80 -80 -79 -79.5 -79.5 -80 -80 0 -79 -79 0 0 0 0 -79 -79 0 0 -78 -78 0 0 0 0 0 0 0 -78 0 0 0 0 -76 -76.5 -76.5 -77 -77 0 -26 -21 -38.6667 -23 0 -24 -11.6667 -11.6667 0 0 -76 0 0 0 0 0 0 -75 -75 0 0 0 0 0 0 0 0 0 0 -74 -74 0 0 0 0 0 0 0 0 0 0 -30.5 -31 0 -30 -30 0 -31 -27.5 -27.5 0 -31 -31 -31 0 -29.5 -29.5 0 0 0 0 -26 0 -28.5 -27.5 -27.5 0 0 -29 0 0 0 0 -30 -30 0 -30 -30 -30 -30 -30 0 -30 0 0 0 0 0 0 0 0 0 0 0 0 0 0 0 0 0 0 0 0 -25 -25 -27 0 0 0 0 0 -24.5 -24.5 -23.5 -23.5 0 -24 0 0 0 0 0 -24.5 0 -23 0 -22.5 -23.25 -24 -23.5 -23 0 -18 -22.5 0 0 0 -24 0 0 -24 0 0 -24 33.3333 -27.5 -29 0 0 0 0 -49.3333 0 0 0 0 0 0 0 0 0 0 0 0 0 0 0 0 0 0 0 0 0 0 0 0 -28.2609 -28.2609 0 -67.3333 0 0 0 0 0 0 0 -38 -42.255 -41.6367 -43.9605 -32 -66 0 0 0 0 68 -41.6367 -50.4714 -50.4714 -50.4714 0 0 0 0 0 0 -38.25 -61.25 -46.7778 -47.2053 -64.1579 0 0 0 0 0 0 0 -38 -51.8571 0 85 0 0 0 0 0 -79 -75.6667 78.3333 0 -49.3333 -56 -57 -59.5 -70.5 -54.5 0 -57 -11 -57 -56 -56 -56 -56 -56 -56 0 -56 0 0 0 0 -55 0 -56 0 -56 -55 0 -55 0 0 0 0 0 -54 -54 -54 -54 -54 -54 -54 -54 0 0 0 -53 -53 -53 -53 0 -53 -52 0 0 0 0 0 0 0 0 -52 0 -52 -52 -52 -52 0 0 0 -52 -52 -52 0 -52 0 -51 0 0 -51 -51 -51 -51 -51 0 -51 -51 -50 -50 0 -50 0 -51 -50 -50 0 -50 -50 -50 -49 -49 0 -49 0 0 0 0 0 0 -49 0 -48 -48 -48 0 -48 -48 0 -49 -48 -48 -47 -47 -47 0 -48 -47 0 0 0 -48 -47 -47 -46 0 -47 -47 -47 0 0 0
-24.7231 -24.7231 -24.7231 -39.3816 -39.3816 -39.3816 -39.3816 -39.3816 -39.3816 -39.3816 -39.3816 -39.3816 -39.3816 -39.3816 -24.7231 -24.7231 -39.3816 -39.3816 -39.3816 -24.7231 -24.7231 -24.7231 -24.7231 -24.7231 -24.7231 -24.7231 -24.7231 -39.3816 -39.3816 -41.5037 -41.5037 -41.5037 -41.5037 -39.3816 -39.3816 -39.3816 -39.3816 -41.5125 -24.7231 -24.7231 -24.7231 -24.7231 -24.7231 -24.7231 -24.7231 -39.3816 -39.3816 -39.3816 -39.3816 -39.3816 -39.3816 -39.3816 -39.3816 -39.3816 -39.3816 -24.7231 -24.7231 -24.7231 -39.3816 -39.3816 -39.3816 -39.3816 -39.3816 -24.7231 -24.7231 -41.5125 -41.5125 -41.5125 -41.5125 -24.7231 -24.7231 -24.7231 -24.7231 -24.7231 -24.7231 -24.7231 -24.7231 -24.7231 0 -24.7231 -24.7231 -24.7231 -24.7231 -24.7231 -24.7231 -24.7231 -24.7231 -24.7231 -41.5125 -41.5125 -41.5125 -41.5125 -41.5125 -77.0328 0 0 -39.3816 -39.3816 -24.7231 -41.5125 -77.0328 -77.0328 -77.0328 -57.3316 -24.7231 -24.7231 -41.5125 -41.5125 -41.5125 -41.5125 -41.5125 -61.8812 -41.5125 -41.5125 -41.5125 -41.5125 -24.7231 -41.5125 -41.5125 -41.5125 -57.1857 -24.7231 0 0 0 0 -78.9848 0 -88.7917 -61.9167 -61.9167 0 0 0 0 0 0 0 -90.3141 -86.0667 -80.6986 0 0 0 0 -77.0328 0 0 0 0 -41.5125 -84.5688 0 0 0 0 0 -83.8286 -86.6667 -95.6667 0 0 0 -87 0 0 -85 0 0 -86 0 0 -85 0 -84.5 -84.5 -85.1667 -85 -85 0 0 0 0 0 0 0 -84 0 0 0 0 0 0 0 -83 -83 0 0 0 0 0 0 0 0 0 0 0 -82 -82 -81 0 0 0 0 0 0 -82 0 0 0 0 0 0 0 0 0 -80 0 -80 0 0 0 0 -80 0 0 -79 -79 0 0 -78.5 -78.5 0 0 0 0 0 -78 0 0 0 0 -78 0 0 -78 -77 -77 0 0 0 0 -77 0 -77 0 0 21 0 -53 0 -1 -1 -1 0 0 0 18.2 18.2 0 0 0 -76 0 0 0 0 0 0 0 -76 0 0 0 0 -74 -74 0 0 0 0 0 0 0 -32 -31 0 -32 -30 0 -29.5 -29.5 -30 0 0 0 0 0 0 0 0 0 0 -29.5 0 0 0 0 -28.5 -28 -28 -29 -25.5 -25.5 0 0 0 0 0 -30 0 0 -30 -30 0 -29.6 -29.6 -30 0 0 0 0 0 -30 0 0 0 -31 0 0 0 0 0 0 -26.5 -25 0 0 -24.5 -24 0 0 0 0 -23 -23 0 -24 0 -24.5 -24.5 -24 0 0 0 0 0 0 0 -23.5 -23 -23.25 -22.5 0 -23.5 -23.6667 -23 0 0 0 0 0 -20.5 -20.5 -23.5 -27 -88.3333 37.5 0 -24 -57.3333 -57.3333 0 -30 -28 0 0 0 0 0 -17 0 0 0 0 0 0 0 0 0 0 0 -50.4714 0 0 0 -87.8 0 -26.55 0 0 0 0 -52.7636 0 -28 0 -23 0 0 0 -36.1923 0 -31.0278 0 -41.5476 -38.25 -53.2222 0 -36.1923 -36.1923 0 0 0 0 0 0 0 0 0 0 0 0 0 0 -61.25 -61.25 -61.25 0 0 -32.25 0 0 0 21.2143 90.6 90.6 80.6667 -64.1579 0 0 -77.2 -77.2 -77.2 -49.6667 8.1 0 0 0 -55.5 0 -59.5 0 0 0 0 0 0 -57 0 -56 -56 -56 -56 0 0 0 0 -56 -56 0 -55 0 -56 0 0 0 0 0 -54 0 0 -54 0 -54 -54 -54 -54 -54 -54 0 0 0 -54 -54 -54 0 -53 -53 0 0 0 0 -53 0 -54 0 -54 -53 0 -53.5 0 -52 -52 -52 -52 0 -52 -52 0 -52 -52 -52 -52 0 0 -51 0 -51 -51 -51 -51 -51 -51 0 0 0 0 0 0 -50 0 -50 -50 0 -50 -50 0 -49 0 0 0 -49 0 -49 -49 -49 -49 -49 -49 0 0 0 0 0 0 0 -49 -48 0 -47 -47 -47 0 0 -47 0 -48 -48 -47 -47 -47 -46 0 -47 0 0 0 -47 -47
-24.7231 -24.7231 -39.3816 -39.3816 -39.3816 -39.3816 -39.3816 -39.3816 -39.3816 -39.3816 -39.3816 -39.3816 -24.7231 -24.7231 -24.7231 -24.7231 -39.3816 -39.3816 -39.3816 -24.7231 -24.7231 -24.7231 -24.7231 -24.7231 -24.7231 -24.7231 -24.7231 -39.3816 -39.3816 -41.5037 -41.5037 -41.5037 -41.5037 -41.5037 -41.5037 -39.3816 -39.3816 -41.5125 -41.5125 -24.7231 -24.7231 -24.7231 -24.7231 -24.7231 -24.7231 -24.7231 -39.3816 -39.3816 -39.3816 -39.3816 -39.3816 -39.3816 -39.3816 -39.3816 -39.3816 -39.3816 -24.7231 -24.7231 -39.3816 -39.3816 -39.3816 -24.7231 -39.3816 -24.7231 -24.7231 -24.7231 -24.7231 -24.7231 -24.7231 -24.7231 -24.7231 -24.7231 -24.7231 -24.7231 -24.7231 -41.5125 -41.5125 -41.5125 -24.7231 -24.7231 -24.7231 -24.7231 -24.7231 -24.7231 -24.7231 -24.7231 -24.7231 -24.7231 -24.7231 -24.7231 -41.5125 -41.5125 -41.5125 -39.3816 -39.3816 -39.3816 -41.5037 -41.5037 -24.7231 -41.5125 -77.0328 -77.0328 -77.0328 -57.3316 -57.3316 -24.7231 0 0 -24.7231 -24.7231 -41.5125 -41.5125 -41.5125 -41.5125 -24.7231 -24.7231 -39.3816 -24.7231 -24.7231 -24.7231 -30.5417 -39.3816 -39.4 0 0 -74.7018 0 0 0 0 0 -82.0177 0 -94.5714 0 0 0 0 -81.7 -41.5125 -82.3447 -77.0328 -77.0328 -91.3241 -77.0328 -88.2024 -86 -70.225 -69.5 -69.5 -61.8812 -61.8812 -85 0 0 0 0 -86.6 -77 -88.5 0 0 0 0 0 0 -86 0 0 -86 0 0 0 0 -84.5 -84.5 -85 -85 0 0 0 0 0 0 0 0 0 0 -83 -83.5 -83.5 0 0 -84 0 0 -83.5 -83.5 -83 0 0 0 -82 0 0 0 -82 0 -82 -81 0 -81 0 0 0 0 0 -81 0 0 0 0 0 0 0 0 0 0 0 0 -79.5 -79.5 -80 0 0 0 -79 -79 0 0 -78.5 -78.5 -79 -79 0 0 0 0 0 0 0 0 -78 0 0 0 0 0 0 0 -76.5 -76.5 -77 -77 0 -82.75 -82.75 -63.8333 -53.5 -23.5 -39 18.2 -52.25 -52.25 -61 18 -61 -39.6667 -9 -25.5 0 0 0 0 0 0 0 0 0 0 0 0 0 0 0 0 0 0 -36.3333 -36.3333 0 0 0 0 0 -31.5 -30 0 0 0 0 0 0 0 0 0 0 0 0 0 -30 -28 0 0 0 0 -27 0 0 -29 -29 0 0 0 0 0 0 0 0 -29 0 0 -27 -29.6 -29.6 -29.6 -29.5 -29.5 -29 0 0 0 0 -31 -29.5 0 0 0 0 0 -29 -26 0 0 -25.5 0 -24 -25 0 0 0 -26.5 -24 -24 0 -22 -24 0 -24 0 0 -24 -23.5 -23.5 -23.5 -23 0 -23 0 -24 0 -23 -22.5 -23.5 0 -23.5 -23.5 -24 0 0 -24 0 0 0 0 0 0 -23.6667 0 0 0 0 0 3.66667 0 -25.5 -25.5 0 0 0 0 0 0 23.5 0 0 0 0 0 0 0 0 2.5 0 0 0 0 0 -50.7949 0 0 0 0 -50.4714 -28.5 0 -53.2222 0 0 -41.75 0 -50.7949 0 0 -31.0278 -32.25 0 -37.5 -49.9048 -45.0619 -45.0619 0 0 0 0 0 -52.7636 0 0 0 0 0 0 0 0 0 -70 -47 -69 -1.5 0 0 -7.69697 0 -38 0 -49.1667 -52 -61.942 -36.1923 80.8 80.8 -77.2 -77.2 0 78.3333 0 0 0 0 0 -54.5 -55.5 -59 0 -48 0 0 -57 -57 -56 -56 -56 -56 -56 0 -56 0 -56 0 0 0 0 0 0 -55 0 -56 -55 0 0 0 0 0 -54 -54 0 0 -54 -54 -54 -54 0 -54 -54 -54 0 0 -52 0 -53 -52 0 -53 0 0 0 -54 0 0 0 0 -52 -52 -52 -52 0 -52 -52 -52 0 -52 0 -52 0 -51 -51 0 -51 0 0 0 0 0 -51 -51 -51 0 -50 -50 -50 -50 -50 -50 0 0 -50 -50 -50 -49 -49 -49 -49 -49 -49 -49 0 0 0 0 -48 -48 -48 0 -48 -48 0 -49 -48 -48 0 0 0 0 -47 -47 0 -48 -48 -47 0 0 0 0 0 -47 0 0 -47 -47
-24.7231 -24.7231 -39.3816 -39.3816 -39.3816 -39.3816 -39.3816 -39.3816 -39.3816 -39.3816 -39.3816 -39.3816 -39.3816 -24.7231 -24.7231 -24.7231 -24.7231 -24.7231 -24.7231 -24.7231 -24.7231 -24.7231 -24.7231 -24.7231 -24.7231 -24.7231 -24.7231 -39.3816 -39.3816 -39.3816 -39.3816 -41.5037 -41.5037 -41.5037 -41.5037 -39.3816 -39.3816 -39.3816 -39.3816 -39.3816 -24.7231 -24.7231 -24.7231 -24.7231 -24.7231 -24.7231 -24.7231 -24.7231 -24.7231 -39.3816 -39.3816 -39.3816 -39.3816 -39.3816 -39.3816 -39.3816 -39.3816 -39.3816 -39.3816 -39.3816 -39.3816 -39.3816 -24.7231 -24.7231 -24.7231 -41.5125 -41.5125 -24.7231 -24.7231 -24.7231 -24.7231 -24.7231 -24.7231 -24.7231 -24.7231 -24.7231 -24.7231 -24.7231 -24.7231 -24.7231 -24.7231 -24.7231 -24.7231 -24.7231 -41.5125 -24.7231 -24.7231 -24.7231 -24.7231 -24.7231 -41.5125 -41.5125 -41.5125 -24.7231 -24.7231 -39.3816 -39.3816 -41.5037 -41.5125 -41.5125 0 -77.0328 -77.0328 -57.3316 -57.3316 -41.5125 -41.5125 -41.5125 -41.5125 -41.5125 -24.7231 -41.5125 -41.5125 -41.5125 -41.5125 -39.3816 -39.3816 -47.7529 -47.7529 -41.5037 -82.0177 -24.7231 -43.6423 -30.5417 -30.5417 0 0 -39.3816 -76.25 0 0 0 0 -94.5714 0 -55.5 -55.5 -85.2308 0 -77.0328 -88.2024 -77.0328 -77.0328 -41.5125 -41.5125 -77.0571 -77.0328 -77.0328 -77.0328 -69.5 0 0 -89.5 0 0 0 0 -88.5 -82 -88 0 0 0 -86 -85 0 0 0 0 0 -85 0 0 0 -84.5 -84.5 -85 -85 0 0 -84 -84.5 -84.5 0 0 0 0 0 -83 -83.5 -83.5 0 -84 0 -83 0 0 0 -83 0 -83 -82 -82 0 0 0 0 0 -96.6667 -82 0 -81 -81.5 -81.5 -81 0 0 0 0 0 0 0 0 -81 0 0 -80 0 0 0 -79.5 -79.5 -80 0 -80 0 -79 0 0 0 0 -79 0 -79 0 0 -78 -78 0 0 0 0 0 0 -78 0 0 0 0 0 0 0 0 0 15 -83.5 -9 -9 -38 0 -51 18.2 18.2 -61 -39.3333 0 0 -9 20 20.5 20.5 -67.6667 0 0 0 0 -36 0 0 0 0 -37.3333 0 -31.75 -24 0 -37.5 0 0 0 -31.5 0 -32 0 0 0 0 0 0 -30 0 -30.5 -26 -28.0667 -28.0667 -30 0 -31 0 -29.5 -29.5 -27.5 0 -27.5 0 -27 0 0 0 0 0 0 0 -27 -28 0 0 0 0 -28 -26 -28.5 -28 -28 -28 0 0 0 0 0 -29 -28.5 0 0 0 0 0 0 0 -29 0 -29 0 0 -26 -26 0 0 0 0 -26 -26 0 0 0 0 0 -25 0 -24 0 0 0 -23.5 0 -24 -23 0 0 0 0 0 0 0 0 0 0 -25 -25 0 -24 -23.5 -23.5 0 0 0 -23.6667 -23.6667 0 3.66667 0 0 0 34 0 0 0 0 -31.5 0 0 0 -96.5 0 0 0 0 0 0 0 0 0 0 0 0 0 0 -28 -23 0 0 0 0 0 0 -15.5 -21.3333 0 -52.7636 -44.6705 0 0 0 0 0 0 0 0 0 0 0 0 0 -85.2308 0 -43.75 0 0 0 0 0 0 64 0 0 -86.1667 -79 0 -60.1429 0 0 0 -55.1786 -38 -58.2667 -50.4714 -58.2667 0 0 0 -53.1667 -53.1667 0 0 0 75 0 -54.5 0 0 0 0 0 0 0 -35.75 -72.5 -69.5 -57 0 -57 -56 -56 -56 -56 0 0 0 -56 0 -56 -55 0 -55 0 0 0 0 0 0 0 -54 -54 -54 -54 -54 -54 -54 -54 -54 -54 -54 0 -54 -54 0 0 -53 -52 0 -53 0 -53 0 0 0 0 0 -53 0 -53.5 0 -52 -52 -52 0 0 0 0 0 -52 -52 0 -52 -52 0 -51 0 -51 0 -51 -51 0 -52 -51 0 -51 -50 -50 -50 0 0 0 0 -50 -50 -50 -50 -50 -49 -49 0 -49 -49 -49 -49 0 -49 -49 -49 -48 -48 0 0 -48 -48 0 -48 0 0 0 -47 0 -48 -47 -47 0 -48 -47 0 -48 -47 -46 0 -47 -47 -46 0 -47 -47
-24.7231 -24.7231 -39.3816 -39.3816 -39.3816 -39.3816 -24.7231 -39.3816 -39.3816 -39.3816 -39.3816 -24.7231 -24.7231 -24.7231 -24.7231 -24.7231 -24.7231 -24.7231 -24.7231 -24.7231 -24.7231 -24.7231 -24.7231 -24.7231 -24.7231 -24.7231 -24.7231 -39.3816 -39.3816 -39.3816 -39.3816 -39.3816 -41.5037 -39.3816 -39.3816 -39.3816 -39.3816 -39.3816 -39.3816 -39.3816 -39.3816 -24.7231 -24.7231 -24.7231 -24.7231 -39.3816 -39.3816 -39.3816 -24.7231 -24.7231 -39.3816 -39.3816 -39.3816 -39.3816 -39.3816 -39.3816 -39.3816 -39.3816 -24.7231 -24.7231 -24.7231 -24.7231 -24.7231 -24.7231 -41.5125 -41.5125 -41.5125 -41.5125 -24.7231 -24.7231 -24.7231 -24.7231 -24.7231 -24.7231 -24.7231 -24.7231 -24.7231 -24.7231 -24.7231 -41.5125 -41.5037 -41.5037 -41.5125 -41.5125 -24.7231 -24.7231 -24.7231 -24.7231 -39.3816 -39.3816 -41.5037 -41.5037 -41.5125 -24.7231 -24.7231 -39.3816 -39.3816 -41.5037 -41.5125 -41.5125 -24.7231 -77.0328 -77.0328 -57.3316 -24.7231 -41.5125 -41.5125 -41.5125 -41.5125 -41.5125 -41.5125 -41.5125 -41.5125 -41.5125 -41.5125 -24.7231 -39.3816 -47.7529 -47.7529 -41.5037 -24.7231 -24.7231 -24.7231 -24.7231 -24.7231 106 0 -86.2428 0 0 0 0 -25.7 64 -68 -71.5 -71.5 -77.0328 -41.5037 0 -46.1667 -78.2222 -78.2222 -88.0516 -41.5125 -41.5037 0 0 0 -92.3333 0 0 0 0 0 0 0 -86.6 -86.75 -86.6 0 0 0 -86 -86 0 -86 0 0 0 -85 0 -85 0 0 0 0 0 0 0 0 0 0 -85 0 0 0 0 -83.5 -83.5 -84 0 -83 -83 -83 0 0 0 -83 0 -83 0 0 0 0 0 -82 0 -96.6667 -82 0 -81 0 0 0 0 0 0 0 0 0 0 0 0 0 0 -80 0 0 0 -79.5 -79.5 -80 0 0 -79 -79 -79 -79 0 0 0 0 0 0 0 0 -78 0 0 0 0 0 -78 0 -78 0 0 0 -77.5 -77.5 0 0 -40 -7 -7 0 0 0 0 0 0 0 -96.3333 -32.6667 -37 -37 0 -39 -39 -67.6667 -39.5 -38 18.5 18.5 0 0 -35 -32 -32 0 -37.3333 -37.3333 0 -28.6667 0 0 0 0 -31 -31 -31 -31 -31.5 -31.5 0 0 0 -31.5 0 0 0 -30.5 -30.5 -28.0667 -31 0 -30 0 0 0 0 -27 0 0 -26.5 -26.5 0 -25 -27.6667 -28.5 -28.5 -29 -28.5 -28 0 -27 -27 0 -28 -27.5 0 -28 -28 -27 -25.5 -25.5 -28.5 -28.5 0 -26 0 0 0 0 0 0 0 0 0 0 0 0 -26 0 -27 0 -26 0 -25.5 -25.5 -26 -26.5 -26.5 -26.5 -23 -23.5 0 0 0 -23.5 -23.5 -24 0 0 -24 0 0 -24 -23 0 -22.5 0 0 -24 0 0 0 0 -25 -25 0 0 0 0 0 0 34 -24.5 -26 -22.5 0 -26 0 -23 -75.6667 -20 0 0 0 0 0 0 0 0 0 0 0 0 0 0 0 21.2143 0 0 0 0 0 0 0 0 0 0 0 0 -36.1667 0 0 0 0 0 0 0 0 0 0 0 0 0 0 0 0 0 0 0 -43.75 -43.75 0 0 0 0 0 0 0 -58.2 0 -89.5833 0 0 92.9091 80.6667 -42.4792 0 -35.7143 0 -57.6 -72.5 0 -50.1147 -45.0619 -41.75 -53.1667 0 -63 -53.1667 -61 -61 0 0 -78.6667 -86.6667 0 0 0 -35.75 0 0 -57 -57 0 -57 -56 0 0 -56 0 -56 0 -56 -56 -56 -55 0 0 0 -55 0 -55 -55 -55 0 -54 0 -54 0 0 0 -54 -54 -54 0 -54 0 -54 -54 -54 -53 -53 -52 0 0 0 0 -52 0 0 0 -54 -53 0 -53.5 0 0 0 -52 -52 0 -52 -52 0 -52 -52 0 -52 0 -51 0 -51 -51 -51 -51 -51 0 -51 -51 0 0 0 0 0 -50 -50 -50 -50 0 -50 -50 -50 0 -49 -49 -49 -49 -49 -49 -49 0 -49 -49 0 -48 -48 0 0 0 0 0 0 -48 0 -49 -47 0 -48 -47 -47 0 -48 -47 0 -48 -47 0 -47 -47 -46 0 0 0 0
-24.7231 -24.7231 -24.7231 -39.3816 -39.3816 -39.3816 -24.7231 -39.3816 -39.3816 -39.3816 -39.3816 -39.3816 -39.3816 -24.7231 -24.7231 -24.7231 -24.7231 -24.7231 -24.7231 -24.7231 -24.7231 -24.7231 -24.7231 -24.7231 -24.7231 -24.7231 -24.7231 -39.3816 -39.3816 -39.3816 -39.3816 -39.3816 -39.3816 -39.3816 -39.3816 -39.3816 -2.00838 -39.3816 -39.3816 -39.3816 -39.3816 -39.3816 -39.3816 -39.3816 -41.5037 -39.3816 -39.3816 -39.3816 -24.7231 -24.7231 -24.7231 -39.3816 -39.3816 -39.3816 -39.3816 -39.3816 -39.3816 -39.3816 -24.7231 -24.7231 -41.5125 -41.5125 -41.5125 -41.5125 -41.5125 -41.5125 -41.5125 -41.5125 -41.5125 -41.5125 -41.5125 -41.5125 -41.5125 -24.7231 -24.7231 -24.7231 -24.7231 -41.5125 -41.5125 -41.5037 -41.5037 -41.5037 -41.5037 -41.5125 -41.5125 -24.7231 -24.7231 -39.3816 -39.3816 -39.3816 -41.5037 -41.5037 -41.5125 -24.7231 -24.7231 -41.5125 -41.5125 -41.5125 -41.5125 -41.5125 -24.7231 -24.7231 -24.7231 -24.7231 -24.7231 -41.5125 -41.5125 -41.5125 -41.5125 -41.5125 -41.5125 -41.5125 -41.5125 -41.5125 -41.5125 -41.5125 -39.3816 -39.3816 -39.3816 -39.3816 -39.3816 -24.7231 -24.7231 -24.7231 -24.7231 -79.6316 0 -86.2428 0 0 0 0 -75.875 83.6667 -77.0328 -71.5833 -71.5833 -91.8472 -86.2428 -73.5714 0 -71.5 -71.5 -84.5688 0 0 0 0 0 0 -92.3333 0 0 0 0 0 0 -87 -86.9 -89.3333 0 0 -86 -86 0 0 -86 0 0 0 0 -85 0 0 0 0 0 0 0 0 0 0 0 0 0 -84 -84 0 -83.5 -83.5 -84 0 0 -83 -83 -83 0 0 -83 0 -83 -82 -82 0 0 0 -82 0 0 0 0 0 0 0 0 0 0 -80 0 -81 0 0 0 -81 0 0 -80 0 0 -80.5 -80.5 0 -80 0 0 -79 0 0 0 0 0 -79 0 -79 0 0 0 -78 -78 0 0 -78 -78 0 -78 0 0 0 0 -77.5 -77.5 0 19 0 0 -38 0 -38 -38 -37.5 -32.6667 -32.6667 -33 0 -37 0 0 -39 0 -39 0 -7 0 0 0 -35.5 0 0 0 -32 -32 0 -37.5 -29 -28.6667 0 -30 -30 -32 -31 -33 -31 0 0 0 0 0 0 -29.5 -28.3333 -28.3333 -31 -31 -31 -31 0 0 0 -30 0 0 -27 -26 -25 0 -28 -30 -27 -25.8333 -27.6667 -28.5 -28.5 0 -28.5 -27.5 -27.5 -27 -27 0 0 -28.5 -28 -29 -28 -28 0 -28 -26 0 0 -27.3333 -27.3333 0 0 -29 0 0 0 -27.5 -27.5 -27.5 -28 0 -26 0 -27 -25.5 -25.5 0 -26.5 -26 0 -24.5 -24.5 0 0 0 0 0 -23 -23.5 -23.5 0 0 0 0 0 0 0 0 0 0 -22.5 0 0 0 0 -23 0 0 -22 -24.5 -24.5 -24.5 -24.5 0 0 -22.3333 0 0 0 -22.5 -26 32 -24.5 -24.5 0 0 25 0 0 0 0 0 0 0 0 0 0 0 0 0 0 0 -53.1667 0 0 0 0 0 0 0 0 0 -26.55 0 21.2143 -34.7684 0 0 -73.9 -73.9 -34.7684 0 -41.873 0 0 -36.1667 -36.1667 -50.4714 -50.4714 0 0 0 0 -36.1923 -58 0 0 0 0 0 -74.6667 -72.5 0 -89.5833 -50.6 -52.7636 0 92.9091 8.1 -49.9 -50.7949 -35.7143 0 -52.7636 -78.9 0 0 -45.0619 -41.75 0 0 -47 0 0 -69 0 0 -37.6429 -86.6667 0 0 0 0 0 0 -11.5 -57 -57 -57 -57 -56 -56 -56 0 0 -56 -55 0 0 0 0 0 -56 -55 0 -55 0 -55 -55 0 0 0 -54 -54 -54 0 -54 -54 -54 -54 0 -54 -54 -54 -53 0 0 0 -53 0 -53 -52 0 -53 0 -54 0 0 0 -53 -52 0 -52 -52 0 -52 0 -53 -52 0 -52 -52 0 -51 0 -51 -51 -51 0 0 0 0 0 0 0 -51 -50 -50 0 -50 -50 0 0 0 0 0 -50 0 -49 -49 -49 -49 -49 0 0 0 -49 0 -48 -48 0 -48 -48 -48 0 -49 -48 0 -49 0 0 0 0 0 0 -48 -47 -47 0 -46 0 0 -47 -46 0 -47 -47 -47
-24.7231 -24.7231 -24.7231 -39.3816 -39.3816 -39.3816 -24.7231 -24.7231 -24.7231 -39.3816 -39.3816 -39.3816 -39.3816 -24.7231 -24.7231 -24.7231 -24.7231 -24.7231 -24.7231 -24.7231 -24.7231 -24.7231 -24.7231 -24.7231 -24.7231 -24.7231 -24.7231 -39.3816 -39.3816 -39.3816 -39.3816 -39.3816 -39.3816 -39.3816 -39.3816 -39.3816 -2.00838 -39.3816 -39.3816 -39.3816 -39.3816 -39.3816 -39.3816 -39.3816 -41.5037 -39.3816 -39.3816 -39.3816 -24.7231 -24.7231 -24.7231 -24.7231 -39.3816 -39.3816 -39.3816 -39.3816 -39.3816 -39.3816 -24.7231 -24.7231 -41.5125 -41.5125 -41.5125 -41.5125 -41.5125 -41.5125 -41.5125 -41.5125 -41.5125 -41.5125 -41.5125 -41.5125 -41.5125 -24.7231 -24.7231 -24.7231 -24.7231 -41.5125 -41.5125 -41.5037 -41.5037 -41.5037 -41.5037 -41.5125 -41.5125 -24.7231 -24.7231 -39.3816 -39.3816 -41.5037 -41.5037 -41.5037 -41.5037 -24.7231 -24.7231 -41.5125 -41.5125 -41.5125 -41.5125 -24.7231 -24.7231 -24.7231 -24.7231 -41.5125 -24.7231 -41.5125 -41.5125 -41.5125 -41.5125 -41.5125 -41.5125 -41.5125 -41.5125 -41.5125 -41.5125 -41.5125 -57.3316 -41.5037 -41.5037 -39.3816 -39.3816 -24.7231 -24.7231 -24.7231 -24.7231 -79.6316 -74.7018 -86.2428 -93.4 -93.4 0 0 0 -93.5 -77.0328 -77.0328 -41.2511 -88.2024 -91.8472 0 -71.5833 -71.5833 0 -89.3351 -94.9158 -94.75 106.917 0 0 0 0 -91.3241 -50.4 -93 -93 0 0 -84 -87.8333 -86.9 0 0 -86 -86 0 -86 0 0 -86 0 0 0 0 0 0 0 0 -85 0 0 0 0 0 0 0 0 -84 0 -83.5 -83.5 -84 0 -84 0 -83 -83.5 -83.5 -84 -83 0 -83 -82 -82 0 0 0 0 0 -82 -81 -81 0 0 0 0 0 0 0 0 0 0 0 0 -81 0 0 0 -80 -80 -80.5 -80.5 -80 -80 0 0 -79 -79 0 0 0 0 0 0 0 0 0 0 0 0 0 0 0 0 0 -78 0 0 0 0 0 0 0 19 0 0 0 0 0 0 0 0 0 -33 -37.5 -37.5 0 0 0 0 0 -36.6667 0 -35.5 -35.5 -35 -30 0 0 0 0 -29 -26 0 -31.75 0 0 0 0 -32 0 -34.5 0 0 0 0 -29 -29 -29 -29 -28.3333 -29 -28.5 -28.5 -31 -28.5 -28.5 -29.5 -29.5 -30 -28 0 0 0 0 0 -25.8333 -28 0 0 0 0 -30 0 0 -27 0 -27 0 0 0 0 0 0 0 -28 0 -25.5 -28 0 0 -27.3333 0 0 0 0 0 0 0 -25.5 0 0 0 0 0 0 0 0 0 0 -26.5 -26 -26 0 -26 -26 -25 -23 0 -24 -23 0 0 0 0 0 0 0 0 0 0 0 0 -22 0 -24.6667 -23 -22 0 0 -23.5 -23.5 0 -23 -24 -23 0 -22.5 0 -23 -23 -23.5 0 0 0 0 -24 -23.6667 0 -17 0 0 0 0 0 0 0 0 0 0 0 0 0 0 -42 -36.1667 0 0 0 0 0 90.6 90.6 -64.1579 -27.4167 -27.4167 92.9091 92.9091 -64.1579 0 0 0 -34.7684 -34 -41.873 -42.4792 -23 -52 -7.69697 -42.4792 -41.6367 -45.6364 0 0 0 0 -52.3333 -58.75 -50.7949 -50.7949 0 0 -48 -48 0 -57.6 -41.6367 0 -67.3333 0 0 0 -58.2667 -1.96667 79 80.6667 0 -60.1667 -53.1667 -74 -45.0619 -36.1923 92.9091 0 -47.4 0 -42 0 0 0 0 -82 0 0 0 0 -35.75 0 -57 -57 -57 -57 -57 -56 -56 0 0 0 0 -55 0 -56 -55 -55 0 -56 0 0 0 0 0 0 -54 -54 -54 -54 -54 -54 0 -54 0 -54 -54 -54 -54 -54 -54 -54 -53 -52 0 -53 -52 0 0 0 0 0 0 -53 0 -53.5 0 -52 0 -52 -52 0 0 0 0 -52 0 -52 -52 0 -51 -51 0 0 0 -51 -51 -51 -51 -51 -51 -51 -51 -50 0 0 0 0 -50 -50 -50 0 -50.5 -50 0 -49 -49 -49 -49 -49 -49 0 -49 -49 0 -49 -48 0 0 0 -48 0 -48 0 0 0 0 0 -47 -47 -47 0 -48 -47 0 -48 0 0 -47 -47 -46 0 -47 -47 -46
-24.7231 -24.7231 -24.7231 -39.3816 -39.3816 -39.3816 -24.7231 -24.7231 -24.7231 -39.3816 -39.3816 -39.3816 -39.3816 -39.3816 -24.7231 -24.7231 -24.7231 -24.7231 -24.7231 -24.7231 -24.7231 -24.7231 -24.7231 -24.7231 -24.7231 -24.7231 -24.7231 -39.3816 -39.3816 -39.3816 -39.3816 -39.3816 -39.3816 -39.3816 -39.3816 -39.3816 -39.3816 -39.3816 -39.3816 -39.3816 -39.3816 -39.3816 -39.3816 -39.3816 -41.5037 -39.3816 -39.3816 -39.3816 -24.7231 -24.7231 -24.7231 -24.7231 -39.3816 -39.3816 -39.3816 -39.3816 -39.3816 -39.3816 -39.3816 -39.3816 -41.5125 -41.5125 -41.5125 -41.5125 -41.5125 -41.5125 -41.5125 -41.5125 -41.5125 -24.7231 -24.7231 -24.7231 -24.7231 -41.5125 -24.7231 -24.7231 -24.7231 -24.7231 -41.5125 -41.5037 -41.5037 -41.5037 -41.5037 -41.5125 -41.5125 -41.5125 -41.5125 -41.5037 28.4889 -41.5037 -41.5037 -41.5037 -41.5037 -24.7231 -24.7231 -41.5125 -41.5125 -41.5125 -77.0328 -57.3316 -57.3316 -57.3316 -24.7231 -41.5125 -41.5125 -41.5125 -41.5125 -41.5125 -24.7231 -24.7231 -41.5125 -41.5125 -41.5125 -41.5125 -24.7231 -24.7231 -57.3316 -41.5037 -41.5037 -41.5125 -39.3816 -24.7231 -24.7231 -24.7231 -24.7231 -79.6316 0 -41.5125 -96.053 -96.053 0 0 0 -48.5714 0 0 -49.7143 -94.5714 0 -91.8472 -71.5833 -71.5833 0 -89.3351 -89.3351 -94.75 106.917 -80.5 -80.5 0 0 0 0 0 0 -82.2143 0 0 -85.6 -85.3333 -86.9 0 -86 -86 0 0 0 0 -86 0 0 0 0 0 0 0 0 0 0 0 -84.5 -84.5 0 0 0 -84 0 0 -83.5 -83.5 0 0 -84 -84 -83 0 0 0 0 0 -83 -82 -82 -82.5 -82.5 0 0 0 0 0 0 0 0 -82 0 -81 0 0 0 0 0 0 0 -81 0 0 -80 0 0 0 0 0 -80 0 0 -79 -79 -79 0 0 0 -79 0 0 0 0 -78 -78 -78.5 -78.5 0 0 0 0 0 0 0 0 0 0 0 0 0 0 0 0 -37 0 -37 0 -36.5 -36.5 0 -38.5 0 -37 -37 -37 -37.3333 -36.6667 -36.6667 0 -35.5 -35.5 0 -30 0 0 0 0 -31.75 -31.75 -36.3333 0 0 -30 -30.5 -30.5 0 -30 0 -32 -28 0 0 -29 0 0 -29 0 0 0 0 -29 -28.5 -28.5 -29.5 -29.5 0 0 -28 0 0 0 0 -30 -28.5 -28.5 0 0 0 -30 0 -28 0 -26.5 0 0 -27 -29 -28 0 0 0 -27.5 -27.5 -27 -28.5 0 -27 0 0 0 -25.5 -25.5 -27 0 -25.5 0 0 0 -30 0 0 0 0 0 -24 -20 -25.5 -25 0 0 0 0 0 0 -23 0 0 -23 -22.5 -22.5 -25 -22 0 0 -22.3333 -22.3333 -25 -22.3333 0 0 -23 -25 0 0 0 -23 0 0 0 0 0 0 -25 0 0 0 -23.5 0 -25 0 -24.5 -24.5 0 0 0 0 -27 0 0 0 0 0 0 0 0 0 -28.2609 0 0 0 -42.9667 -42.9667 0 0 0 0 0 0 0 0 -35.7143 -45.0619 -41.5476 -41.5476 -42.55 0 0 0 -28.2609 0 0 0 0 -48.7115 -55.1786 0 -42.4792 -41.5476 0 0 -43.75 0 21.2143 -61.942 -64.1579 -36.1923 0 0 0 -53.5 0 -47.2053 -64.1579 -50.7949 80.6667 0 0 0 89.6667 -1.96667 -1.96667 -1.96667 -45.0619 -61 -45 0 -49.9 0 0 0 0 0 0 0 0 0 0 -82 0 0 0 0 0 -56 0 -57 -57 -57 -57 -57 -56 0 -56 -56 0 -55 0 -56 0 0 0 0 -55 0 -55 -55 -55 -55 -54 -54 0 0 0 -54 0 -54 0 -54 -54 -54 -54 0 -54 -53 0 -52 0 0 -52 0 0 -53 0 0 -54 -53 0 -53.5 0 0 0 -52 -52 0 -52 -52 0 -52 0 -52 -52 0 -52 0 -51 -51 0 -51 -51 -51 -51 -51 -51 0 0 0 -50 -50 -50 -50 0 -50 -50 -50 0 0 -50 -49 -49 -49 -49 -49 -49 -49 -49 -49 -49 0 0 0 -48 -48 0 -48 -48 -48 0 0 0 0 -47 -47 0 -48 0 0 0 0 -46 0 -47 -47 0 -47 -47 -47 -46
-24.7231 -24.7231 -24.7231 -24.7231 -39.3816 -39.3816 -39.3816 -24.7231 -24.7231 -39.3816 -39.3816 -39.3816 -39.3816 -39.3816 -24.7231 -24.7231 -24.7231 -24.7231 -24.7231 -24.7231 -24.7231 -24.7231 -24.7231 -24.7231 -24.7231 -24.7231 -24.7231 -39.3816 -39.3816 -39.3816 -39.3816 -39.3816 -39.3816 -39.3816 -39.3816 -39.3816 -39.3816 -2.00838 -2.00838 -39.3816 -39.3816 -39.3816 -39.3816 -39.3816 -41.5037 -39.3816 -39.3816 -39.3816 -24.7231 -24.7231 -24.7231 -24.7231 -24.7231 -39.3816 -39.3816 -39.3816 -39.3816 -39.3816 -39.3816 -39.3816 -24.7231 -24.7231 -41.5125 -41.5125 -41.5125 -41.5125 -41.5125 -41.5125 -41.5125 -24.7231 -24.7231 -24.7231 -24.7231 -24.7231 -24.7231 -24.7231 -24.7231 -24.7231 -41.5125 -41.5037 -41.5037 -41.5037 -41.5037 -41.5125 -41.5125 -41.5125 -41.5125 -41.5037 -33.55 -41.5037 -41.5037 -41.5037 -41.5125 -24.7231 -24.7231 -41.5125 -41.5125 -41.5125 -57.3316 -57.3316 -57.3316 -57.3316 -24.7231 -41.5125 -41.5125 -41.5125 -41.5125 -41.5125 -24.7231 -24.7231 -41.5125 -41.5125 -41.5125 -24.7231 -24.7231 -24.7231 -57.3316 -57.3316 -41.5037 -41.5125 -41.5125 -24.7231 -70.0071 -70.0071 -24.7231 -74.5 0 -96.5 0 0 50.8947 50.8947 50.8947 -49.7143 0 0 -49.7143 0 -91.8472 0 0 0 0 -85.2308 -72.4167 0 -77.0328 -77.0328 -77.0328 0 0 0 -95.7143 -82.2143 -82.2143 0 -87.1667 0 -85.6 -85.3333 -85.3333 0 0 0 0 0 0 0 0 0 0 -85 0 -84.5 -84.5 0 0 0 0 0 -84.5 -84.5 0 0 0 0 0 0 0 -84 -84 0 0 -84 -83 0 0 0 0 0 0 -82 -82 -82.5 -82.5 0 -82 0 0 0 0 -95.3333 -95.3333 -82 0 -81 0 -81 0 -81.5 -81.5 0 -82 -81 0 0 -80 0 -80.5 -80.5 -81 -80 0 0 0 0 0 0 0 0 0 -79 0 0 0 0 0 -78 -78.5 -78.5 0 0 -78 0 -78 0 0 0 0 0 -42 -36.5 -36.5 -37 -37 -37 -37 -37.5 -37.5 -36.5 -36.5 -39 -38.5 -38 0 0 -38 -40 -32 0 0 -30.5 0 0 0 -30 0 -33 -28 -31 -31 0 0 0 0 0 0 0 0 -30 0 -28 0 0 0 0 0 0 0 -29 -29.5 -29.5 0 0 -29 -29 0 0 0 0 0 -27.5 -27.5 0 0 0 0 -26 -26.6667 -26.6667 0 0 -26.5 0 0 0 0 0 0 0 0 -26.5 -27 0 -27 0 0 -27 0 0 -28.5 -28.5 0 -26.5 -26.5 0 -28 -30 0 0 0 -28 0 -25.5 0 -25 0 0 -26.5 -27 0 0 0 -25 0 0 -25 0 0 0 -23 0 0 0 -21 0 0 0 -23.5 0 0 0 0 -23 0 0 0 0 -22 0 -24 -25 0 0 0 -25 0 -22.5 0 0 -24 0 0 -23.5 -23 0 -23.6667 -23.5 21 0 0 0 16 0 0 0 0 0 0 0 0 -32.25 -36.1667 -21.2 0 0 0 0 0 0 0 0 0 -35.7143 -50.7949 -41.6367 -36.1667 0 0 0 0 -28.2609 0 0 0 0 0 0 0 -49.2625 -42.55 0 0 -31.0278 0 0 0 -64.1579 -50.7949 -49.9 0 0 0 0 92.9091 -65.8333 -60.5 -36.1923 0 0 0 0 80.6667 0 0 -38 0 -49.2625 0 0 0 0 0 0 -97 0 -50.2222 -50.2222 0 0 0 -78.6667 0 0 0 0 0 0 -57 0 0 -57 -57 -56 0 -56 -56 -56 -55 0 -56 0 -55 0 -56 -55 0 0 0 0 0 0 0 -54 -54 -54 -54 0 -54 -54 -54 -54 -54 -53 0 -54 0 -54 -52 0 -52 0 -53 0 -53 -52 0 0 0 0 0 0 -53 0 -52 -52 0 -52 0 -53 0 0 -53 -52 0 -52 0 -51 -51 -51 -51 0 0 0 0 0 -51 -51 -50 -50 -50 -50 -50 -50 0 0 0 -50 -50 -50 -49 -49 0 -49 -49 -49 -49 -49 0 -49 -49 -48 0 -48 -48 0 0 0 0 0 0 0 -48 -47 0 -48 -48 -47 -47 0 -48 -48 0 -47 0 0 0 -47 -47 0
-24.7231 -24.7231 -39.3816 -39.3816 -39.3816 -39.3816 -39.3816 -39.3816 -39.3816 -39.3816 -39.3816 -39.3816 -39.3816 -39.3816 -24.7231 -24.7231 -24.7231 -24.7231 -24.7231 -24.7231 -24.7231 -24.7231 -24.7231 -24.7231 -24.7231 -24.7231 -24.7231 -24.7231 -39.3816 -39.3816 -39.3816 -39.3816 -39.3816 -39.3816 -39.3816 -39.3816 -39.3816 -39.3816 -2.00838 -39.3816 -39.3816 -39.3816 -39.3816 -39.3816 -39.3816 -39.3816 -39.3816 -39.3816 -24.7231 -24.7231 -24.7231 -24.7231 -24.7231 -39.3816 -39.3816 -39.3816 -39.3816 -39.3816 -39.3816 -39.3816 -39.3816 -39.3816 -41.5125 -41.5125 -41.5125 -41.5125 -41.5125 -41.5125 -24.7231 -41.5125 -41.5125 -41.5037 -41.5037 -24.7231 -24.7231 -24.7231 -24.7231 -24.7231 -41.5125 -41.5125 -41.5125 -41.5125 -41.5125 -41.5125 -41.5125 -41.5125 -41.5125 -41.5037 -82.0177 -41.5125 -41.5125 -41.5125 -24.7231 -24.7231 -24.7231 -24.7231 -57.3316 -57.3316 -57.3316 -57.3316 -24.7231 -24.7231 -24.7231 -41.5125 -41.5125 -41.5125 -41.5125 -41.5037 -39.3816 -24.7231 -41.5125 -41.5125 -41.5125 -24.7231 -24.7231 -24.7231 -80.3895 -80.3895 -89.3351 -41.5125 -41.5125 0 -80.3895 -80.3895 -57.3316 -74.5 0 0 0 0 0 50.8947 58.75 0 -76.2167 -76.2167 -65.5 0 -91.8472 -58.2 -77.4286 -77.4286 -74 -74.2353 0 -75.1667 0 0 -77.5597 -84.5688 -77 -83.8286 -77 0 -82.2143 0 -87.1667 0 -80.3333 -81.5 -81.5 0 -86 -86 0 0 0 0 0 0 0 0 0 0 0 -85 0 -85 0 0 -84.5 -84.5 0 0 0 0 0 0 0 -84 -84 0 -84 -84 0 0 0 0 -83 0 0 0 0 0 0 0 -82 0 -82 0 0 0 0 0 0 0 0 -81 0 -81.5 -81.5 0 -82 -81 0 0 -80 0 0 0 0 -80 -80 0 0 -79 -79 0 0 0 0 0 0 0 0 0 0 -78.5 -78.5 -79 0 0 -78 0 0 0 0 0 0 0 0 0 -37 0 0 0 0 -37 -36 -36.5 -36.5 -36.5 0 -36 0 0 0 0 0 0 -30.5 -30.5 -30.5 0 0 -29 0 -38 0 -33 -31 0 0 -30 0 0 0 -31 0 -29.5 0 0 0 -27 -32 -34 0 -29 0 0 0 0 0 0 -29.5 -29.5 -27 0 0 -28 -27.5 -28 0 0 0 0 -28.3333 0 0 -26.6667 0 0 -27 -26 0 0 0 0 0 0 -26.5 0 -27.5 -27 -27 0 -28 0 0 -27.5 0 0 0 0 0 -27 -28 0 0 0 0 0 -25 0 -26 -25 0 0 -23.5 -23.5 0 0 0 -26 -25.5 0 -25.5 0 -23 0 0 0 0 0 -22 -22 0 0 0 -22.5 -23 0 -22.5 -24 0 -23 -24 -23 -22.5 0 -23.25 0 0 0 -23.25 -25 0 0 0 -26.3333 -24 -24 0 0 -24 -23 -23.5 0 26.3333 0 -0.5 0 0 -50.2222 -38 0 0 0 0 0 0 -41.6367 -42.255 -48.4 0 -28.2609 0 0 0 0 -47.7529 -28.2609 -43.65 -64.1579 -64.1579 -64.1579 0 0 -37.5 0 0 0 0 0 0 0 0 0 -42.255 -45.0619 -38.6762 -41.125 -53.5833 0 0 0 0 0 -35.7143 -45.5 0 -31.0278 0 -64.1579 -1.96667 92.9091 0 0 -43.5 0 0 -49.9 0 0 0 -52.3333 -50.2222 0 0 0 0 -38.6667 0 -32 0 -50.2222 0 0 0 0 0 0 0 0 0 -22 0 0 0 0 0 -57 -57 0 0 -56 0 -56 -55 0 -55 0 -55 0 -55 0 0 0 -55 -55 -55 -55 0 -54 -54 -54 -54 -54 0 0 0 -54 -54 -53 0 -54 0 -54 0 0 -52 0 0 0 0 0 0 -53 -53 0 -53.5 0 -53 0 -52 0 0 0 0 0 -52 0 -52 -52 -52 -52 0 -51 -51 -51 -51 0 -51 -51 0 -51 -51 -51 0 0 0 0 0 0 -50 -50 -50 0 -50 -50 -49 -49 0 0 0 -49 -49 -49 -49 -49 -49 -48 0 0 0 0 -48 -48 -48 -48 -48 -48 -48 -47 0 -48 -48 0 0 0 0 0 0 -47 -47 0 -47 -47 -46 0
-24.7231 -24.7231 -24.7231 -24.7231 -39.3816 -39.3816 -39.3816 -39.3816 -39.3816 -39.3816 -39.3816 -39.3816 -39.3816 -24.7231 -24.7231 -24.7231 -24.7231 -24.7231 -24.7231 -24.7231 -24.7231 -24.7231 -24.7231 -24.7231 -24.7231 -24.7231 -24.7231 -24.7231 -24.7231 -41.5037 -39.3816 -39.3816 -39.3816 -39.3816 -39.3816 -39.3816 -39.3816 -39.3816 -39.3816 -39.3816 -39.3816 -24.7231 -24.7231 -24.7231 -39.3816 -39.3816 -39.3816 -39.3816 -41.5037 -39.3816 -39.3816 -39.3816 -39.3816 -39.3816 -39.3816 -39.3816 -39.3816 -39.3816 -41.5037 -39.3816 -39.3816 -24.7231 -24.7231 -41.5125 -41.5037 -41.5037 -41.5125 -41.5125 -41.5125 -41.5125 -41.5125 -41.5037 -41.5037 -39.3816 -39.3816 -39.3816 -24.7231 -24.7231 -24.7231 -24.7231 -24.7231 -24.7231 -24.7231 -24.7231 -24.7231 -24.7231 -24.7231 -24.7231 -41.5125 -41.5125 -41.5125 -41.5125 -24.7231 -24.7231 -57.3316 -57.3316 -57.3316 0 -57.3316 -57.3316 -24.7231 -24.7231 -24.7231 -41.5125 -24.7231 -39.3816 -39.3816 -41.5037 0 0 -41.5125 -41.5125 -41.5125 -24.7231 -24.7231 -24.7231 -24.7231 -24.7231 -89.3351 -41.5125 -24.7231 -80.3895 -80.3895 -80.3895 -57.3316 -74.5 -74.5 0 49 49 0 -41.2511 0 0 -76.2167 -76.2167 0 0 -88.2024 -53.25 0 0 -77.0328 -91.3241 -89.3351 -48.5714 -83.8286 -83.8286 -84.5688 -84.5688 -79 -83.8286 -77 -77 0 0 0 -82.2143 0 -81.5 -81.5 0 0 0 0 0 0 0 -86 0 0 0 0 0 0 0 0 -85 0 0 -84.5 -84.5 0 -85 0 0 -84 0 0 0 -84 0 0 -84 0 0 0 0 0 0 -83 0 0 0 0 0 0 0 0 0 0 0 0 -82 0 0 0 0 0 -81.5 -81.5 -82 -81 -81 0 0 -80 -80 -80.5 -80.5 0 0 0 0 0 0 -79 0 0 0 0 0 0 0 0 0 -78 -78.5 -78.5 -79 0 -78 0 -41.5 -41.5 -39 -37.5 0 0 0 0 0 0 0 0 0 -36.5 -36.5 -37 -36.5 -36.5 0 0 0 -36 -36.5 -36.5 0 -30 0 0 -30.5 -30.5 0 0 0 -31 0 0 0 0 -31 -31 -31 0 0 -31 0 -30 0 -30 0 0 0 0 0 -27.6667 0 0 0 0 0 0 0 0 -28 0 0 0 -27.3333 0 0 -27 0 0 0 -28.3333 0 0 0 0 0 -27 -26 0 -26 -25.5 -25.5 0 0 0 0 -27 -27 -27 0 -23.5 -26.5 -26.5 0 0 -27 0 0 0 0 0 0 -26 0 0 0 -24.5 -24.5 0 -25 0 0 0 0 0 0 0 -26.3333 -23.5 -25 -25.5 0 0 0 0 -26 0 0 -26 0 0 0 -23 0 -22.5 0 0 0 -22 -24.6667 -24.6667 -20 -22.5 -24.6667 -23.25 -23.25 0 0 -26 0 -22.5 -25 0 -26.6667 0 -26.6667 -29 -29 -29 0 0 -56 30 -23.5 0 0 -17.5 0 0 0 0 0 0 0 0 -50.7949 0 -36.1667 0 0 0 0 0 0 0 0 0 0 0 0 0 0 0 0 30.9143 0 0 0 -25.7 -46.1787 0 0 0 0 0 0 0 0 0 0 0 0 0 0 0 -49.2625 0 -50.1147 0 0 0 0 0 -28 0 -49.9048 0 89.6667 0 75 -38 -50.2222 -50.2222 0 90.6 0 0 0 -50.2222 -50.2222 0 80.8 0 0 0 0 0 0 0 0 0 0 0 0 -57 0 0 0 0 -56 0 -56 -55 0 0 0 0 0 -56 0 0 -55 -55 -55 -55 -55 -55 0 0 0 0 -54 -54 -54 -54 0 -54 -53 0 -54 0 0 0 -52 -52 0 -52 0 -52 -52 0 -53 -53 0 0 0 0 0 0 0 -53 -52 0 -52 -52 0 -52 -52 0 0 -51 -51 -51 -51 -51 0 -51 0 -51 -51 0 0 0 -50 -50 -50 -50 -50 -50 -50 0 0 0 0 0 0 -49 -49 -49 -49 -49 -49 -49 -49 -49 0 -48 -48 -48 0 -48 -48 0 -48 -48 -48 -48 -47 0 0 0 -47 -47 0 -48 -47 -47 0 -46 0 -47 -47 -46 0
-24.7231 -24.7231 -24.7231 -24.7231 -39.3816 -39.3816 -24.7231 -24.7231 -24.7231 -24.7231 -24.7231 -24.7231 -24.7231 -24.7231 -24.7231 -24.7231 -24.7231 -24.7231 -24.7231 -24.7231 -24.7231 -24.7231 -24.7231 -24.7231 -24.7231 -24.7231 -24.7231 -24.7231 -24.7231 -41.5037 -39.3816 -39.3816 -41.5037 -41.5037 -39.3816 -39.3816 -39.3816 -39.3816 -39.3816 -39.3816 -39.3816 -24.7231 -24.7231 -24.7231 -39.3816 -39.3816 -39.3816 -39.3816 -39.3816 -39.3816 -39.3816 -39.3816 -39.3816 -39.3816 -39.3816 -39.3816 -39.3816 -39.3816 -39.3816 -24.7231 -24.7231 -24.7231 -24.7231 -24.7231 -24.7231 -24.7231 -41.5125 -41.5125 -41.5125 -41.5125 -41.5125 -41.5125 -41.5037 -39.3816 -24.7231 -24.7231 -24.7231 -39.3816 -24.7231 -24.7231 -24.7231 -24.7231 -24.7231 -24.7231 -24.7231 -24.7231 -41.5125 -41.5125 -41.5125 -41.5125 -41.5125 -41.5125 -24.7231 -24.7231 -24.7231 -24.7231 -24.7231 -24.7231 -57.3316 -57.3316 -57.3316 -57.3316 -77.0328 -41.5125 -41.5125 -41.5125 -39.3816 -41.5037 0 0 -41.5037 -41.5037 -41.5125 -24.7231 -24.7231 -24.7231 -24.7231 -24.7231 0 -24.7231 -24.7231 -24.7231 -57.3316 -57.3316 -57.3316 -78.75 -78.75 -87.4167 -87.4167 0 8.33333 0 0 0 0 0 0 0 -75.875 0 0 0 -41.2511 -84.5688 0 0 -71 -71 -84.5688 -84.5688 -79 0 0 0 0 0 -82 -90.7778 -87.4 -88.4167 -88.4167 0 0 0 0 0 0 0 0 -86 -85 -85 0 0 -85 0 0 0 0 0 0 -85 0 -85 0 0 0 0 0 -84 -84 0 0 -84 -83.5 -83.5 -84 0 0 0 0 0 -82.5 -82.5 0 0 0 -82 -82 0 0 0 0 0 0 -81 0 -81 0 -81.5 -81.5 -82 -81 0 0 0 -80 -80 -80.5 -80.5 0 -80 -80 0 0 0 0 0 0 0 -80 -79 0 0 0 0 0 0 0 0 0 0 -96.6667 0 -39 0 0 0 0 0 -40 -38 -37 0 0 0 0 0 0 0 0 -36 0 -37 -36 -38.5 -38.5 0 -29.3333 0 0 0 0 0 0 0 0 -32 0 0 -28.6667 0 -31 -30 0 0 -31 -31 -30.5 -30.5 0 -28 0 0 0 -27.6667 -27.6667 -27 0 0 0 0 0 0 0 -25 -27.3333 -27.3333 -29 -27.5 0 -27 -28 0 0 0 0 -28.3333 0 0 0 0 0 0 -27.5 -27.5 0 -26.5 -26 0 -26.5 0 0 0 0 -26 0 -26 0 0 -27.5 -27.5 0 -28 -27 0 0 0 0 0 0 0 0 0 -25.3333 -25.3333 0 -25.3333 -25 0 0 -26.5 0 -27 -26 0 0 0 -23.6667 0 0 0 0 0 0 0 0 0 -25 0 0 0 -22 -22 0 0 -24 -22 -22 0 0 0 -22.5 0 0 -27 0 0 0 0 0 0 0 0 0 0 0 -26.2857 -26.2857 -26.2857 0 0 0 0 0 -31.0278 0 0 0 0 0 0 0 0 0 0 0 0 0 0 0 0 0 0 0 0 0 0 0 0 -47.7529 0 -42.55 -36.1667 -32.25 0 -64.1579 -51 -36.1667 0 0 0 0 0 0 0 0 0 0 -42.255 0 0 -58.2667 -58.2667 -44.8833 -50.1147 -49.9048 -29.75 -34.5 -41.5476 0 -48.4 0 -74.6667 -74.6667 0 0 -69 0 0 90.6 -50.2222 0 0 0 -50.2222 -50.2222 80.8 0 0 0 0 0 0 0 0 0 -55 -85 -57 0 -57 -56 0 0 -56 0 0 0 -56 -55 0 -55 0 0 -55 0 -55 0 0 0 0 0 -54 0 -54 -54 -54 0 0 0 0 0 -53 0 -54 0 -54 0 -52 0 -53 -52 0 0 0 -52 0 -53 0 -53.5 0 -53 0 -52 0 -52 -52 0 0 0 0 0 0 -52 -52 -52 -51 -51 -51 -51 0 -51 0 0 -51 -51 -51 -51 -50 -50 -50 -50 -50 0 0 0 -50 -50 0 -50 -49 -49 -49 -49 -49 -49 -49 -49 -49 0 -49 -48 -48 0 -49 -48 -48 -48 0 0 0 0 0 0 -48 -47 -47 0 -48 -47 -47 -47 -46 0 0 0 0 0 -47
-24.7231 -24.7231 -24.7231 -24.7231 -24.7231 -39.3816 -24.7231 -24.7231 -24.7231 -24.7231 -24.7231 -24.7231 -24.7231 -24.7231 -24.7231 -24.7231 -24.7231 -24.7231 -24.7231 -24.7231 -24.7231 -24.7231 -24.7231 -24.7231 -24.7231 -24.7231 -24.7231 -41.5125 -41.5125 -41.5125 -39.3816 -39.3816 -41.5037 -41.5037 -41.5037 -39.3816 -39.3816 -39.3816 -39.3816 -39.3816 -39.3816 -39.3816 -24.7231 -24.7231 -39.3816 -39.3816 -39.3816 -39.3816 -39.3816 -39.3816 -39.3816 -39.3816 -39.3816 -39.3816 -39.3816 -39.3816 -39.3816 -39.3816 -24.7231 -24.7231 -24.7231 -24.7231 -24.7231 -24.7231 -24.7231 -24.7231 -24.7231 -24.7231 -41.5125 -41.5125 -41.5125 -41.5125 -39.3816 -39.3816 -39.3816 -24.7231 -24.7231 -24.7231 -24.7231 -24.7231 -24.7231 -24.7231 -24.7231 -24.7231 -24.7231 -24.7231 -41.5125 -41.5125 -41.5125 -41.5125 -41.5125 -41.5125 -24.7231 -24.7231 -24.7231 -24.7231 -24.7231 -24.7231 -57.3316 -57.3316 -57.3316 -57.3316 -77.0328 -41.5125 -41.5125 -41.5125 -41.5125 -41.5125 -62.3571 -62.3571 -56.2872 -56.2872 -56.2872 -56.2872 -56.2872 -36.3544 -36.3544 -36.3544 -70.0071 -70.0071 -41.5125 -41.5125 -41.5125 -41.5125 -91.8472 -80.6667 -88.6698 -58.5417 -58.5417 0 0 28.7 0 0 0 0 -47 0 0 0 0 0 -84 -0.75 0 0 -71 -71 -84.5688 -84.5688 0 0 -77.8 -77.8 0 -83 -82.2143 -88 -87.4 -87.4 -75.3333 0 0 0 0 0 0 0 0 -86 0 0 0 0 -85 -85 -85 -85 0 0 0 -85 0 -85 0 0 -84.3333 0 0 -84 -84 0 0 -84 -83.5 -83.5 -84 -84 0 0 0 0 0 0 0 0 -82 0 -82 -81 0 0 0 0 0 0 0 -81 0 0 -82 0 0 0 0 0 0 0 0 0 0 -80 -80 0 0 0 0 0 0 0 0 -79 0 -79 -78 0 -78.5 -78.5 -79 0 0 -78 0 -39 0 0 0 0 0 0 0 0 0 -38 0 0 -37 0 -37.5 -37.5 -38 0 0 0 0 0 -37 -36 -29.3333 0 -31.5 -31.5 -29.3333 0 0 0 0 0 0 -28.6667 -27.5 -27.5 -29.5 0 0 0 0 -29.5 -29.5 -26.3333 0 -29 0 0 0 -27.5 -27.5 0 0 0 0 0 -25.5 -25.5 -27 0 0 -26.5 -27 -27 0 -27 0 -25.5 -25.5 0 0 0 -27 -26 0 0 0 0 -26 0 0 0 0 -26 -26 0 0 -27 0 0 0 0 0 0 -28 -27 0 0 0 0 0 -25.8 -26 0 0 0 0 -25 -25 -25 -25 -28 0 0 -26.5 -26 -25 -25.5 -25.5 0 -25.3333 -26 -26 -24 0 0 0 0 -25 0 0 -22.5 -22.5 0 0 0 0 -22.5 0 -22.5 0 -22.5 0 0 0 -22 -23 -27 0 0 0 -24.5 0 0 0 -25.5 -25.5 0 0 -26.2857 -26.2857 0 -26.2857 -30 -0.5 0 -5.55556 0 -25 19 -54 0 0 0 0 0 0 0 -52.7636 0 0 0 0 0 0 0 0 0 0 -88 0 0 0 0 -38.8333 0 0 0 0 0 -51 0 0 0 0 0 0 0 0 0 0 0 0 0 0 -37.6429 -49.9048 -38.2857 89.6667 -47.2053 -48.7115 -56 0 -45.0619 -36.1923 0 -57.6 -52.7636 -52.7636 0 -52.7636 0 0 0 0 -36.1923 -50.2222 -50.2222 0 0 0 0 0 0 0 0 0 0 0 0 0 -76.6667 -57 0 -57 -57 -57 0 0 -56 0 -56 0 -56 -55 0 -55 0 0 0 0 0 0 -55 -55 -55 -55 -54 -54 -54 -54 0 -54 -54 -53 0 -54 -53 0 -54 0 -54 0 -52 0 -52 -52 0 -52 0 -52 0 -53 -53 -54 -54 -53 0 -52 0 0 0 -52 -52 -52 -52 -52 -52 -52 -52 -52 -51 -51 -51 -51 0 0 -51 0 -51 -51 0 -51 -50 -50 0 0 0 -50 -50 -50 -50 -50 -50 -50 -49 -49 -49 -49 0 0 0 -49 -49 -49 -49 -48 -48 0 0 0 0 0 -48 0 0 -48 0 -48 -47 -47 -47 0 0 0 0 0 0 -46 0 -47 -47 0 -47
-24.7231 -24.7231 -24.7231 -24.7231 -24.7231 -39.3816 -24.7231 -24.7231 -24.7231 -24.7231 -24.7231 -24.7231 -24.7231 -24.7231 -24.7231 -24.7231 -24.7231 -24.7231 -24.7231 -24.7231 -24.7231 -24.7231 -24.7231 -24.7231 -24.7231 -24.7231 -24.7231 -24.7231 -24.7231 -24.7231 -39.3816 -24.7231 -24.7231 -41.5125 -41.5125 -41.5037 -41.5037 -41.5037 -39.3816 -39.3816 -39.3816 -39.3816 -24.7231 -24.7231 -39.3816 -39.3816 -39.3816 -39.3816 -39.3816 -39.3816 -39.3816 -39.3816 -39.3816 -39.3816 -39.3816 -39.3816 -39.3816 -39.3816 -24.7231 -24.7231 -24.7231 -24.7231 -24.7231 -24.7231 -24.7231 -24.7231 -24.7231 -41.5125 -41.5125 -41.5125 -24.7231 -24.7231 -39.3816 -39.3816 -39.3816 -24.7231 -24.7231 -24.7231 -24.7231 -24.7231 -24.7231 -24.7231 -39.3816 -39.3816 -39.3816 -41.5125 -41.5125 -41.5125 -41.5125 -41.5125 -41.5125 -41.5125 -24.7231 -24.7231 -24.7231 -24.7231 -24.7231 -24.7231 -24.7231 -57.3316 -57.3316 -57.3316 -57.3316 -41.5125 -41.5125 -41.5125 -41.5125 -41.5125 -62.3571 -56.2872 -56.2872 -56.2872 -56.2872 -56.2872 -56.2872 -24.7231 -24.7231 -24.7231 -90.6333 -24.7231 -24.7231 -41.5125 -41.5125 -41.5125 -67.9874 -80.6667 -75.6 -49.3137 -49.3137 -41.5125 -97.0455 0 -15.5 0 0 -96.4444 108.167 0 -55.1364 -55.1364 -55.1364 0 -84 -0.75 -77.5597 0 0 0 0 -63 0 -77.4773 -84.5 -84.5 -70 -87 0 -88 -77.4667 -77.4667 -88 0 0 -86 0 0 0 0 0 0 0 -85 -85.5 -85.5 -85 -85 0 0 0 0 0 0 0 0 0 0 -84.3333 -84.3333 0 0 0 0 0 0 0 0 0 0 -83 -83 0 0 0 0 0 0 -82 0 -82 0 -81.5 -81.5 -82 0 0 -81 0 -81 0 0 0 0 -81 -81 0 -81 -80 0 0 0 0 -80 -80 0 -80 -79 0 0 -80 0 0 0 0 0 -78 -78 -78.5 -78.5 -79 0 0 -78 -78 -39 0 0 -40 -40 -40 -39 -39 0 -38 0 -37.5 0 0 0 0 0 0 -37.5 -36 -37 0 -36 -37 -36 0 0 0 0 0 -29.5 -29.5 0 -29 -28.6667 -31 0 0 0 0 -26.3333 -26.3333 0 -28.5 0 0 0 -28 0 0 0 0 -29 -28 -27 0 0 0 -27 -26.5 -26.5 0 -26.5 0 0 0 -26 -26 0 0 -27.1667 0 0 0 -27 0 -27 0 0 -26 0 0 -26.5 -26.5 -26 0 0 0 0 0 0 0 0 -26 -26.5 -26.5 0 -28 -27.5 0 0 -27.5 0 -27 -25.8 0 -26.5 -26.5 0 -25 -25 0 0 0 -26 -26 -26.5 -25 -26 0 -27 -26 -26.1667 -25.3333 -25.3333 -28 0 0 -24 0 0 -25 0 0 -23 0 0 0 -22 0 0 0 0 -22.5 -22.5 -25 -26 0 -22.3333 -22.3333 0 0 -24.3333 -24.5 -29.5 -29.5 0 0 0 -85.6667 0 -70.5 0 -23 0 0 0 0 0 0 0 0 -22 0 0 0 0 0 0 -36.1667 0 0 0 0 0 -89.5833 -89.5833 0 0 0 0 0 0 0 0 0 0 0 0 0 0 0 92.9091 0 0 0 0 0 0 0 0 0 0 0 0 -36.1923 92.9091 21.2143 0 0 0 8.1 0 -58.1278 0 0 -36.1923 -36.1923 -36.1923 21.2143 0 0 -48.7115 -47.2053 0 0 0 0 0 -74 0 0 0 -85 0 0 0 0 0 -58 0 0 0 -57 0 0 0 0 0 -56 0 -57 -55 0 -56 0 -55 0 -55.5 0 0 -55 0 -55 -55 0 -55 0 0 0 0 0 0 0 -54 -54 -54 -54 0 -54 -53 0 -54 0 0 0 0 0 -52 -52 -52 -52 0 0 0 0 0 0 -54 -53 -53 0 0 -52 -52 -52 -52 -52 -52 -52 -52 -52 -52 0 0 0 -51 -51 0 -51 -51 -51 -51 -51 0 0 0 0 -50 0 -50 -50 -50 -50 -50 -50 0 0 0 0 -49 -49 -49 -49 0 -49 -49 -49 0 -48 -48 0 -48 -48 -48 -48 -48 -48 0 -47 0 -48 -47 -47 0 0 -47 -47 0 0 -46 0 -47 -47 -47 0 -47
-24.7231 -24.7231 -24.7231 -24.7231 -39.3816 -39.3816 -24.7231 -24.7231 -24.7231 -24.7231 -24.7231 -24.7231 -24.7231 -24.7231 -24.7231 -24.7231 -24.7231 -24.7231 -24.7231 -24.7231 -24.7231 -24.7231 -24.7231 -24.7231 -24.7231 -24.7231 -24.7231 -24.7231 -24.7231 -39.3816 -39.3816 -24.7231 -24.7231 -24.7231 -41.5125 -41.5037 -41.5037 -41.5037 -39.3816 -39.3816 -39.3816 -39.3816 -24.7231 -24.7231 -39.3816 -39.3816 -39.3816 -39.3816 -39.3816 -39.3816 -39.3816 -39.3816 -39.3816 -39.3816 -39.3816 -39.3816 -39.3816 -39.3816 -39.3816 -24.7231 -24.7231 -24.7231 -24.7231 -39.3816 -39.3816 -39.3816 -39.3816 -39.3816 -39.3816 -39.3816 -24.7231 -39.3816 -39.3816 -39.3816 -39.3816 -39.3816 -24.7231 -39.3816 -41.5125 -41.5125 -41.5125 -41.5037 -41.5037 -41.5037 -41.5037 -41.5037 -41.5125 -41.5125 -41.5125 -41.5125 -41.5125 -41.5125 -24.7231 -24.7231 -24.7231 -24.7231 -24.7231 -24.7231 -24.7231 -24.7231 -24.7231 -24.7231 -41.5125 -41.5125 -41.5125 -41.5125 -41.5125 -41.5125 -36.3544 -36.3544 -56.2872 -56.2872 -56.2872 -56.2872 -24.7231 -24.7231 -24.7231 -24.7231 -57.1569 -24.7231 -36.3544 -24.7231 -24.7231 -24.7231 -70.0071 0 -75.6 -40.3333 -40.3333 -49.3137 0 0 40.4 -58.5 -58.5 -52.7143 0 42 -55.1364 -55.1364 -55.1364 0 0 -77 0 0 0 -86 0 -95.7143 -80.6986 0 0 -71 0 -77 -95.7143 -83.75 -95.7143 -95.7143 -92 0 0 0 -85 0 0 -86 0 0 0 -85 -85.5 -85.5 -85 -85 0 -85 0 0 0 -85 0 0 0 -84 0 0 0 -84 -84 0 0 0 0 0 0 0 0 0 -83 -82.5 -82.5 -83 0 0 0 0 0 0 0 -82 -82 0 0 -81 0 -81 0 0 -82 0 0 0 0 0 0 0 0 0 0 0 0 0 0 0 0 0 0 0 -79 -79 0 -79 0 0 -78.5 -78.5 -79 -79 0 -78 0 0 0 -38 0 0 0 0 -39.5 0 0 0 0 -37 0 0 0 -39 0 -37 -37.5 0 0 -36 0 0 -29 -30.5 -30.5 0 0 0 -29 0 0 0 0 -28 -29.3333 -29.3333 0 0 0 -28 -28 0 -28 0 -28.5 -28.5 -29 -28 0 0 0 0 0 0 0 0 0 -26 0 0 0 0 0 0 0 -26 -26 -25 0 -27.1667 -27.1667 0 -26.5 0 0 0 -26 -26 0 0 0 -26.5 0 -24.8333 0 0 0 0 0 -26.5 -26.5 -26.5 -27.6667 0 -27.6667 -25.5 0 -27.5 0 0 -28 -22 0 0 -28 -25 -26.6667 -26.6667 0 -28 -26.6667 0 -26 0 -26 -26 -25.5 -26 0 0 -26.1667 -28 -28 -28 -28 0 0 0 0 -23 0 -23 -27 0 -23 -21 0 0 0 0 0 -23 -25 0 0 -22.3333 0 0 0 -24 -25 -26.3333 0 0 -28 0 -23.5 -56 -25 -24.5 -24.5 -25 -26.2857 23.5 0 0 0 0 0 -29.5 0 0 0 0 0 0 0 0 0 0 0 0 0 0 0 -53.6667 0 0 0 0 0 0 0 0 0 0 0 0 0 0 0 0 0 0 0 0 0 -50.7949 -73.9 -36.4 -35.7143 -50.7949 -41.6367 -50.7949 0 -38 -38 -65.8333 92.9091 -49.2625 -58.1278 -58.1278 -52.1833 -7.69697 0 -36.1923 -50.2222 0 0 -28.2466 -45.0619 0 0 0 82 -51.8571 -52.3333 -31.0278 0 0 0 0 0 0 0 0 -54.5 0 0 0 -58 -57 -57 -57 -57 -57 0 -57 -57 -57 0 -56 0 -55 -55 0 -55 0 -55 0 0 0 0 0 -55 -55 -55 -55 -54 -54 -54 -54 0 0 0 0 -54 -53 0 -54 0 -54 -53 0 0 -52 -52 0 0 0 -52 -52 0 -53.5 -53.5 -54 -53 0 0 0 0 -52 -52 -52 -52 0 0 0 0 -52 0 -51 -51 -51 -51 0 -51 0 -51 -51 -50 0 -51 0 -50 -50 0 -50 -50 0 0 0 0 -50 -50 -49 -49 -49 -49 -49 -49 -49 -49 -49 0 0 0 -48 0 -48 -48 -48 -48 -48 -48 0 0 0 0 0 0 0 -48 -47 -47 0 -48 0 -47 -47 0 0 0 0
