0 50.5 50.5 50.3333 51 0 50.3333 51 51.5 51.5 51.5 51.5 0 0 0 51.5 52 52 52 52 52.3333 53 53.5 0 53 52.5 52.5 52.5 53 0 0 0 53.5 54 53.5 53.5 53.5 0 53 88.5 54 0 0 0 0 0 0 0 0 0 0 0 0 0 0 0 0 0 0 0 0 0 0 0 0 0 0 0 0 0 0 0 0 0 0 0 0 0 0 0 0 0 0 0 0 0 0 0 0 0 0 0 0 0 0 0 0 0 74.4359 0 0 0 0 0 0 0 0 0 0 0 0 0 0 0 0 0 0 0 85.6947 0 0 0 0 0 0 0 0 85.6947 85.6947 85.6947 85.6947 0 0 0 0 0 0 0 0 0 0 0 0 0 0 0 0 0 0 0 0 0 0 0 0 0 0 0 0 0 0 0 0 6 7 7 10 0 0 8.5 8.5 8 9 9 8 8.66667 0 9.4 11 11 11 9.625 11 7.5 7.5 9.5 7.66667 0 0 10 10 0 0 0 0 8 8.5 9.5 0 9.5 9 0 0 0 0 0 11 11 0 0 12 12 12.5333 11 12.5333 0 12 30.5 30.5 13.75 13 13 13 13 13.5 13.75 13.75 13.75 15.75 21 0 15.75 0 14.5 14.5 0 0 0 0 0 0 0 0 16.8333 0 0 20.6667 0 0 20.6667 21 23.5 24.2 0 24.2 24.2 24.75 23.25 23.25 23.25 25.8333 25.8333 26 27 30 33.75 0 0 34.5 37 37 36.5 36.5 0 0 0 0 38 38 0 35.75 0 38.25 0 0 38.5 0 0 0 0 35 0 37 0 37.1667 34 34 34 34.5 0 0 0 34 33 33 33 0 0 34 34.5 34.5 32.5 32.5 32.5 33 0 32 32.5 0 0 33.1667 33 0 32 32 33.5 0 33 33 0 33 33 33 33 33 0 33 33 32.5 32.5 0 33 34 34 0 0 0 33 34 34.3333 34.5 0 0 0 0 0 0 36.5 37 37 38 38.5 0 39 0 39.5 39.5 0 0 0 40.5 40.4 42.5 42.5 39.25 41 42.5 42.5 0 58 0 0 0 0 0 0 0 0 0 65 0 0 47.3333 57.5 57.5 53.0476 53.0476 53.0476 66.8571 53.0476 66.8571 66.8571 66.8571 66.8571 66.8571 66.8571 53.0476 75.75 75.75 60.2255 60.2255 94.4091 74.8269 0 58.5556 79.6667 71 71 78.9286 79.6667 81.8889 79.6667 71 57.9583 57.9583 67.3333 54.5 54.5 54.5 0 64.75 50.5 44.5 50 35.6667 50.2222 0 0 51 50.2222 46.6667 46 48.8333 49.5 48.8333 48.8333 49.5 47.5 47.5 48 48 48 0 0 47 0 0 47 0 0 46.1667 0 0 46.5 0 45.5 45.5 0 49.8 49.8 49.8 46.6667 47.5 0 0 0 46 46 46.5 0 45.5 0 0 0 0 0 0 49 49 0 50 51 0 0 0 51.3333 52.5 0 0 64.6667 67 59.5 0 76.5 0 63 63 0 0 62 62 62.5 62 62 62 0 0 0 63 63 63 60.5 0 0 63.5 0 0 61 63.5 59.9 0 0 59.3333 0 0 0 0 0 60 60 61 60.5 60.5 60.5 0 62 59.75 0 0 59.5 59.5 0 60.5 0 0 0 0 0 0 61 61 60.5 60.5 0 0 0 0 61.3 61.2667 63 59.5 59.5 0 0 0 0 0 0 43.3333 0 0 0 0 0 0 0 0 0 0 0 0 0 0 0 0 0 0 0 0 0 0 0 0 0 0 0 0 0 0 0 0 0 0 0 0 0 0 0 0 0 0 0 0 0 0 0 0 0 0 0 0 0 0 0 0 0 0 0 0 0
0 50.5 50.5 50.6667 51 0 50.6667 51 51.3333 0 0 0 0 51 51 52 52 52 52 52 0 51.6667 53.3333 0 53 52.5 52.5 52.5 0 0 52.5 0 53.5 54 53.5 53.5 53.5 54 0 53.5 54.5 85.3333 85.3333 0 0 0 0 0 0 0 0 0 0 0 0 0 0 0 0 0 0 0 36.6897 36.6897 0 0 0 0 0 0 0 0 0 0 0 0 0 0 0 0 0 0 0 0 0 0 0 0 0 0 0 0 0 0 0 0 0 0 0 0 0 0 0 0 85.6947 0 0 0 0 0 0 85.6947 85.6947 85.6947 85.6947 85.6947 85.6947 0 85.6947 85.6947 37.5379 37.5379 37.5379 37.5379 0 0 0 0 85.6947 0 0 0 0 0 0 0 0 0 0 0 0 0 0 0 0 0 0 0 0 0 0 0 0 0 0 0 0 0 0 0 0 0 10 0 0 0 10 0 0 8.5 8.5 8.16667 0 0 0 0 0 9.4 0 8.66667 9.4 7 0 0 0 9 0 8 0 0 10 10 9 9 8.5 8.5 0 9.5 0 0 0 0 9 9 9.5 9.5 11 12 0 11.5 12 10 10 10 0 13 13 12 12 11.5 12 12 12 10 20 15 12 13.75 13.75 13.75 15.75 0 0 15 0 0 17.25 0 17.8333 17.8333 0 0 16.8333 16.8333 0 0 0 20.5 21 20.6667 20.6667 0 21 24.75 0 24.2 0 22.5 22.5 22.5 0 24.3 24.3 0 0 32.5 0 0 33.5 0 0 0 0 36 37 39.6667 39.6667 38 36.6667 0 37.5 41 37.3333 0 38.5 38.5 38.5 0 38.3333 35 35 36.5 36.5 36 0 0 0 32 35 34.5 35 0 0 33.5 33.5 33.5 33 0 32.5 33.5 32.5 32.5 32.5 33 33 0 32 0 34 0 0 0 0 32 32 33.5 0 33 33 33.5 33.5 0 33 33 33.5 33 0 0 34 33.5 33.5 33 34.5 34.5 34.5 0 35 0 0 34.3333 34.5 0 0 38 0 35 0 37 37 37 37 37 37 38.5 39 39 39 39 40 0 0 43.6667 43.6667 41.1667 0 0 42.5 43.6667 0 61.75 61.75 0 0 0 0 0 64 0 0 65 0 0 0 47.3333 0 61.3333 0 0 64.6429 64.6429 66.8571 53.0476 66.8571 66.8571 74.7778 66.8571 75.75 75.75 74.7778 73.6 78.9286 94.4091 64.2381 0 0 57.9583 58.5556 79.6667 93.8889 67.2568 69.6667 84 56.8333 83.0556 52.5 56.8333 0 54.5 54.5 51.5 54.5 64.75 0 0 52.5 51 91.5 31 0 0 0 0 0 0 51 0 0 0 48 48 48 0 47 47 49.5 47.5 46.8 46.8 47 0 46.5 46.5 46 46 0 0 45.5 46 48.5 46.6667 45 45 47.5 47.5 46.6667 47.5 0 46.5 0 49 0 45 0 0 47 0 0 0 0 49 51 51 0 0 51.3333 51.3333 52 52 0 64.6667 64.6667 0 62 62 63 0 62.1667 62.1667 0 0 0 61.5 61.5 62.5 0 0 0 0 62 60.8 0 60.6667 0 0 61 61 61 0 0 0 0 60.5 0 0 59.3333 59.3333 60 60 60.3333 60 61 60.5 60 60 62 60.5 62 0 59.75 59.75 59.75 0 58 60.6667 60.5 60.5 60.5 60.5 60.5 0 60 60.3333 0 68 65.1667 66 66 63 66 0 0 60 0 66 65.1667 68 0 43.3333 43.3333 0 0 0 0 0 0 0 0 0 0 0 0 0 0 0 0 0 0 0 0 0 0 0 0 0 0 0 0 0 0 0 0 0 0 0 0 0 0 0 0 0 0 0 0 0 0 0 0 0 0 0 0 0 0 0 0 0 0 0 0 0
0 50.5 50.5 50.5 51 0 0 0 0 0 51 51.5 0 51 0 52 52 52 52 52 0 51.5 0 0 0 0 0 0 0 52 52.5 53 0 0 53.5 53.5 53.5 54 0 0 54.1667 54.1667 0 0 0 0 0 0 0 0 0 0 0 0 0 0 0 0 0 0 0 0 0 0 0 0 0 0 0 0 0 0 0 0 0 0 0 0 0 0 0 0 0 0 37.4752 26.7194 0 0 0 0 0 0 0 0 0 0 0 0 0 0 0 0 0 85.6947 85.6947 85.6947 85.6947 85.6947 85.6947 0 0 85.6947 85.6947 85.6947 85.6947 85.6947 85.6947 85.6947 85.6947 85.6947 0 0 0 0 0 0 0 0 0 0 0 0 0 0 0 0 0 0 0 0 0 0 0 0 0 0 0 0 0 0 0 0 0 0 0 0 0 0 0 0 0 0 11 0 0 0 0 0 0 0 0 8.16667 8.16667 0 8.26667 8.26667 0 0 0 8.66667 0 0 6.5 6.5 8 8 0 8 0 0 0 9 9 0 8.5 8.5 8 8 0 9 9 10 10 11 11 0 0 9.5 9.5 9.5 10 11 0 0 11.5 0 0 0 0 21 21 21 0 0 15.75 0 0 13.2333 13.2333 13.2333 16.2 16.2 0 15 15 17.25 17.25 0 0 17.6667 0 0 16.5 16.5 17.5 0 0 20.5 0 18.5 19.5 0 20.75 21 0 0 0 0 25.8333 0 0 0 0 0 31.3333 31.3333 34 0 35 31.5 31.5 0 0 36 37.5 0 0 38 39.6667 37.5 0 0 37.5 37.5 35.75 38.5 0 0 0 0 35.6818 35 36 36 36 36 36 35 35 35 35 35 0 33.1667 33.1667 34 33.1667 0 0 0 33 33 33 33 0 33 33.5 0 32.5333 32.5333 32.5333 32.5333 0 0 31.6667 0 33.5 33 33 34 0 0 0 0 33.5 32.5 32.5 33 0 0 0 0 0 0 0 0 0 0 34.3333 0 35 0 35.5 35.6667 35.6667 35 0 37 37 36.5 36.5 36.5 36.5 38.5 38.5 0 39 39 39 0 0 0 42 0 0 0 64.875 64.875 0 59.6667 59.6667 60 60 0 0 0 0 61.5 64 0 66.5 67.5 75 75 63.5 63.5 84 74 53.8 53.8 64.6429 53.0476 74.7778 66.8571 74.7778 75.75 75.75 75.75 74.7778 74.7778 74.8269 74.8269 64.2381 64.2381 93.8889 83.0556 83.0556 64.3571 83.0556 69.7143 83.0556 83.0556 70.7 67.5254 67.5254 67.5254 52.5 54.5 50.3333 35.6667 0 0 35.6667 54.5 0 49.5 50 50.6667 54 0 0 0 0 47.5 0 0 0 0 0 0 0 0 47.5 47.5 0 46.8 46.8 46.8 46.3333 46.3333 46 46 0 0 0 0 0 0 0 0 0 45 45.25 45.25 0 45.25 0 48 47 48 0 49 48 0 47 0 0 49 49 49.6667 51 51 51.3333 50 0 51 52.5 52.5 52.5 0 62 62 0 63.3333 0 62 62.1667 64.25 64.25 64.25 61.5 61.5 61 63.5 64 62 62 62 62 60.8 60.8 60.8 60.8 61 0 61.3333 62 61.3333 61.3333 61 64 0 0 0 60 0 0 60.3333 60.3333 60 61 0 0 60.5 0 0 0 0 0 0 0 0 0 57 59 0 0 0 61.3333 61 61.1667 61.1667 0 63 63 63.5 63.5 0 61.1667 63 0 60.5 60.5 65.1667 0 0 0 0 0 0 0 0 0 0 0 0 0 0 0 0 0 0 0 0 0 0 0 0 0 0 0 0 0 0 0 0 0 0 0 0 0 0 0 0 0 0 0 0 0 0 0 0 0 0 0 0 0 0 0 0 0 0 0 0 0 0 0 0 0 0
0 0 0 0 0 51.5 52 0 51.1667 51.1667 51 51.5 52 0 0 52 0 0 0 0 0 0 52 52.6667 0 0 0 51 51.5 52 52.5 53 53.5 53.5 53.5 0 0 0 0 67.6 0 0 0 0 0 0 0 0 0 0 0 0 0 0 0 0 0 0 0 0 0 0 0 0 0 0 0 0 0 0 0 0 0 0 0 0 0 0 0 0 0 0 22.9118 37.4752 37.4752 37.4752 0 0 0 0 0 0 0 13.6234 13.6234 13.6234 0 0 85.6947 85.6947 0 0 0 0 0 0 0 0 0 0 0 0 0 0 0 0 0 0 0 0 0 0 0 85.6947 85.6947 85.6947 0 0 0 85.6947 0 0 0 0 32.6 32.6 0 0 0 0 0 0 0 0 0 0 0 0 0 0 0 0 0 0 0 0 7 7 9 0 0 0 10 0 6.25 6.25 6.25 0 0 0 0 0 0 8 8.26667 9.7 8 8 9 9 9 9.5 0 0 6.5 9.5 8 8 8 8.16667 8.16667 7.5 7.5 8.2 9 9 9 9.5 9.5 9 9.5 9.5 0 0 0 0 9.25 9.25 0 0 0 11 0 11.5 0 0 0 11.6667 0 13 12 12 12 0 0 0 13.2333 13.3333 13.2333 11.1667 16.2 7 0 0 16.5 0 17.25 0 17 0 19 0 16 0 19.5 0 0 18 0 18.5 20.3333 20.5 20.5 20.8 21.5 21.5 0 0 0 26 0 0 0 0 32 31.3333 31.5 0 35 0 31.5 0 0 0 0 38.3333 38.3333 38 0 38 0 39 39 38.5 37.75 37.3333 35 35 0 0 0 35.6818 0 35.6818 35.6818 36 34.25 35.6818 34.1667 35 0 0 34 34 34 33.3333 33.3333 0 0 0 32.8 32.8 32.8 32 33 33 33 0 0 0 0 32.5333 32 32 31.6667 31.6667 33 33.5 0 0 0 33 33 34 34 34 34 0 34 33.5 33.5 33 34.5 34.5 34.5 0 0 35 0 0 0 0 35.5 35.6667 0 35 36 37 0 37 37 37.5 0 38 38 0 0 0 39 0 0 0 42 41.1667 41.1667 0 41 83 0 59.6667 0 60 0 0 63 0 0 64 63 63 64 71.5 72.7222 72.7222 72.7 72.7 72.6321 72.6321 68.4 67.1 67.1 0 0 74.7778 63.5 75.75 74.7778 74.7778 74.7778 74.7778 63.6905 74.8269 94.4091 74.8269 93.8889 83.0556 83.0556 79.6667 83.0556 67.5254 56.8333 67.5254 67.5254 67.2568 67.5254 67.5254 93.8889 0 37.6667 50.6538 50.6538 71.6667 0 54.5 50.6538 50.6667 50.6538 50.6538 0 0 48 0 0 0 0 48.5 49 48.5 48.5 48 48 48 47 48 0 0 0 0 44 46.3333 0 0 0 0 0 0 46.5 0 0 0 0 0 0 47.25 0 45.25 47.25 0 47 48 48 0 47.5 0 0 48 0 49.6667 49 49.6667 0 50 50 0 0 0 52.5 52.5 0 64.5 0 63.5 63.5 0 0 63.3333 63.3333 63.5 63.75 63.75 0 64.25 61.5 61.5 0 0 0 0 62 62 62 62 62 61.5 61.5 61.5 61.5 59 61.4 61.4 61.4 0 0 0 61 60.6667 60.6667 0 0 0 0 61.8333 61.8333 0 0 0 61 0 0 0 57.6667 0 59.5 59.5 59.5 61.5 61.5 61.3333 61.3333 0 0 0 0 61 61.1667 0 0 0 65.5 0 58.5 58.5 0 61.1667 0 52.8333 0 0 0 0 0 0 0 0 0 0 0 0 0 0 0 0 0 0 0 0 0 0 0 0 0 0 0 0 0 0 0 0 0 0 0 0 0 0 0 0 0 0 0 0 0 0 0 0 0 0 0 0 0 0 0 0 0 0 0 0 0 0 0 0
0 0 50 0 49.5 50 50.5 51.5 51.5 51.5 51 51.5 52 52.5 0 52 51.5 51.5 51.5 52 52.5 0 52 52.5 53 0 0 51 51.5 52 52.3333 53 53.5 0 0 0 52 52.5 53 53.5 0 0 0 0 0 0 0 0 0 0 0 0 0 0 0 0 0 0 0 0 0 0 0 0 0 0 0 0 0 0 0 0 0 0 0 0 0 0 0 0 0 0 0 0 37.4752 0 0 0 0 0 0 0 0 0 0 0 0 0 0 0 0 0 0 0 0 0 0 0 0 0 0 0 0 0 0 0 0 0 0 0 0 0 0 37.5379 0 0 0 0 0 0 0 0 0 0 0 0 0 0 0 0 0 0 0 0 0 0 0 0 0 0 0 0 0 0 0 10 7 7 8 0 0 0 12 7.91667 7.91667 0 6.25 0 0 6.5 0 8.5 8.5 0 9.7 7 8 8 8 9 9 0 9 10.5 6.5 7 0 7.5 7.5 7.5 0 6.5 9.5 6.66667 6.66667 0 0 0 0 7 0 7 8 8.5 8.5 8 9.16667 9.16667 0 10 10.5 0 0 11 11 11 11 11 0 13 12 16 16 17.5 16.2 11.1667 0 0 12 12.8333 0 10.8333 8.5 15 14.5 15.5 0 17 0 0 18 18 0 18.25 0 0 0 17.5 19.5 19.5 20 20.75 20.75 20.75 20.5 20.5 20 0 26 0 26 26.5 26.5 0 0 31 31.5 32 0 35 35 0 32.5 0 0 39.4 38.3333 0 38 38.5 39 39 39 0 0 38.5 37.75 37.75 37.75 34.6667 37 34.6667 35.6818 35.6818 35.6818 35.6818 35.6818 35.6818 34.1667 34.1667 35 0 0 34 33.5 33.5 33.3333 33.5 34 34 33 32.8 32.8 32 33 31.5 31.5 31.75 31.75 31.75 31.5 31.75 32 0 0 32.5 33 33 33 33 33 33 33 33.5 34.6667 0 0 33 34 32 33 0 34.5 35 34.6667 34.6667 34.5 0 35 34.5 34.5 34.5 35.5 35.5 35.5 36 0 0 36.3333 36 37 37.5 38 0 38 38 38 39 0 0 0 38 38.5 41 0 0 0 60 0 61 60.5 60.5 0 64 63 63 0 63 62.5 84 0 0 61.3333 61.3333 0 0 72.7 0 64.6429 43 67.1 60.6429 60.6429 58.25 60.6429 58.25 63.5 74.7778 74.7778 74.7778 63.6905 73.6 94.4091 81.8889 81.8889 79.6667 83.0556 93.8889 67.5254 67.5254 67.5254 67.5254 67.5254 67.2568 67.2568 67.5254 67.5254 62 54.5 52.5 80.1111 46 37.6667 37.6667 0 51.7857 50.6538 50.6538 50.6538 54.5 50.3333 50.3333 50.3333 48 48.5 48.5 48.5 0 0 47.5 47.5 47.5 47 47 48 46.5 47 0 0 44 45.8667 45.8667 0 0 46 44 46 48 0 46.5 47 47 43 46.5 47.25 45 47.25 0 0 47.5 47.5 0 48.5 0 0 48.5 0 47.5 0 49 49.5 0 0 0 0 38.3333 0 0 0 66.25 63.5 63.5 63.5 63.5 0 0 0 62.5 62 63.75 62 63.75 0 0 63 62.5 62.5 62 62 61.5 0 0 62 62 62 62 62 0 0 0 0 0 0 0 60 60.6667 0 60.5 60.5 61 0 59.3333 59.3333 0 0 59 0 0 0 0 0 59.5 60.5 60.5 60.5 0 0 62 62 0 61 61 0 0 0 65.5 61.1667 61.1667 58.5 58 58 58.5 61.1667 0 0 0 0 0 0 0 0 0 0 0 0 0 0 0 0 0 0 0 0 0 0 0 0 0 0 0 0 0 0 0 0 0 0 0 0 0 0 0 0 0 0 0 0 0 0 0 0 0 0 0 0 0 0 0 0 0 0 0 0 0 0 0 0 0 0 0
0 0 50 50.3333 0 50 50.5 51 51 51 0 50 0 0 0 0 0 0 51.3333 52 52.5 0 52 52.5 52.5 52.5 0 0 53 0 0 0 0 0 53.5 0 52 52.5 53 53.5 0 0 0 0 0 0 0 0 0 0 0 0 0 0 0 0 0 0 0 0 0 0 0 0 0 0 0 0 0 0 0 0 0 0 0 0 0 0 0 0 0 0 0 0 0 0 0 0 0 0 0 0 0 0 0 0 0 0 0 0 0 0 0 85.6947 85.6947 0 0 0 0 0 0 0 0 0 0 0 0 0 0 0 0 0 0 85.6947 85.6947 0 0 0 0 0 0 0 0 0 0 0 0 0 0 0 0 0 0 0 0 0 0 0 0 0 0 0 0 0 0 7.17857 7.17857 7.17857 7.17857 0 0 0 7.55556 7.91667 0 7.91667 7.91667 0 0 6.5 0 8.5 8.5 0 8.5 8.4 0 0 0 0 0 10.5 9 0 0 0 7.5 7.5 7 7 7.5 8 0 6.66667 0 0 0 7 7 7.5 0 0 8.5 9.33333 0 0 8.5 8.5 9 9 0 11 12 12.5 0 0 11 11 11 11.5 11.8 15.8667 16 7 16.2 11.1667 0 17 0 0 10.8333 11.75 0 14.5 0 14.5 0 17 0 18 18 0 18.25 18 18 19 19 0 18 0 0 20 20 20.75 0 20 20 0 0 0 26 26 0 0 0 32.5 34 32 0 0 0 0 31.5 0 33 39.4 38 39.4 0 0 34.8 37.3333 37.3333 0 43 0 43 0 0 0 34.5 34.6667 34.6667 34.6667 34.6667 34.6667 34.5 34.5 34.5 34.5 34.5 34.6667 34 34.6667 0 0 33 33.5 33.5 33.5 33 33 33 32 32 33.5 0 0 34.25 0 31 31 32 32 0 32.5 0 33 33 33 33 33 34 34 34.6667 34.6667 0 33 0 33 33.5 0 34.5 0 34.6667 0 0 0 0 0 35 33.5 34.5 35 35 0 36 36.3333 36.3333 36 36 36 38 0 0 38 37 39 39 39 39 38 39 0 40 40 60.5 0 0 0 61 59.8 90 62 63 0 0 0 0 76 80.3333 0 0 76.5 0 0 0 0 64.6429 72 0 58.25 62 60.6429 60.6429 60.6429 58.25 60.5 69.4 69.4 73.6 73.6 54.8 54.8 83.0556 83.0556 83.0556 67.2568 67.5254 67.5254 67.5254 67.5254 67.5254 67.2568 67.2568 67.5254 93.8889 57.3214 52.5 52.5 52.5 52.5 37.6667 37.6667 37.6667 37.6667 49.8333 50.6538 50.6538 50.6538 54.5 50.3333 51.7857 50.3333 51.7857 51.7857 48 48 49 48.6 48.6 47.0714 47.0714 0 47.0714 48 46.5 48 0 0 0 0 0 45.8667 0 0 46 0 0 46 0 45 0 0 0 0 45 0 47 47.5 0 0 0 0 47 46 48 48 48 49 49.5 0 0 0 50.3333 68 0 0 0 64.5 0 0 77 63 0 63.5 63.5 0 63 62 62.5 62 0 61.5 61.5 61.5 63 63 63 64 61.5 0 62 62 63.25 62 63.25 0 61 0 0 61.5 60.5 60.5 62 62 0 60 0 59.5 0 60.1 0 0 0 59.3333 60.1 0 0 0 0 60 60 0 0 0 62 63 64 0 0 0 0 54.8333 0 61.75 63.3333 65 0 0 64.3333 0 0 0 65 0 58 0 0 0 0 0 0 0 0 0 0 0 0 0 0 0 0 0 0 0 0 0 0 0 0 0 0 0 0 0 0 0 0 0 0 0 0 0 0 0 0 0 0 0 0 0 0 0 0 0 0 0 0 0 0 0 0 0 0 0 0 0 0 0
0 0 50 50.6667 0 50 50.3333 51 51 51 51 0 0 0 51.5 0 0 51.3333 0 50.6667 52.3333 52.5 52.5 52.5 52.5 52.5 52 52.5 0 0 52.6667 53 53.3333 53.5 53.3333 53 0 52.5 53 0 54 54.5 0 0 0 0 0 0 0 0 0 0 0 0 0 0 0 0 0 0 0 0 0 0 0 0 0 0 0 0 0 0 0 0 0 0 0 0 0 0 0 0 49.75 49.75 0 0 0 0 0 0 0 0 0 0 0 0 85.6947 85.6947 0 0 0 85.6947 85.6947 85.6947 0 0 0 0 0 0 0 0 0 0 0 0 0 85.6947 0 0 0 0 0 85.6947 85.6947 0 0 0 0 0 0 0 0 0 0 0 36.6316 37.4752 0 0 0 0 0 0 0 0 0 0 0 0 0 0 0 0 0 0 7.17857 7.17857 8.33333 8.33333 0 0 0 0 0 7.91667 0 0 0 6.5 7 7 0 0 8.4 8.4 8.5 8.5 8 8 8.5 9.33333 0 0 9.2 9.2 7.14286 7.14286 7.14286 0 0 0 0 0 0 0 0 0 0 0 9 8.5 9.33333 9.33333 9 8.5 9.5 10 10.75 9 10.3333 0 11 10.5 10.5 11 0 11 12 0 11.8 15.8667 15.8667 0 21.5 8.5 11.5 11.5 10.8333 13 11.75 11.75 0 16 17 15.5 17 16.5 17.5 0 18 18.6667 18.6667 18.5 0 19 0 0 0 0 19.5 19.5 19 0 18 18 21 25 25 0 0 0 0 30 0 27.6667 27.6667 0 0 35.6667 34.6667 32.5 0 0 0 39.4 39.4 38 39.1667 0 34.8 0 34.8 38 38.5 38.5 0 34.5 0 34.8 34.5 36.8667 34.6667 36 36 34.6667 34.75 36 36 36 35 34.5 34 34.6667 33.5 33.5 0 0 33 33.5 33 33 33 0 0 0 0 0 0 0 0 0 32 32 0 33 33 33 33 0 0 33 0 0 0 33 33 34 33 33 0 33.5 33.5 34.5 34.5 34 34.5 34.5 0 0 33.8333 33.8333 34.5 35 35 0 0 0 35.5 35.5 36 36.5 0 38 0 0 37.5 0 0 0 0 37.5 37.5 39 39 0 0 56.1667 61 0 61.75 0 0 0 56.5 64.8 0 57.6667 0 62.3333 63.5 63.5 63 83.8333 74.2 65.75 65.75 65.75 78.5 72 0 62 56.8333 56.8333 56.8333 61.7 58 66.24 72 69.4 66.24 56 53.8 54.8 0 93.8889 67.5254 67.5254 67.5254 67.5254 67.5254 67.5254 67.5254 67.2568 67.2568 67.5254 71 58.1 94 0 0 0 0 48 0 35.6667 50.6538 53.125 52.5 50.6538 51.7857 48.5 47.125 50.6667 56.8 50.6667 83 49 49 48.6 48.6 47.0714 47.0714 47.0714 47.0714 48 46.8 48 46.3333 46.3333 45.8333 45.8333 0 0 0 0 44 0 48 43.9 0 0 0 48 0 0 0 44.5 60.5 60.5 0 0 0 0 0 46 48 48 0 0 49.5 0 0 0 0 54 0 53.5 0 0 80.3333 66 80.3333 0 0 0 62.5 63 63 62.5 63 0 62 62.5 61.5 61.5 62 61.5 62.3333 62.3333 62.5 0 62 63 60 62 60 63 0 0 61.5 61 0 60.5 60.5 0 65 60 61 61 59.5 65.25 65.25 0 60.1 60.1 60.1 0 61 60.5 60.5 60 60 61 60 61 62.8333 62.8333 63.5 0 0 0 0 0 50.5 50.5 61.75 0 0 0 0 64 64.5 64.5 64.5 0 0 0 0 0 0 0 0 0 0 0 0 0 0 0 0 0 0 0 0 0 0 0 0 0 0 0 0 0 0 0 0 0 0 0 0 0 0 0 0 0 0 0 0 0 0 0 0 0 0 0 0 0 0 0 0 0 0 0 0 0 0 0 0 0
0 0 50 50.5 51 0 50.6667 0 0 0 0 0 0 51 51.5 52 51.3333 51.3333 0 50.5 51 51.6667 0 0 0 0 52 52.5 53 0 52.5 53 53.6667 53.3333 53.3333 53 0 52.3333 0 53.5 54.5 0 0 0 87 0 0 0 0 0 0 0 0 0 0 0 0 0 0 0 0 0 0 0 0 0 0 0 0 0 0 0 0 0 0 0 0 74.8 37.4752 0 37.4752 0 47 47 0 0 0 0 0 0 0 0 37.5379 0 0 0 0 0 0 0 66.6941 85.6947 0 0 0 0 0 0 0 0 0 0 0 0 0 0 0 0 85.6947 0 0 0 0 85.6947 85.6947 0 0 0 0 0 0 0 0 0 0 0 0 0 0 0 0 0 0 0 0 0 0 0 0 0 0 0 0 0 0 8.33333 0 7.17857 8.33333 8.33333 7.5 0 0 7.55556 7.55556 7.55556 0 0 0 7.55556 0 7 7 7 8.4 8.4 8 8 8 8.25 8.25 11.1667 11.1667 9.33333 9.2 9.2 9.2 7.14286 7.14286 7.14286 7.14286 8.5 8.5 0 9 9 0 0 9.5 9.5 9 10.3333 10 9.5 9.5 9.5 9.5 10 0 0 11.6667 11 11 10.5 10.5 11 0 11 11.5 12 13.5 11.8 11.8 11.8 12 19 13.5 13.5 12.5 12.5 11.75 13.25 11.75 14.7857 17 17 17 16 17.5 0 0 18.6667 18 18.5 0 20 20.7 20.7 19.8333 19.8333 22.5 0 19 0 18 18.5 18.5 0 25 25.5 26 0 0 27.5 27.2 27.6667 26.5 32 0 34.6667 33.5 0 34.6667 44 38 38 38 37.5 37.5 0 0 39.1667 42.5 36.0333 0 37 37.5714 36.8667 0 0 34.8 36.8667 36.8667 34.5 34.5 34.5 35.0833 35.0833 34 34.75 34.5 34.5 34 34 33.5 33.5 33.3333 33 33.5 0 33.5 33.5 33 33 32 32 32.5 0 32 32 32 32 32 32 0 33 33 33 32.9 32.9 33.5 0 33.5 33.5 33.5 33.5 34 34 33.5 33.5 0 0 33.3333 34.5 34.5 34 34 35 0 34.5 0 33.8333 0 0 0 35 36 36 37 35 35.5 37 0 38 39 37.3333 0 0 0 38.1 0 38.1 0 0 38.1 0 0 0 0 51.3182 51.8 51.8 0 63 55.7 0 0 0 0 63.5 63.5 0 0 62.5 62.5 63.5 63.5 74.2 64.5 62 0 60.6429 61.7 61.7 61.7 61.7 50.5 53.8 72 66.24 72 72 72 0 0 83.0556 93.8889 93.8889 67.5254 67.5254 67.5254 67.5254 67.5254 67.5254 67.2568 67.5254 67.5254 0 0 67.5254 60.1667 63.5556 0 0 0 56.6667 52.5 56.6 56.6 51.7857 51.7857 72.25 53.125 53.125 53.125 56.6667 56.8 48 41 48.6 46.6 48.5 48.5 51.5 46 0 47 47 47 46.3333 0 45.8333 0 46.6667 0 0 0 0 45.5 0 0 0 0 48 49 0 46.9 46.5 60.5 60.5 48 0 48.5 0 0 48.5 0 47.5 0 0 49.6667 60 0 0 0 0 54.3333 0 64.5 0 0 0 62.5 80.3333 0 63 63 0 92 0 63 0 62.75 62.75 0 0 62.5 62 62 62.3333 60.5 0 61.5 60.5 58.3333 0 58.3333 61.8 63 61.3333 60.5 61.5 61.5 60.3333 60.3333 0 0 61.1667 61 70 65.25 63 63 63 65 62.5 62.5 60 0 0 0 0 0 0 59.5 0 61 0 61 62 0 0 0 0 62.75 0 0 0 0 0 0 64 0 64.5 0 58 0 0 0 0 0 0 0 0 0 0 0 0 0 0 0 0 0 0 0 0 0 0 0 0 0 0 0 0 0 0 0 0 0 0 0 0 0 0 0 0 0 0 0 0 0 0 0 0 0 0 0 0 0 0 0 0 0 0 0 0 0 0 0 0
0 0 49 49 49.5 50 50.5 51 50.8333 50.8333 51 51.5 52 0 51.5 52 51.5 51.5 0 0 0 0 52 52.5 0 0 51 52.5 52.5 0 52.5 53 53.5 53.5 53.5 53 0 52.6667 53 53.3333 54 55.3333 87 87 0 0 0 0 0 0 0 0 0 0 0 0 0 0 0 0 0 0 0 0 0 0 0 0 0 0 0 0 0 37.4752 37.4752 0 26.7194 37.4752 33.6 33.6 13.6234 37.5379 0 0 0 0 0 0 0 0 39 85.6947 0 0 0 0 0 0 0 0 0 0 0 0 0 0 0 0 0 0 0 0 0 0 0 0 0 0 0 0 0 0 0 0 0 0 0 0 0 0 0 0 0 0 0 0 0 0 0 0 0 0 0 0 0 0 0 25.8 0 0 0 0 0 0 0 8.66667 69 8.33333 0 8.16667 0 0 0 0 7.55556 7.55556 0 0 7.55556 7.55556 0 0 8 7 7 8 7.5 8 8 8 10.5 8.97619 8.97619 8.97619 8.4 8.5 0 0 0 7 6 7 7.5 0 0 0 0 0 0 11 10.3333 8.8 8.66667 9.5 9.5 9 9 9 11.6667 0 0 0 0 10.5 10.5 11 10.3333 0 11.5 13.5 11.5 11.5 11.5 17.25 17.25 15.5 15.5 13 12.5 12 13.25 12.25 13.25 14.7857 17.5 17.5 0 0 0 16.5 18 18 18 18.5 20 20 19.4 0 0 19.4 0 0 19 0 19 0 23.5 25 25 25.5 26.3333 27 27 0 26.5 0 32.5 32.5 33 32 32 32.5 35 34.5 38 0 38 0 0 0 0 41.5 39.5 0 38 36 37.5714 0 0 35.25 0 36.8667 36.8667 36.8667 36.8667 36.8667 35.75 35.0833 35.75 35.0833 34 0 0 0 0 33 33.5 33.5 33.5 33.3333 0 0 33 33 33 33 33 34 0 34 32 0 32 32 32.5 33 34 33 33 32 33.5 33.5 33.5 34 34 0 33 0 0 0 0 33 33.5 34.5 34.5 34 0 34.5 34.5 35 34.5 34 34 35 35 34.6667 36 36 0 0 36.6667 35.5 0 37 38 39 39 38.1 38.8333 38.8333 36 38.1 0 0 0 0 0 64 0 63.4286 64.8333 61.6667 0 65 33.3333 0 0 0 64 63.5 63.5 63 63 63.5 62.5 62.5 0 0 0 0 63 0 60.5 70.3333 70.3333 63 58 72 66.24 66.24 66.24 66.24 66.24 66.24 0 83.0556 67.2568 67.5254 67.2568 65.875 65.875 67.5254 67.5254 67.5254 82 82 65.875 71 67.2568 67.2568 13.7 63.5556 53 57.5556 57.5556 57.5556 56.6667 72.25 72.25 56.6 72.25 72.25 56.6667 53.125 53.125 56.6667 0 50 44.6667 44.6667 49 48 51.5 0 0 0 0 0 0 47 47 46.5 47 47 44.5 44.5 62 62 45 45 43.9 45.5 0 45 47 47 0 46.9 46.9 46.9 48 47.5 48 49.75 48 0 0 53 54 0 0 0 0 0 0 0 0 0 0 0 63 0 0 0 0 63.5 0 0 62.5 63 0 0 0 0 0 0 62.75 61 61.5 61.5 0 61.5 62 60.75 60.75 0 0 61.5 0 61 58.3333 61.3333 61.3333 62 0 61.1667 0 61.1667 61 60.5 62.5 63 60.5 63 0 0 0 61 61 61 0 0 59 59 60.5 60.5 61 61 62.5 62.5 61 72 0 0 61.5 64.3333 0 0 64.3333 0 65.75 68 65.75 0 52 52 0 0 0 0 0 0 0 0 0 0 0 0 0 0 0 0 0 0 0 0 0 0 0 0 0 0 0 0 0 0 0 0 0 0 0 0 0 0 0 0 0 0 0 0 0 0 0 0 0 0 0 0 0 0 0 0 0 0 0 0 0 0 0 0
0 0 49 0 0 0 0 50 50 50 49.5 51 51 0 51.5 52 51.5 51.5 51.5 0 51 51.5 52 52.5 52.5 52.5 0 51.5 52 52 0 53 0 0 0 0 0 0 53 53.6667 54 54 54 87 0 0 53.5 0 0 0 0 0 0 0 0 0 0 0 0 0 0 0 0 0 0 0 0 0 0 0 0 0 0 0 0 0 0 32.6 0 0 0 0 0 37.5379 37.5379 0 0 0 0 0 0 85.6947 0 0 0 0 0 0 0 0 0 0 0 0 0 0 0 0 0 0 0 0 0 0 0 0 0 0 0 0 0 0 0 0 0 0 0 0 0 0 0 0 0 0 0 0 0 0 0 0 0 0 0 0 0 0 0 86.5 0 0 0 0 0 0 0 0 10 7.33333 0 7 10 6.5 0 12.5 0 0 0 0 0 0 0 6 0 8 8 8.75 7.5 0 0 0 0 0 8.97619 8.97619 8.4 10 0 0 8.5 6 6.66667 7 0 0 0 0 8 8 9 0 6.9 9.5 10 10 10.3333 8.66667 8.66667 9.25 9.25 0 8 7.5 7.5 7.5 0 7.5 7.5 7.75 10.3333 0 0 11.5 14.3 14.3 14.3 14.3 11.75 13.5 13.5 15 14 12.25 14.75 0 0 17 0 0 16 16.5 0 0 18 20 0 0 0 0 0 0 0 19.6667 0 19 22 0 24 25 24.5 24.5 27 0 0 0 26.5 0 31 32 33 33 0 34 34 0 34.5 0 0 0 34.2 0 0 0 35.25 37.6667 38 39.5 0 40.3 40.3 40.3 40.3 0 36.8667 36.0333 36.0333 37.5714 35.1 35.1 35.1 35.75 35.75 34 34 34 0 0 0 33.5 33.5 33.5 33.5 32.5 32.5 0 33 33 33 33.5 33 33.5 33.5 0 32 32 32.5 33 33 0 0 0 33 33 0 34 34 33.5 0 33.5 33.5 33 33 0 33.6667 0 34 0 0 35 33.3333 35 33.5 33.5 34 0 0 0 0 0 36 36 36.6667 36.6667 37 37 37 38 0 0 0 0 41.5 39.5 39.6667 0 33 0 39.8333 0 61 62.5 63 0 63 0 0 0 64 64 64 64 64 63 63 64 63.5 63.5 0 0 0 0 62 0 0 60.5 70.3333 70.3333 72 66.24 66.24 66.24 0 66.24 66.24 53.8 50 67.2568 67.5254 67.5254 67.2568 62 61.9211 61.9211 67.5254 67.2568 67.2568 82 67.5254 67.2568 0 58.6667 31.6667 71.8571 60.2255 74.8269 57.5556 0 48 63.5556 0 56.6667 56.6 53.125 48.8 56.6 46.5 48.8 48.8 48.8 44.6667 53.125 66.5 0 0 47.1667 47.1667 0 47.1667 0 0 47 0 0 0 46 47 0 83 43.9 43.9 43.9 0 0 45 0 0 46 46 0 46.9 46 47 49.8 47.5 0 0 47 48.5 48.5 49.5 0 0 0 0 0 0 52.6667 0 62 64 0 0 0 62.6667 0 0 63 62.6667 0 0 62.5 0 63.5 0 0 64.8333 0 62.75 59.5 58.2 61.5 61.5 0 0 63.0833 63.0833 60.75 0 60.75 0 61 0 63 62 61 63 0 0 60.3333 59.6667 60.5 0 60.75 0 60.75 0 0 0 0 0 0 60.5 0 0 0 0 0 62 62 62 0 0 65.75 68 68 68 0 0 0 67 0 65.75 0 0 0 0 0 0 0 0 0 0 0 0 0 0 0 0 0 0 0 0 0 0 0 0 0 0 0 0 0 0 0 0 0 0 0 0 0 0 0 0 0 0 0 0 0 0 0 0 0 0 0 0 0 0 0 0 0 0 0 0 0 0 0 0 0 0 0 0 0
0 0 0 0 49.5 50 50.5 0 0 0 49.5 50 50.5 51 51.5 0 0 0 0 0 51 51.5 52 52.5 52.5 52.5 52.5 0 52 52 0 0 0 0 53 53 53.5 54 0 53.5 54 54 54 54 0 0 0 0 0 0 0 0 0 0 0 0 0 0 0 0 0 0 0 0 0 0 0 0 0 0 0 0 0 0 0 0 0 0 0 0 0 0 0 0 0 0 0 0 0 0 0 0 0 0 0 0 0 0 0 0 0 0 0 0 0 0 0 0 0 0 0 0 0 0 0 0 0 85.6947 37.5379 37.5379 0 0 0 0 0 0 0 0 0 0 0 0 0 0 0 0 0 0 0 0 0 0 0 0 0 0 0 44 44 0 0 0 0 0 0 0 7.33333 7.33333 7 9.5 6.2 6.2 0 0 0 0 0 0 0 0 0 0 0 0 8 8.75 0 0 8 0 0 0 10.0476 0 0 8.4 8.4 0 8.97619 0 0 8 7.5 7.5 0 8 9.5 8.5 9 9.25 7.875 7.875 0 0 6.9 6.9 7.5 9.25 10 8 8 8 7.5 0 9 0 9.2 0 0 0 0 10.5 10 14.7857 14.7857 14.7857 13.25 12 12 13.5 12 0 14.3333 0 0 0 14.5 0 0 17.3333 0 0 19.5 19.5 0 17.8 17.8 17.8 0 0 18 19.6667 19.6667 19.5 22 22 24 0 0 0 25 27 26.5 26.5 26.5 0 29 0 33 0 33.5 0 36 36 35.5 35.5 35.5 37 0 36 0 36.5 36.5 36.5 35.25 37.3333 38.5 40.3 40.3 0 54.3636 0 35.25 0 36.0333 36.0333 35.3 35.3 0 35.1 0 34 34 34 34.3333 34.3333 33.5 33.5 34.1667 33.5 33.5 33 33 0 32 0 0 0 0 0 0 0 33.5 0 32.5 33 33 0 33 0 0 32.6667 0 34 34 34 33.5 0 33 33 33 0 33.5 0 34 34 34 34.5 34.5 34 0 0 0 35 35 35 36 0 35.5 36 37 37 37 37 37 0 37.5 38 38.3333 39.5 0 0 0 0 0 39.8333 39.8333 91.5 91.5 52.5 63 63 63.5 63.5 63.5 0 0 64 63.5 63.5 63 0 63 63 63 63 62.5 62.5 0 0 62.5 0 0 0 58 58 60.5 66.24 66.24 0 59.1538 0 53.8 63.4286 50 62 62 62 62 62 67.5254 65.875 67.5254 67.2568 67.2568 67.5254 67.2568 83.5 65.8571 60.1667 43.375 43.375 82 30.9487 66.8571 66.8571 48 48 63.5556 63.5556 72.25 57.5556 72.25 0 49.8333 49.8333 48.8 49 49 66.5 66.5 0 49 47 49 47 0 47 47 0 0 46 46 46.5 46 46 0 0 0 0 48.5 0 44.5 44.5 0 46.5 0 43.3333 56 46 47.5 0 48 0 0 48 0 0 0 0 50 0 49.5 49.5 0 0 53.8 79 65 0 64 63.6667 0 63.6667 0 62.6667 0 0 61.5 61.5 64.8333 64.8333 63.5 63.5 0 0 62.5 58 0 0 0 0 62 62 63.0833 0 63.0833 0 0 0 0 61 63 61 0 62 0 0 59.6667 59.6667 61 60.75 60.75 0 0 62.5 0 62 0 0 0 60.5 60.5 61 60.5 60 62 0 0 0 0 67 0 0 66 0 0 60.5 0 66 0 0 0 55 0 0 0 0 0 0 0 0 0 0 0 0 0 0 0 0 0 0 0 0 0 0 0 0 0 0 0 0 0 0 0 0 0 0 0 0 0 0 0 0 0 0 0 0 0 0 0 0 0 0 0 0 0 0 0 0 0 0 0 0 0 0 0 0 0 0
0 0 0 49 49.5 50 50.5 50.5 50.5 50.5 0 0 0 0 0 0 0 50 51.5 52 0 51.5 52 52.5 0 0 0 0 0 0 52.5 53 0 0 51.5 52 52 54 0 0 0 0 0 0 54 54 0 0 0 0 0 0 0 0 0 0 0 0 0 0 0 0 0 0 0 0 0 0 0 0 0 0 0 0 0 0 0 0 0 0 0 0 0 0 0 0 0 0 0 0 0 0 0 0 0 0 0 0 0 0 0 0 87.4346 0 0 0 0 0 0 0 0 0 0 0 0 0 0 85.6947 85.6947 0 0 0 0 0 0 0 0 0 0 0 0 0 0 0 36.6316 0 0 0 0 0 0 0 0 0 0 0 0 20.6 20.6 0 0 0 0 0 0 0 0 68.5 0 0 0 0 0 0 0 0 6.2 6.2 6.5 0 0 0 0 0 7 0 0 7.875 8 8 8.41667 8.41667 10.0476 0 10.0476 0 0 0 0 8.4 0 8 7 6.5 6.5 9.66667 8.66667 0 0 11.8333 7.875 7.875 9.33333 13.5 6.9 6.9 6.66667 10 9 8 8 8 0 6.83333 0 0 0 0 0 9 10.3333 10.3333 10 14.5 14.7857 14.7857 12.25 12.25 14 0 11.3 11.3 0 10.5 10.3333 0 15.5 15.5 0 19 0 0 15.6667 15.6667 17.8 17.8 0 17.8 17.8 0 19.1667 19.1667 18 18 0 23.5 0 0 0 22.5 25 0 0 0 29 0 29 0 0 34 32 33 0 0 0 38 38 38 37 0 38 38 38 30.5 37.3333 37.3333 36.1667 40.3 36.5 58.25 35.2857 0 40.3 35.6667 0 0 36.6667 36.6667 30.5 36.6667 34.6667 0 34.5 34.5 34.5 34.5 0 34.1667 29.5 33 29.5 33 32.5 0 33.5 33.6667 33.6667 33.6667 33 33.25 33.25 0 0 32 32.5 0 0 32 32 0 0 0 33.5 0 33.5 0 0 0 33 0 0 0 34 34 34 33.5 33.5 34.5 34 34 0 34.5 35 0 35.5 0 36 36 37 36 37.5 37.5 0 0 0 37.5 38 0 38 0 35.25 0 0 0 0 0 61 61 61 61.5 62.5 0 62.3333 64 64 0 64 0 0 0 63.5 64 0 63.3333 62.5 62.5 0 0 0 0 0 61.5 62.5 63 65.6667 0 60 47.1905 73.5714 61 59.1538 59.1538 59.1538 62.25 65.3571 62.25 61.9211 61.9211 58.5714 62 61.9211 67.2568 67.5254 65.875 67.2568 65.875 83.0556 51.4167 60.1667 0 51.8523 65.875 0 0 66.8571 66.8571 66.8571 65.6 65.6 63.5556 57.5556 66.8571 60.1667 0 48 53 0 0 69.4 47 0 72.25 47.5 47.5 47 76 76 46 0 0 0 45.6667 45.6667 55.1667 55.1667 37 57.5 0 43.5 44.5 0 44.3333 44.3333 46.4167 46.4167 46.4167 46 46 46 45.5 45.5 0 48 0 0 0 48 0 49.5 50 51 51.3333 51.3333 0 0 0 0 0 52.5 0 67.5 0 0 0 65 65 63.6667 0 63 63 64.5 64.5 63 63 63 0 0 0 0 62.5 59 0 65 0 0 0 0 62 62 61 62 61 61 60.6667 0 61 0 58 0 0 0 0 0 0 63.5 0 63 0 0 0 0 0 0 0 0 0 0 0 62 62 0 0 0 0 61.5 61 60.5 63.3333 0 61.5 0 0 0 0 0 63 0 62 0 0 0 0 0 0 0 0 0 0 0 0 0 0 0 0 0 0 0 0 0 0 0 0 0 0 0 0 0 0 0 0 0 0 0 0 0 0 0 0 0 0 0 0 0 0 0 0 0 0 0 0 0 0 0 0 0 0 0 0 0 0
0 0 50.5 0 50 50 50.3333 0 0 0 51 0 50.5 51 51.5 0 0 50 50 50.3333 51 51.5 0 0 0 0 52.5 0 52 52 52.5 53 53 53 0 52 52.5 53 0 53.1667 53.1667 0 0 54 82.6 51.25 0 0 0 0 0 0 0 0 0 0 0 0 0 0 0 0 0 0 0 0 0 0 37.4752 0 0 0 0 0 0 0 0 0 0 71.6667 0 0 0 0 79.8333 0 0 0 0 0 0 13.6234 0 0 0 0 0 0 0 0 0 0 0 0 0 0 0 0 0 0 0 0 0 0 0 0 0 85.6947 85.6947 0 0 0 0 0 0 0 0 0 0 0 0 0 0 0 0 0 0 0 0 0 0 0 0 0 0 0 0 49.6667 49.6667 15.6667 0 0 0 0 0 0 0 8 9.5 0 0 0 0 0 6.2 6.2 6.2 6.2 6.2 6.2 0 0 0 0 0 7.875 7.875 7.875 9 0 0 0 8.41667 0 0 0 0 0 0 0 0 6.4 7 7.625 7.625 9.66667 0 8 11.8333 11.8333 7.875 7.875 7.875 9.25 13.5 8 8 7.83333 7.83333 0 0 0 6.83333 6.83333 8.5 8.5 12 0 10.3333 0 10.9167 10 10 10 0 14.3333 14.3333 14.75 14.75 0 0 0 10.5 0 0 0 16 16 0 0 0 0 15.6667 0 0 0 18 16.6667 16.6667 18 19.1667 20 0 22.5 0 25 23.3333 0 0 23 23.3333 0 0 0 0 28 0 0 0 36 33.5 0 0 0 0 37.8333 37.8333 0 37 0 0 0 40 39 0 38.5 36.1667 36.1667 27.8333 0 0 54.3636 37 35.6667 40.3 40.3 36.1667 0 0 0 34.6667 34.6667 33 34 33 0 35 34.6667 34.6667 32 0 33.5 33 0 0 30.75 31.5 0 0 31.5 30.75 30.75 0 0 0 0 31 31.6667 33 0 34 33 34 34 34 34 0 33.5 33.5 33 34 34 34 34 33.8333 33.8333 0 34 34.5 0 34.5 35 0 0 0 34 0 0 36 0 36.5 37.5 37.5 38 38 38 38 0 0 0 0 41 41 41 36 0 79 0 60 61.5 62 62 0 0 0 64 64 65 0 0 0 64 64 63.3333 0 63.3333 62.5 62.5 0 71.5 62 0 0 63 64 73.5714 72 72 60.6 60.6 79 60.6 73.3333 65.3571 62.25 65.3571 65.3571 58.5714 58.5714 58.5714 58.5714 62 67.5254 67.2568 67.2568 65.8571 67.5254 0 0 51.3333 64.3571 0 49.5 0 0 63.5 0 0 48 60.1667 0 53.0476 53 57.5556 57.5556 53 0 0 72.5 0 0 57.5556 46 47 46.6667 46.6667 46.5 46.5 47 0 0 45.6667 45.6667 59.5 0 46.3333 57.5 0 57.5 0 0 0 0 45 0 0 0 0 0 0 46 48 0 49 49 48 48 48 49.5 0 0 0 51.3333 52.3333 0 54.5 0 0 63 66 0 0 65 0 0 64 0 0 0 63 0 0 64 64 64 61.3333 61.3333 64.5 64.5 61.3333 60 63 0 61 62.5 0 0 62.5 0 61 0 0 0 0 0 0 60.6667 60.6667 0 64 61.5 0 0 63.5 0 62.5 62.5 61.5 61.5 62.1667 60.5 0 0 0 0 62 60.5 62 62.6667 62.6667 0 0 0 0 62 62 63.3333 63.3333 0 65.3333 0 0 0 0 45 0 0 60.5 60.5 0 0 0 0 0 0 0 0 0 0 0 0 0 0 0 0 0 0 0 0 0 0 0 0 0 0 0 0 0 0 0 0 0 0 0 0 0 0 0 0 0 0 0 0 0 0 0 0 0 0 0 0 0 0 0 0 0 0 0 0 0
0 0 49 51 0 50 49.3333 50.5 50.5 50.5 51 0 50.5 51 51.5 51.5 51.5 0 50 50.6667 51 51.5 0 0 0 50.5 51 51.5 51.5 51.5 52.5 53 53 53 0 0 0 0 53 53.1667 0 53.5 53.5 52.5 53.5 53.75 54.3333 0 0 0 0 0 0 0 0 0 0 0 0 0 0 0 0 0 0 0 0 0 0 0 0 0 0 0 0 0 0 0 0 0 0 0 0 0 0 0 14.3429 33.6 0 0 0 13.6234 13.6234 13.6234 0 0 0 0 0 0 0 0 0 0 0 0 0 0 0 0 0 0 0 0 0 0 0 0 0 0 0 0 79.8333 0 0 0 0 0 0 0 0 0 0 0 0 0 0 0 0 0 0 0 0 0 0 21.5 0 0 0 0 0 0 0 14.8333 0 0 0 0 0 0 9 0 0 0 0 0 0 0 0 0 7.5 6 6 6 6 6.5 0 0 0 0 0 0 8.41667 0 8 8 0 0 0 0 6.5 6.5 0 8 8 8 8 0 8.92857 6 6 6 8.66667 8.66667 7.875 7.5 0 7 9.33333 9.33333 7 7 7 7 0 9.5 0 10.9167 10.9167 0 0 0 27.3333 0 0 10.5 10.5 0 0 13.6667 13.6667 11.25 0 0 0 17.5 0 0 16 0 16 15.1667 15.1667 15.1667 15.1667 15.5 16 16.6667 0 0 0 19 0 0 23 24 22.3333 0 0 27 23.3333 29.5 30 0 0 0 30.5 34 0 36 36 36.5 36.5 36.5 36.5 37 38 0 0 39.5 40 39 0 0 0 39.5 39.5 39.5 24.5 0 54.3636 54.3636 36.1667 36.1667 54.3636 36.1667 36.1667 36.1667 21.5 0 0 0 34.3333 0 0 34 0 0 0 0 34.6667 0 0 0 33 33 30.9286 30.9286 33 30.75 30.9286 30.9286 30.9286 31.3333 31.5 0 31.5 33.3333 33 0 33.5 33.5 33.5 33.5 33 0 33 0 33 33 34 34 33.5 33.5 34.5 34.5 34 0 0 34 34.5 0 35 0 36 35 35.5 35.5 35.5 36 0 37.5 37 38 0 0 0 0 38 0 40.75 35.25 0 0 0 35.25 0 70.25 0 0 0 63.5 0 63.5 64.5 0 0 62 0 0 64 0 63 63.5 63.5 63.5 0 62 0 62 0 0 0 0 0 73.5714 73.5714 0 59.1538 0 79 60.6 60.6 65.3571 65.3571 58.5714 58.5714 58.5714 58.5714 58.5714 58.5714 62 66.0714 50 50 62 53 0 56.25 58.25 62.6667 0 74.7778 74.7778 0 0 57 0 47 46.5 46.5 43.75 44.6667 45.5 65.6 47 0 72.5 0 69.4 0 53 82 0 47 47 0 46.6667 46 46 46 45 45.5 45.5 45.5 45.5 0 45 46.3333 46 0 46 0 0 0 0 43 0 0 45 97 47 48 0 48.5 48.5 48.5 49 49.5 0 50 0 0 53 0 0 0 65 0 0 0 66 0 0 0 0 0 63.5 0 0 63.5 63.5 64 64 61.3333 64 61.3333 61.3333 62 62 62 0 64.75 0 0 0 63 63.8333 63.8333 63 64 61 61 0 62.3333 0 60 0 61 0 62 62 63 0 0 63 62.1667 62.1667 63 0 0 62.3333 0 0 0 0 60.5 0 62.6667 0 0 0 62.5 62.5 62.5 59.6667 59.6667 64.5 65.3333 65.3333 0 0 64.6667 0 64.6667 0 0 49.5 0 58.5 52 0 0 0 0 0 0 0 0 0 0 0 0 0 0 0 0 0 0 0 0 0 0 0 0 0 0 0 0 0 0 0 0 0 0 0 0 0 0 0 0 0 0 0 0 0 0 0 0 0 0 0 0 0 0 0 0 0 0 0
0 0 49 49.5 50 49.3333 49.3333 49.1667 49.1667 49 49.5 50 0 51 51.5 51.5 51.5 0 50.5 0 0 0 52 0 51.8333 0 51 51.5 52 52 52.5 53 53 53 0 52 52.3333 53 53 0 0 54 54 0 0 0 0 0 0 0 0 0 0 0 0 0 0 0 0 0 0 0 0 0 0 0 0 0 0 0 0 0 0 0 0 0 0 0 0 0 0 0 0 0 0 0 14.3429 0 0 0 0 0 37.5379 37.5379 85.6947 37.5379 0 0 0 0 0 0 0 0 0 0 0 0 0 0 0 0 0 0 0 0 0 0 0 0 0 79.8333 0 0 0 0 0 0 0 0 0 0 0 0 0 0 0 0 0 0 0 0 0 0 0 0 0 0 0 0 0 0 0 68.5 0 0 0 0 0 0 9 9 9 0 0 0 0 0 0 6.2 6.33333 6.33333 6.33333 6.5 6.5 0 0 0 0 0 0 9.4 7.5 0 0 0 10 10 8.5 8 0 0 7.33333 8.25 8.25 8 8.92857 0 8.92857 8.92857 8.92857 8.92857 0 6 8 7.5 7 0 0 6.5 7 7.5 0 9 0 0 0 10 10.3333 0 0 27.3333 27.3333 18.1667 10.5 10.5 13.6667 0 14.2 14.2 14.2 14.2 20.6 0 15.5 0 0 0 16 0 16.5 16.5 0 15.1667 15.1667 15.3333 0 0 18.5 0 0 19 0 0 23.5 24 22.3333 24.5 0 0 0 0 30 29 30 30.75 0 34 33.5 34 0 0 35.5 35.5 0 0 0 0 0 0 0 0 0 0 0 38.5 39 33.9 31 0 30.3333 0 30.3333 30.3333 54.3636 54.3636 54.3636 48.6 36.5 0 0 0 0 0 33 33.75 33.75 0 0 33 0 32.5 32.5 33.5 33.5 33.5 30.9286 31 32.5 32.5 33 31 31.3333 31.3333 31.5 0 0 0 0 0 34 34 34 34 34 0 33 0 0 33.5 34 0 0 34 34.3333 0 34 34 0 34 34.5 35 36 36 36 36 35.5 0 0 0 37 0 0 0 38 38 38 0 38 39 36.5 0 0 0 0 35.25 0 70.25 70.5 0 0 0 0 0 0 65 62.3333 64.5 64 58 63 63 63 64 63.1667 63.1667 81 0 61.5 61.5 0 62 62.5 62.5 62 73.5714 59.1538 63.5 59.1538 59.1538 59.1538 59.1538 59.1538 62 0 58.5714 58.5714 58.5714 58.5714 58.5714 58.5714 70 66.0714 66.0714 66.0714 66.0714 50 69.2 0 86.3333 0 58 53.8 66.24 66.24 66.24 63.4286 0 47.3333 75.75 74.7778 74.7778 63.5 63.5 0 48.5 72.1667 72.1667 29.5 0 24.7917 29.5714 29.5714 0 26 34.75 0 0 0 0 0 44.5 45 46 46 46 45.5 46.3333 45.8333 45.8333 46.1667 46.1667 0 0 0 47 0 0 0 44 0 0 0 49.5 49.5 0 0 49 50 0 51 50.5 50.5 54 0 0 50.5 65.5 65.5 65.5 65.5 65 66.5 0 67 64 0 0 64.5 64.5 64.5 64.5 0 0 64.5 0 0 0 0 63.5 63.5 0 64.75 64.75 64.75 63.8333 63 63 63.8333 64.3333 64.3333 0 0 0 0 0 62.3333 62.3333 62.5 62.5 62 0 0 0 62 0 0 0 62 63 62.5 64 62.5 62.3333 62.3333 61.1667 0 0 0 0 67.5 59.6667 62.5 62.5 59.6667 0 0 61.75 61.75 57.5 57.5 64.6667 0 0 0 60 0 0 0 60 57.3333 0 0 0 0 0 0 0 0 0 0 0 0 0 0 0 0 0 0 0 0 0 0 0 0 0 0 0 0 0 0 0 0 0 0 0 0 0 0 0 0 0 0 0 0 0 0 0 0 0 0 0 0 0 0 0 0 0 0 0
0 0 0 0 0 50 0 49.1667 48.8333 49 49.5 50 50.5 51 51.5 0 0 0 0 0 51 51.5 52 51.8333 51.8333 52 0 51.3333 52 52 0 53 53 53 53 0 52.6667 53 53 53.5 53.5 53.5 52.6667 52.6667 53 54.3333 54.3333 0 0 0 0 0 0 0 0 0 0 0 0 0 0 0 0 0 0 0 0 0 0 0 0 0 0 0 0 0 0 37.4752 13.6234 14.3429 0 0 0 0 0 0 0 0 0 0 0 0 37.5379 37.5379 85.6947 49.1165 78.3938 0 0 0 0 0 0 0 0 0 0 0 0 0 0 0 0 0 0 0 0 0 0 0 71.9286 79.8333 0 0 0 0 0 0 0 0 37.5379 37.5379 85.6947 85.6947 0 0 0 0 0 0 0 0 0 0 0 0 0 0 0 0 0 0 0 9.5 0 0 11.2 11.2 0 0 9 8.2 0 9 9 9 9 6.5 6.5 7.66667 7.66667 0 0 0 0 7 10 7.5 0 8.5 0 8 8 9.5 9.5 0 0 9.83333 9.83333 0 8 0 7.33333 7 7.33333 8.25 0 0 8.92857 6.21429 6.21429 7 7 0 0 0 0 7.5 7.5 8.5 7.5 0 7.5 9 9 11 11.5 10.3333 10.3333 10 10 10.25 10.3333 0 0 17 0 14.2 13 0 14.2 11 20.6 14 16 16.5 16.5 0 0 15.5 15.5 16 0 0 17.5 0 17.5 19 0 21 0 22.6667 22.3333 23 0 0 24.5 24.5 26 28 22.3333 22.3333 26 0 30 0 32 34 34 34 39 39 34 34 34.25 36 0 37 42 42 0 0 0 0 0 0 0 41 42.2 33 82 54.3636 30.3333 33.9 30.3333 30.3333 33.9 40.5833 0 0 0 0 33 34 0 33.5 33.5 0 0 32.6 0 0 0 0 34 0 0 0 30.9286 0 31.8333 31.8333 31.5 31.5 33 34 34 34 34 0 32.5 32.5 0 0 0 0 0 0 0 33.5 0 34 33.5 33.5 0 0 34 34 34 34 0 35 0 0 36 0 0 0 36 36.5 0 37 37 38 38.5 38.5 0 0 0 38.25 40.5 42.6667 43 0 38 36.5 0 69.5 63.5 62 0 0 62.5 62.5 63 0 63 62 62 0 63 63.6667 64 0 0 64 78 62 62 62.5 62 62 63 63 62 61 65 65 0 60.6 59.1538 62 62 62.5 0 62 58.5714 70 70 70 70 70 0 66.0714 0 66.0714 69.2 66.0714 69.2 62.6667 50 50 66.24 66.24 66.24 66.24 47.1905 53.6667 58.5714 0 53.8 0 0 47.5 47.5 80.5 47.5 47.5 96.6667 86.5 29 34.75 34.75 29.5714 34.75 0 0 0 47 0 0 0 0 0 0 0 0 45.8333 45.8333 45.8333 45.5 45.8333 45.5 47.5 45 0 0 47 0 0 0 0 47 50 49.8 49.8 49.8 0 50 53 51.5 0 0 53 0 0 0 55.5 0 0 0 0 63.5 0 65 63.5 0 0 0 0 0 0 0 0 0 63.5 0 64 0 0 0 62.75 0 67.2 64.3333 63 63 63.8333 63.8333 63.5 64.3333 64 62.5 63 63 0 0 62 62 62 62 62.6667 62.6667 60 63 62 63 63 64 64 0 0 0 0 0 61.1667 61.1667 63 0 0 67.5 59.6667 72 59.6667 60 0 60.5 58.6667 58.6667 60.5 60 0 66.0909 63.4167 0 63.4167 0 61.5 61.5 57.3333 57.3333 0 0 0 0 0 0 0 0 0 0 0 0 0 0 0 0 0 0 0 0 0 0 0 0 0 0 0 0 0 0 0 0 0 0 0 0 0 0 0 0 0 0 0 0 0 0 0 0 0 0 0 0 0 0 0 0 0 0 0
0 0 49 49.5 50 50 0 48.8333 48.8333 0 49.5 50 50.5 0 0 0 0 50 50.5 51 51 51.5 52 52 52 52 0 51.6667 52 52 52.5 0 0 51 51.5 52 52.5 0 53 53.5 53.5 53.5 52 52.6667 53 0 53.75 0 0 0 0 0 0 0 0 0 0 0 0 0 0 0 0 0 0 0 0 0 0 0 0 0 0 0 0 0 0 0 37.5379 37.5379 0 0 0 0 0 0 0 0 0 0 0 37.5379 0 0 37.5379 38.8047 49.1165 85.6947 0 0 0 0 0 0 0 0 0 0 0 0 0 0 0 0 0 0 0 0 0 0 71.9286 0 0 0 0 0 0 0 0 0 0 0 0 0 0 0 0 0 0 0 0 0 0 0 0 0 0 0 0 43.5 0 0 0 9.5 7.5 10.5 11.2 11.2 11.2 0 0 8.2 7.27273 7.27273 9 8.2 8.2 6.5 6.5 0 7.66667 7.66667 0 0 8 7 7.5 7.5 0 0 0 0 0 0 0 0 9.33333 9.33333 9.33333 0 0 9.83333 7 7 7 6.83333 0 8.33333 0 0 0 0 0 0 7 7.66667 7 7 9.25 7 8.5 0 7.5 9 9 11 10.2 10.2 11.3333 11.5 11.3333 11.3333 0 10 10.5 0 13.5 14.5 14.5 13 0 12.1 12.1 0 0 0 14.2 14.2 14.2 14.2 0 15 0 17.1429 0 17.5 17.25 0 0 20 22.6667 22.3333 22.3333 23 23.5 23.5 24.5 24.5 29 29 22.3333 0 0 0 0 31.5 0 0 34 0 35 0 0 34.25 34.25 36 37 39.5 42 40 0 38 0 39 39.5 40.5 0 41 0 34.75 48.6 0 30.3333 35.2857 0 37.3333 23 27.8333 0 0 0 0 33 34 0 34.5 34.5 35 35 0 33 33 33 33.5 34 31.6667 31.6667 33.1667 0 35 0 0 0 28 0 0 0 33 0 0 33 34 34 0 34 34 33 33.5 33.5 33 33.5 34 34 34 34 34 0 0 0 0 0 0 0 0 36 0 0 0 0 36.5 37 37 37 38 0 0 38 38 38.75 38.25 0 0 43 0 0 0 0 83 63 63 0 0 63.5 62 63 60.6667 60.5 60.5 0 0 55.3333 60.3333 60.3333 63 63 63 0 0 62.5 0 62.5 62.5 63.5 0 0 64 0 0 0 0 73.3333 0 63.6667 0 62.5 62 58.5714 88 70 70 0 0 0 0 66.0714 66.0714 66.0714 63.25 72.6667 0 0 72 72 54.8 56 66.24 63.4286 50 40 0 0 49 0 0 44.25 48 48 0 33.6667 0 0 47.5 47.5 47.5 48.5 48.5 0 47 47 47 47 0 0 47 47 47 47 0 0 0 44.5 44.5 45.5 47.5 45 0 45.5 45.5 46.5 0 0 47.5 47.5 49.8 0 0 50 0 0 0 0 0 0 0 0 0 65 65 65 65 77 65 65.5 0 0 0 0 65 65 65 65 64.5 0 0 0 0 0 0 65.3333 0 0 0 0 0 61.5 63 64.5 64.5 62 0 0 0 62 62.5 62 62 63 62 62.6667 62 63 0 0 0 0 0 60.5 63.5 63.5 63 63 0 0 63.5 63.5 63.5 64 0 64.8929 73.2143 73.2143 62.5 0 0 0 62.9 0 58.6667 0 59.6667 60 70.3036 70.3036 66.0909 63.4167 0 63.4167 0 0 0 0 0 0 0 0 0 0 0 0 0 0 0 0 0 0 0 0 0 0 0 0 0 0 0 0 0 0 0 0 0 0 0 0 0 0 0 0 0 0 0 0 0 0 0 0 0 0 0 0 0 0 0 0 0 0 0 0 0 0 0
0 0 49 49.5 50 50 50.5 50.5 50.5 0 0 0 0 51 0 0 49.5 50 50.3333 51 51 0 50.5 52 52 52 0 51.5 52 52 52.5 52.5 52.5 0 51.5 52 52.5 53 53 0 52 52 52 0 0 53 53.5 52.5 53 0 0 0 0 0 0 0 0 0 0 0 0 0 0 0 0 0 0 0 0 0 0 0 0 0 0 0 0 0 0 0 0 0 0 0 0 0 0 0 0 0 0 0 0 0 0 38.8047 38.8047 37.5379 0 0 0 0 0 0 0 0 0 0 0 0 0 0 0 0 0 0 0 0 0 85.6947 37.5379 37.5379 0 0 0 0 0 0 0 0 0 0 0 0 0 0 0 0 0 0 0 0 0 0 0 0 0 0 0 86.5 68 0 0 7.5 8.33333 0 10.5 10.5 10.5 0 0 8.2 7.27273 7.27273 0 0 7 7 7 7 0 0 0 0 0 6 7.5 7.5 0 8.5 0 7.5 7.5 7.5 9 7.5 0 0 10 0 0 6.25 6.25 6.25 6.83333 6.83333 0 8.33333 7.75 0 7.25 10.5 10.5 8.33333 0 7.66667 7.66667 7 8 9.25 7 7 9.25 8 0 11 10.2 10.2 10.2 10.5 11.5 11.5 0 19.5 20.6 20.6 13.5 13.7714 13.5 13.5 13.7714 10.4 13.3333 0 15.3333 15.3333 0 16.8 16.8 14.2 13.5 13.5 0 16 0 18.5 18.5 0 18.5 0 22.6667 0 22.5 0 22 22.75 0 0 0 29 22.3333 0 24.5 0 0 30 0 31 34.8 36 35.3333 35.3333 0 0 34.25 34.5 36.6667 39.5 0 0 0 0 0 39 39.5 0 0 0 0 0 33 0 0 0 57.8571 24.5 24.5 24.5 0 0 0 0 0 34 34.5 35 0 0 34 35 33.5 33.5 33 34.6667 34.6667 34 33.5 33.5 33 33 33.1667 33.1667 0 0 33 33 33 33 0 32 33.5 34 34 0 34 34 34 0 0 33 33.5 34 34 34 34 0 34 34 0 0 35 35 0 35.5 36 0 35.5 0 36 36.5 0 37 0 37 0 38 38 38 0 0 0 0 43 0 0 0 0 0 80.1111 0 0 63 0 0 60.6667 0 61 62 62 0 63 63.5 0 63 62.5 62.5 63.5 0 63 63 62.5 62.5 62 0 62.5 62.5 62 0 62 62 73.3333 63.6667 63.6667 63 65.3571 58.5714 63 0 49.3333 49.3333 0 0 0 0 66.0714 66.0714 79.9545 79.9545 0 68 0 60.5 0 61.75 50.75 63.4286 0 50 54.7955 43 0 0 0 0 51.5 48 0 36.625 33.6667 47 33.4 47.5 47.5 47.5 0 0 0 0 47.5 48.3333 48.3333 0 45.6667 0 0 0 0 0 0 0 47.3333 47 47 0 0 47.5 47.5 0 0 0 46 48 0 49.8 0 0 49.5 0 0 51.5 0 55.5 0 0 0 0 66 0 0 0 0 69.25 69.25 69.25 69 0 74.25 74.25 74.25 66.3333 64.5 64 64 64.5 0 67.7 67.7 66.0667 66.0667 64.5 0 66.2 63.5429 63.5429 0 62 61.5 65 61.5 0 69.5 80 61.5 61.5 0 0 0 63 63 0 0 0 61.5 64.3333 59.5 0 65.75 65.75 68 0 60.5 0 0 63.5 63.5 0 0 62.9 0 0 62.9 0 0 0 0 65.4 0 0 0 51 62.5 0 0 66.0909 66.0909 0 0 62 0 0 0 0 0 0 0 0 0 0 0 0 0 0 0 0 0 0 0 0 0 0 0 0 0 0 0 0 0 0 0 0 0 0 0 0 0 0 0 0 0 0 0 0 0 0 0 0 0 0 0 0 0 0 0 0 0 0 0 0 0 0
0 0 0 49 49 50 49.8333 49.8333 50 0 0 50 50.5 51 0 0 49.5 50 50.6667 51 51 0 0 0 0 0 0 0 52 52 52.5 51 51 51.8333 51.8333 52 52.5 53 53 53.5 0 0 0 0 53 53 54 0 54 0 0 0 0 0 0 0 0 0 0 0 0 0 0 0 0 0 0 0 0 0 0 0 0 0 0 0 0 0 0 0 0 0 0 0 0 0 0 0 0 0 0 0 0 0 0 0 0 0 0 0 0 0 0 0 0 0 0 85.6947 37.5379 0 0 0 0 0 0 0 0 0 0 0 42.2667 37.5379 37.5379 37.5379 37.5379 0 0 0 0 0 0 0 74.4545 0 0 0 0 0 0 0 0 0 0 0 0 0 0 0 0 0 10 0 0 8.33333 8.33333 0 10.2857 10.5 10.5 10.5 10.5 7.27273 7.27273 7.27273 0 7.27273 7 7 7 7 7 0 0 0 0 7.5 0 0 0 8.5 0 7.5 7.5 7.5 7 7.5 8 0 0 0 0 6.25 0 0 7.5 8 8.33333 0 0 7.75 7.25 7.25 7.25 7.66667 7.66667 8.33333 8.33333 7.66667 6.83333 8.5 8.5 6.83333 9.25 8.66667 9 0 0 9.5 10 0 9.5 0 19.5 11 20.6 14 0 10.4 13.7714 13.7714 13.7714 0 0 0 15.3333 16 0 0 16.8 16.8 0 0 0 0 0 17.6667 17.6667 17.6667 0 18.5 20 19.5 22.5 22 23.6667 24 23.3333 0 0 22.5 25 25 25 0 0 0 0 0 34.8 0 0 35.3333 0 38 35 34.5 36.6667 36.6667 0 0 0 0 0 0 0 0 40.9 0 0 0 0 0 0 56 0 49 23 24.5 38.375 35 0 0 33 34 34.5 0 0 0 34 34 33 33 33 34.6667 33 32 33.5 33.5 33 0 0 31.6667 28 0 33 33 33 33 0 33 0 0 0 34 0 0 0 0 0 0 0 0 0 0 0 0 0 34 34 34.5 0 34.5 34.5 36 35.5 35.5 0 0 36.6667 37 37 37 37 37 0 0 0 0 0 40 0 38.5 43 0 0 66.5 0 0 72.25 67 71.5 63 63 63 63.5 61 63 0 0 0 0 63.5 63.5 0 63 63.5 63.5 0 64 64 63.5 63.5 61.5 61.5 61.5 62.5 0 0 62 62 62 63 0 62 62 62 62 62 63 75.5 73 74.5 0 0 0 79.9545 72.6667 79.9545 82 80.3333 63 0 0 72 56 0 63.4286 0 0 48 89.1667 89.1667 48 75.5 48 76 76 36.625 0 47 25.8846 36 36 47 0 0 0 46.5 46.5 0 46.5 46.5 46.5 48.3333 0 46.5 47 47.5 0 47.3333 0 47 0 0 0 46 0 0 51 49 45 0 47 49.75 0 49.5 49.5 0 50 52 0 53 0 0 0 59 72.5 72.5 72.5 65.5 65.5 69.75 0 0 0 66 65.5 74.25 69 0 0 69 0 66 64.5 0 0 64.5 61.6667 68.125 68.125 0 63.5429 63.5429 66.6667 66.6667 62 65 0 69.5 69.5 64.5 62 65 64.5 65.5 65.5 62 61.5 65 0 0 61.5 61.5 67 63 0 60.6667 68.1429 64 0 60.5 0 63.5 63 64 0 65.4 0 61.5 0 0 0 0 57 58.6667 62.2857 61.5 59 51 0 0 0 63.4167 0 0 0 62 0 0 0 0 0 0 0 0 0 0 51 0 0 0 0 0 0 0 0 0 0 0 0 0 0 0 0 0 0 0 0 0 0 0 0 0 0 0 0 0 0 0 0 0 0 0 0 0 0 0 0 0 0 0 0 0 0 0 0 0 0 0
0 0 50.5 49.5 50 0 50.1667 50.1667 0 0 49.5 50 49.3333 51 50.7 50.7 51 0 50.5 0 0 51.5 0 0 50 50.5 51 0 0 51 51 51 51 51 51.6667 52 0 51.5 0 0 0 0 52 52.5 0 53 53 53 0 0 0 0 0 0 0 0 0 0 0 0 0 0 0 0 0 0 0 0 0 0 0 0 0 0 0 0 0 0 0 0 0 0 0 0 0 0 0 0 0 0 0 0 0 0 0 0 0 0 0 0 0 0 0 0 60.8068 85.6947 0 85.6947 49.1165 0 0 0 0 0 0 0 0 0 0 0 0 37.5379 0 0 0 0 0 0 0 0 0 0 7.4 39.2222 39.2222 0 39.2222 0 0 0 0 0 0 0 0 0 0 0 48.5 48.5 10 0 0 9 0 0 0 0 0 8.25 7.27273 6.41667 8 6.41667 7.27273 7.27273 6.41667 6.41667 0 7 6.66667 0 0 0 0 0 0 0 8 8.5 8.75 8 8 7 7 7.5 8 7.5 7.5 0 0 0 0 8 8 8 7.5 0 7 7 0 7 7 7.66667 7.66667 7.66667 6 7.66667 0 8.5 8.5 0 0 0 0 0 8.66667 0 0 0 0 0 0 24.5 13.7222 13.7222 13.3333 12.8 14 14 14 14 13.25 0 0 0 0 0 15.5 16.8 17 17 0 0 0 17.5 17.5 17.5 19.5 19.5 19.5 20.5 0 0 23.5 23.3333 23.3333 24 24.5 0 0 0 25 0 0 29.2 0 0 0 0 0 34.7 0 37 34 34 36.25 36.25 37.5 37.3333 37.3333 0 0 0 0 42.6667 0 40 45.25 34.75 36.6667 45.25 56 0 0 0 0 35 35 0 37 0 0 33 0 0 0 0 34.5 34 34 34 0 0 0 36.5 36.5 0 33 32 32.6667 32.6667 0 33 33 33 0 33 33 0 33.5 34 34 34 33.6667 33.6667 0 34 0 33.5 33.5 0 34 34 34 34 34 0 0 0 0 0 0 0 0 35 35 36 0 35.5 37 0 38.5 0 0 38 38 38.5 38.5 0 39 0 38.5 0 39.5 0 62.5 62.5 63 62 0 0 63 0 63 62.1333 62.1333 0 0 62.5 62.5 62 0 63 63.5 64 64 0 63 0 62 62 0 0 62.5 62.5 63 0 0 0 0 62 63 62.25 0 0 0 0 63 64.5 0 0 73 0 0 79.9545 79.9545 0 82 0 82 0 65.6667 77 26.5 54.8 0 72 0 0 31.5 50.1667 58 56.8333 0 58 58 31.5 47 0 48 74.5 74.5 63.4286 63.4286 57 0 0 0 48 0 48 0 49 0 0 0 0 0 48.5 47 0 47.3333 47.3333 0 0 0 0 0 47.5 0 0 47.5 0 50 0 49 0 0 0 0 0 53 0 0 0 65.5 0 0 0 0 0 66.25 65 65 0 65.5 65.5 66 67.8333 67.8333 67 67 67 61.6667 0 67.6667 64.5 64.5 65.3333 64.3333 0 0 65 66.6667 0 66 64 68 0 64.5 0 64.5 69.25 61.5 65.5 0 64.5333 0 0 63.5 65 65.3333 0 61.5 60.5 0 64.5 66 0 0 0 63.5 63.5 64.5 64 64 0 0 0 61.5 0 0 0 0 59.4583 65.5 66.0909 66.0909 0 66.0909 0 66 0 0 0 0 0 0 0 0 0 0 0 0 0 0 0 0 0 0 0 0 0 0 0 0 0 0 0 0 0 0 0 0 0 0 0 0 0 0 0 0 0 0 0 0 0 0 0 0 0 0 0 0 0 0 0 0 0 0 0 0 0 0 0 0 0 0 0
0 0 49 0 0 0 0 0 0 49 0 49.3333 49.3333 49.5 50.7 50.7 50.7 0 0 51 51 51.5 0 0 50 50.5 51 51.5 0 52 52.5 0 0 51 51.5 52 0 0 0 52 52 52 53 0 0 53 53 53 53 68.25 68.25 0 0 0 0 0 0 0 0 0 0 0 0 0 0 0 0 0 0 0 0 0 0 0 32.6 0 0 0 0 0 0 0 0 0 0 0 0 0 0 0 0 0 0 0 0 0 0 0 0 0 0 0 0 0 0 0 0 0 0 0 0 0 0 0 0 0 0 0 0 0 0 0 46.5 46.5 0 0 0 0 0 0 0 0 0 0 0 0 0 0 0 0 0 0 0 0 0 0 0 0 0 0 0 0 0 8.5 0 0 0 9.25 0 8.25 8.25 8 8 8.5 8.33333 8.25 6 6 0 6.66667 0 0 0 0 0 7.6 0 7.6 7 8.5 8.75 8.75 8 8 7.5 8 8 7.5 7.5 7.5 8 8 0 0 8 8 8 8 7 7 8.66667 6.9 6.9 8.66667 8.66667 6 0 6 0 7.5 7.5 7.5 8 10 8.5 0 0 0 0 0 8.5 8.5 8 9 13.3333 13 18.5 14 12.8 12.8 12.6667 12.6667 16.3333 0 0 0 16 15.5 0 14 15.5 17 0 17.5 16.5 16.5 17.5 19.25 19.5 19.5 19.5 20.5 19.5 0 22.75 22.75 0 24.5 25 24.5 28 0 23 24 30 0 0 32 33 35.5 35.5 35.6667 37.5 37.5 34.7 36 36.5 0 36 0 37.3333 37.3333 39.6667 0 40.5 42.6667 0 41 0 41 56 0 35 0 36.6667 0 36.6667 0 0 0 0 33.5 33.5 34.5 0 34.5 0 0 0 0 0 34 0 33.6667 34 32.3333 32.3333 33 33 32.3333 32.6667 33 0 33.3333 33.3333 0 32.6667 33 33 34.5 34.5 34.5 34.5 0 33.6667 33.6667 33.6667 0 33 33 33.5 35 34.5 34.5 33 0 35 36.5 0 0 35 0 35 35 35 35 0 35 0 0 37 0 37 0 0 0 37 38.5 38.5 0 39.5 39.5 0 0 0 0 0 0 0 0 62 0 0 63 62.1333 62.1333 62.1333 62 62 62 0 0 63 62 0 0 0 64 64.5 0 64 0 64 62.5 62.5 63 64 0 77 0 63.8 63.8 63.8 64.5 0 0 0 0 63 63.3333 64.5 62 72.5 0 0 82.5 79.9545 79.9545 73.3333 86.7143 66.6571 75 75 0 80.3333 80.3333 0 57 0 0 0 0 0 0 50.5 72 72 66.24 0 0 48 48 0 0 0 49.5 49.5 0 49 0 48.5 48.5 48.5 48 48 0 49 47.8333 48.5 47.8333 0 0 47.5 0 49 0 48.5 48.5 45.6667 0 49 0 0 0 50 50.6667 50.6667 0 0 0 0 0 0 55 0 65 66.5 65.5 66 0 65 64.8 66.25 64.8 66.25 65 0 63.9 65.5 65.5 66 67 67 67 0 65 0 64 64 65.3333 64.3333 64.3333 0 62 66 0 66 63 0 0 65 0 0 67.6 67.6 66 65 0 0 0 63.5 66 66 66 60.8333 62.25 0 64 0 0 63 63 66 64.5 64.5 64.5 63 58.6667 63 63 64 63.3333 67 63.1667 64 0 0 68.2667 66.0909 0 0 66.0909 66.0909 0 63.4167 63.4167 0 0 0 0 0 0 0 0 0 0 0 0 0 0 0 0 0 0 0 0 0 0 0 0 0 0 0 0 0 0 0 0 0 0 0 0 0 0 0 0 0 0 0 0 0 0 0 0 0 0 0 0 0 0 0 0 0 0 0 0 0 0 0 0
0 0 49 49.5 50 50.5 0 0 49 49 49.5 0 49 49.5 49.5 49.5 0 50 50.5 0 51 51.5 51.5 51.5 0 50.3333 51 51.5 52 52 0 0 0 0 0 0 0 51.5 52 51.5 51.5 51.5 0 53 53 53 52 0 0 52.6 52.6 52.6 0 0 0 0 0 0 0 0 0 0 0 0 0 0 0 0 0 0 0 0 0 0 0 0 0 0 0 0 0 0 0 0 49 0 0 0 0 0 26.5 26.5 0 0 0 0 0 0 36.6316 0 0 0 0 0 0 85.6947 0 0 0 0 0 0 0 0 0 0 0 0 0 0 0 0 0 0 0 0 0 36.6316 0 0 0 0 0 0 0 0 0 0 0 0 0 0 0 0 0 0 0 0 0 0 0 9 9 9 8.5 8.5 9.25 8 9.25 7.5 7.5 7.5 8 7.41667 7.5 7.5 7.5 8.33333 8.33333 6.66667 0 6.5 6.5 6.5 6.5 6.5 6.5 6.5 6.5 8.5 8.75 0 0 0 7.5 8 8 7.5 7.5 7.5 8 8 8.16667 8.16667 7.66667 7.5 7.5 7.5 7.5 0 0 9 0 7.5 7.5 7.5 7.5 7.5 7.5 7 7 7 8 10 9 11 10.3333 10.3333 0 9.5 8.6 10 19.5 18.5 13 14 14 0 12.8 12.8 12.6667 16.3333 16.3333 0 11.5833 12 15.5 0 15.5 15.5 0 0 15.5 17.5 0 18 0 0 0 19.5 18 0 0 20.5 0 22.75 23 0 0 24.5 0 0 0 25 0 0 32 32 0 35 34.5 0 0 0 0 36 36.3333 36.5 37.5 37.25 0 37.3333 0 33.9 33.9 31.5 41 38.375 0 56 0 0 48 41 41 33 36.3333 35 0 0 0 31.9333 31.9333 0 32 0 33.5833 33.5833 0 33.5833 0 0 0 33.5 33.5 33.5 33.5 33 33 33.5 32 32 32 34 33.3333 33 32.5 33 0 0 0 0 0 33 0 0 0 0 0 0 34 0 0 0 0 0 35 35.5 36 0 35 35.5 35.5 0 34.5 36 0 36 37 36.5 36.5 0 37 0 37 38 0 0 39 0 0 0 0 76 0 0 62.6667 63 0 62 63.2 63.2 63 0 63.5 0 41.5 62 0 0 0 0 62 62 64 0 0 64 64 64 65 0 0 0 0 63 64 64 64 63.8 64.5 0 0 62 0 64 63 63 63 0 0 58.4333 67.8 0 80.3333 79.9545 86.7143 86.7143 0 0 0 0 0 0 61.5333 0 73.5714 0 0 0 0 0 58 49 48.5 48.5 47.1905 48 0 49 49 0 0 0 50.5 50.5 50 50 49.5 0 48.5 0 0 47 48 47 0 47.8333 46.5 46.5 47.5 0 0 50 47.5 0 0 47.5 0 0 45.5 0 50.6667 48.5 50 50 50 49 53 52 52 0 0 0 66.5 0 0 0 0 0 0 0 64.8 64.8 64.8 66.25 69.5 65.5 0 65 63.9 67 65 65 0 0 0 0 72 63.5 63.5 0 0 61.25 0 0 67.5 0 0 65 0 64 0 65.6 67.6 67.6 0 0 0 0 0 63.5 0 0 63.6667 62.25 63.2 63 63 63 63 62.5 0 0 0 65.8571 0 60.3333 0 63.5 63.5 0 63.3333 0 0 0 0 63.325 70.3036 68.2667 0 70.3036 66.0909 0 0 0 0 0 0 0 0 0 0 0 0 0 0 0 0 0 0 0 0 0 0 0 0 0 0 0 0 0 0 0 0 0 0 0 0 0 0 0 0 0 0 0 0 0 0 0 0 0 0 0 0 0 0 0 0 0 0 0 0 0 0 0 0 0 0 0
0 0 49 49.5 50 50.5 0 0 49 49 49.5 50 0 49.5 0 0 49.3333 50 50.5 51 0 50 50 50 50 0 49.6667 50 50.5 51 51 51 51 51 51.5 52 52.5 0 52 51.5 51.5 51.3333 52 52.5 53 0 52 52.5 53 0 0 0 0 0 0 0 0 0 0 0 0 0 0 0 0 0 0 0 0 0 0 0 0 0 0 0 0 0 0 0 0 0 0 0 0 0 0 37.5379 0 0 0 0 0 0 0 0 0 0 0 22.9118 0 0 0 0 85.6947 85.6947 85.6947 0 0 0 0 0 0 0 0 0 0 0 0 0 0 0 0 20.3137 0 60.8068 0 0 0 20.3137 20.3137 0 0 0 0 0 0 0 0 0 0 0 0 0 0 0 0 0 0 0 0 8 8 7.625 7.625 9 9 9.8 9.25 7.41667 8.5 8.5 8.5 7.41667 7.41667 8.5 8.5 7.83333 7.83333 7.83333 0 6.75 0 0 0 6.5 6.5 6 6 0 0 6.5 7.5 7.5 0 6.33333 8 8 8 8 7.5 7.5 7.5 7.5 6.33333 8.16667 7.66667 7.66667 8.66667 8.66667 8.41667 8.41667 0 0 7.5 0 0 7 7 6.5 6.5 8.5 9 10 10.3333 11 10 9 9 9.58333 9.58333 9.58333 0 0 13.25 13.5 0 16 14 14 0 0 11.5833 11.5833 0 12 0 0 14.5 14.5 14 14 0 16 0 0 14.5 17 0 0 18 0 20.5 22.75 0 22 22 0 25 24.25 0 0 0 25 0 0 0 33 0 33.5 34.5 34 36.6667 0 0 36.3333 36.3333 0 0 0 36 39.5 0 40.5 40.5 40.3333 41 0 56 34.75 0 56 52.6964 41 41 41 41 35 38.375 0 0 32 31.9333 31.9333 31.9333 0 35.5 35.25 0 33.5833 0 0 0 0 0 32.5 0 32.5 33.5 32.5 0 31 31 32 0 0 31.5 31.5 32 32 34.5 34.5 33.5 33.5 34 0 33.5 34 0 33.75 0 35 33.5 35 0 34 33 0 35 0 35 35 0 0 0 0 0 0 0 0 36 37 0 38 37 37.5 0 0 39 47.5 47.5 0 0 68 61 65 0 63 64 0 63.2 65 63 63 63 0 0 0 0 0 0 62 62 0 63.5 0 0 0 0 0 0 0 0 63 63 77 63 62.5 62.5 63.8 62.5 62 62 61 61 0 90 63.5 0 0 58.4333 58 0 80.3333 0 86.7143 86.7143 73.3333 0 82 82 0 65.3333 0 0 0 73.5714 51.5 51.5 0 0 0 0 65.6667 50.1667 50.1667 0 0 0 50 0 0 0 0 0 0 0 0 0 0 46.8333 49.5 48.6667 0 0 48.6667 0 51 0 0 0 0 47.5 48 47.5 47.5 0 0 51 0 0 50 51 0 48.5 49 0 53 0 0 0 0 59 65 0 65 65 65 64.5 66.5 65 66 66.5 0 0 65 0 0 64.8667 64.8667 65 65 65 0 0 0 0 0 67 0 0 63.6 0 63.25 63.2667 66 0 0 0 0 0 0 65.6 0 65.8333 0 62 65.8333 64 0 0 0 0 0 62.7333 0 0 63 0 0 0 63.6667 63.6667 59.4583 65.8571 0 0 0 0 64.9 0 64.9 63.3333 0 0 0 63.325 63.325 65.8571 60 59.4583 59.4583 59.4583 65.5 0 65.5 0 0 63.4167 0 0 0 0 0 0 0 0 0 0 0 0 0 0 0 0 0 0 0 0 0 0 0 0 0 0 0 0 0 0 0 0 0 0 0 0 0 0 0 0 0 0 0 0 0 0 0 0 0 0 0 0 0 0 0 0 0 0 0 0 0
0 0 0 49.5 49.5 49.5 0 0 49 49 49.5 50 50.5 51 0 0 0 49.5 49.8333 49.8333 51 51.5 51 51 51 50.5 51 51.5 0 51 51 50.6667 50.5 51 0 50.5 51 51.5 0 0 0 51.25 0 52.5 53 53 0 52.5 52 52 52 51.5 0 0 0 0 0 0 0 0 0 0 0 0 0 0 0 0 0 0 0 0 26.7143 0 0 0 0 0 0 0 33.6 33.6 0 0 0 0 0 0 0 0 0 0 0 0 0 0 0 0 0 0 0 0 0 0 0 0 85.6947 85.6947 0 0 0 0 0 0 0 0 0 0 0 0 0 0 20.3137 20.3137 20.3137 0 0 20.3137 20.3137 20.3137 20.3137 0 0 0 0 0 0 0 0 0 0 0 0 0 0 0 0 0 0 0 0 0 0 0 0 0 7.625 7.625 8.5 8.5 8.5 8.5 8.5 8.5 0 8.5 8.5 7.83333 7.83333 7.5 0 0 0 0 0 8.33333 0 8.33333 8.33333 6.5 6.5 0 7.5 7.5 7.16667 7.16667 8 0 0 0 7 0 8 8 8.16667 0 6.33333 6.33333 8.66667 7.5 8.41667 8.5 0 0 10.5 6.5 6.5 9 7.5 7.5 7.5 0 0 9.83333 10.75 0 9.83333 9 0 9.58333 10 10 10 10.5 9.8 0 0 0 11.5833 13.5 0 0 12.2 12.2 8.66667 8.66667 8.25 0 0 16 0 15 16 0 18 0 16 18.5 17.5 0 0 0 21.5 0 0 0 26.5 0 0 25.3333 24.6667 25.3333 24 24.75 0 30 32.5 0 0 34.5 34.6667 34 21.5 34 36 36.5 0 0 0 30.3333 30.3333 39 39 0 38.7143 42.5 42.5 0 41.125 57.8571 0 0 33 56 31.5 0 38.375 0 0 38.375 35 35 35.25 35.25 28 28 34.6667 34.6667 36.5 36.5 34 34.5 0 32.5 33.6667 32.5 32.5 32.5 32.5 32.5 33.5 33.5 0 32 32.5 32 32.5 32 0 32.25 32.25 33 32.5 32.5 0 0 0 33 0 33 33 34 34 34.3333 0 0 0 0 0 0 0 36 37 35 37 36 0 36 37 37.5 37.5 37 37 0 36.5 0 36.8333 38.3333 58.75 39.5 39.5 0 0 0 72.5 0 0 0 0 0 0 0 0 0 62 0 0 62.5 61.5 44 0 0 63.5 0 63.5 0 64.5 64.5 0 63 0 64 0 64 81 64.5 0 0 63.3333 0 63 62 62 62 61.5 61.5 61 63.5 83.5 58 0 0 0 50 0 86.7143 86.7143 0 0 0 0 0 0 0 34 0 0 59.1538 32 0 0 0 0 61 0 0 49 48 52 52 0 51 0 0 51 48 48 48 0 46.8333 46.8333 0 0 0 47 47 0 0 47 47 47.3333 47.5 0 47 0 0 50 47 0 0 0 0 0 0 0 0 0 0 52 59 0 0 0 0 64.5 65 64.5 63.25 63.5 65.3333 65.3333 66 66 0 0 63.5 0 64 64 64.5 64.5 64.8667 0 0 64 64 64 0 64.5 64.5 0 0 64.75 64.75 64.75 63.2667 63.2667 64.75 0 63.3333 65.3333 0 65.6 65.8333 65.8333 0 65.8333 65.8333 65.8333 64 0 0 63.1667 63.1667 63.6667 62.7333 62.7333 63 63.2 63.2 63.5 63.6667 65.5 59.4583 65.8571 67 0 63.325 63.325 63.325 65.8571 64.9 64.9 67.5 65.4 65.4 63 63 63.325 63.325 65.8571 65.8571 59.4583 65.7143 65.7143 59.4583 0 62.5 0 0 42 0 0 0 0 0 0 0 0 0 0 0 0 0 0 0 0 0 0 0 0 0 0 0 0 0 0 0 0 0 0 0 0 0 0 0 0 0 0 0 0 0 0 0 0 0 0 0 0 0 0 0 0 0 0 0 0 0 0 0
0 0 49 0 48.5 49 49 49 49.5 49.5 49.5 0 0 0 0 0 49.6667 0 49.5 49.6667 50 50.5 50.5 50.5 50 50.5 51 0 0 51 50.6667 50.6667 51 51 51.5 52 0 0 52 51.5 51.5 51.5 52 0 0 0 0 52.5 0 0 78 0 0 0 0 0 0 0 0 0 0 0 0 0 0 0 0 0 0 0 0 0 37.4752 74.5 55 0 0 0 33.6 33.6 33.6 0 0 0 0 0 0 37.5379 0 0 0 0 0 0 0 0 0 0 0 0 0 0 0 85.6947 0 0 0 0 0 85.6947 0 0 0 0 0 0 0 0 0 0 0 20.3137 0 0 0 20.3137 0 20.3137 20.3137 20.3137 20.3137 20.3137 0 0 0 0 0 0 0 0 0 0 0 0 0 0 0 0 0 0 0 9.71429 9.71429 9.71429 0 0 0 0 7 8.5 8.5 0 8 8 7.3 0 0 7.5 7.5 7.5 7.83333 0 7.5 7.5 7.5 6.16667 0 0 0 0 0 0 8.66667 8.66667 0 0 0 0 0 0 0 0 6 0 0 0 6 7.5 7.5 7.89286 7.89286 7.89286 7.89286 7.89286 0 6 6 0 0 7.5 7.5 8.33333 11.6667 8.25 10.75 9.83333 8.25 9 10.5 10.5 10.5 10.5 9.8 24.5 24.5 15.1667 15.5 15.5 15.5 12.25 12.5 12.2 12.2 12.25 9.45833 8.66667 8.66667 17.5 0 15.5 0 15 16 0 18 0 0 17 19 19 20 20.3333 0 23.8 19 25 26.5 0 25.3333 25 24.6667 24.6667 27.5 0 0 30 30 0 0 34.6667 34 34.5 34 35.5 36 36 0 0 36.8333 36.8333 0 0 54.3636 54.3636 42.5 0 46 82 82 42.5 35 57.8571 62.5 40.3333 40.3333 0 38.375 31.5 31.5 38.375 38.375 0 0 0 35.25 0 36.25 36.25 36.25 34.6667 0 0 35.25 34.5 35.25 33 33 33 32.5 32.5 32.5 32.5 0 32.5 32.5 32.5 32.5 32 0 31.5 31.5 32.5 32.5 32 32 0 31.5 32.5 33 33 33 34 34.3333 34.3333 0 0 35 0 34.5 34.5 0 35.3333 36 36 37 0 38 35.3333 37 37 37 0 36.3333 38.3333 36.3333 36.8333 36.8333 38.3333 39.5 39.5 39.5 0 40 0 82 64.5 64.5 0 0 64.25 64 64 63.5 0 0 62 62 62.5 62.5 0 63 0 63.5 63.5 63 63 63 0 63 64.5 0 64.5 0 64 63.5 56 56 56 56 0 0 63 63 62 0 45 60.5 60.5 63 0 0 84.5 84.5 66 79.9545 65.75 65 64.5 79 64.6 65.3333 65.3333 68 61.5333 0 41.5 0 0 63.6667 0 0 0 54 0 23 30 0 0 0 0 56 53 0 53.25 53.25 53.25 0 0 0 0 0 54 0 52 49.5 47 47 47 47 47 47.3333 49.5 48 48 0 0 49 47 0 53 51 50 0 0 52 54.5 0 52 52 0 0 0 0 0 63.5 64.5 0 61.5 0 0 65.3333 65.3333 64.5 0 0 0 63.5 63.5 61.25 64.5 64.5 64.5 64.5 64.5 63 64 64.5 64.5 63.5 63.5 61.0667 0 67 63.6 63.6 64.75 64 0 63.2667 63.75 63 0 64 65.6 64.6667 64.6667 65.6 65.8333 65.8333 65.8333 63.1667 63.1667 63.1667 63.1667 0 63.6667 62.7333 62.7333 65.5 65.5 63.2 63.5 65 0 68.2667 59 63 65.4 67.5 70.3036 64.9 63.9778 63.6667 63.9778 59.6667 62.9 62.9 0 62.5 0 62.5 63.9778 63.9778 63.6667 62 0 0 65.7143 0 51.3333 0 0 42 0 0 0 0 0 0 0 0 0 0 0 0 0 0 0 0 0 0 0 0 0 0 0 0 0 0 0 0 0 0 0 0 0 0 0 0 0 0 0 0 0 0 0 0 0 0 0 0 0 0 0 0 0 0 0 0 0
0 0 48.5 49 50 50.5 0 0 49 0 0 0 49 49 49 49 49.6667 50 0 50 0 50 49.8333 49.8333 0 0 0 51.5 0 51 51 51 51 50.5 50 51.5 51.5 51.5 0 51.5 51.5 0 52 0 51.5 52 52 52.5 0 52.5 52.5 0 0 0 0 0 0 0 0 0 0 0 0 0 0 0 0 0 0 0 0 0 0 0 0 0 0 0 0 0 0 0 0 0 0 0 0 0 85.6947 85.6947 85.6947 85.6947 0 0 0 0 0 0 85.6947 85.6947 0 0 0 0 0 0 0 85.6947 0 0 0 0 0 0 0 0 0 0 0 0 0 0 0 0 0 0 0 0 0 0 20.3137 0 0 0 0 0 0 0 0 0 0 0 0 0 0 0 0 0 0 0 76.75 11.5 11.5 9.71429 0 9 10.6667 0 0 0 0 0 7.3 7.3 7.3 0 0 7.5 7.5 7.5 0 0 0 0 0 0 0 6 6.16667 6.16667 0 6.5 8.66667 7.5 0 0 8 7.5 0 0 0 0 0 0 0 0 0 0 9.5 0 7.89286 7.89286 0 8.5 0 8.5 8.5 8.5 0 0 0 0 11.6667 11.6667 8.25 0 8.25 10.75 12.5 10 0 10 10 19.75 17.5 15.1667 15.1667 12.5 12.25 12.25 11.5 11.5 9.45833 9.45833 9.45833 0 0 0 14 13.5 0 16 0 0 0 0 20 18.5 20 19 20 20.5 23 23.8 0 0 0 0 0 0 25.3333 25.3333 0 0 0 30 29.5 0 33.5 34.6667 0 34 35.6667 36 36 36 36.3333 0 35 36.8333 35.2857 44.8 0 0 35.2857 35.2857 51.8333 40.5833 0 45.25 41.125 82 52.6964 44.8333 38 0 40.5833 40.5833 36 35.5 35.5 35 35.5 34.1667 0 0 36.25 34.5 34.5 34.5 34 0 33.5 33.5 35.25 34.6667 32.8333 32.8333 0 32.5 32.5 0 0 33 33 32.5 0 0 0 32 32.5 0 32.5 32.3333 32.3333 0 55.5 0 34.5 34.5 34.5 34.5 34 34 0 34.5 35.5 35.5 36 35.5 35.5 0 0 0 36 43 43 43 0 62 0 0 0 0 0 0 0 0 39.5 39.5 0 43.5 43.5 40 40 96.6667 63 64 0 63.2778 63.2778 0 0 0 61.8333 61.8333 62.5 62.5 62.5 62.5 62 0 0 61.5 61.5 62 63 63.1667 62.5 0 62.5 63.5 50 0 63 63.5 63.5 56 62.5 62.5 63.3333 63.3333 0 63 0 62.5 63.5 62.1667 62.1667 49.5 66.5 72.5 72.5 79.9545 61.6042 61.6042 65.75 63.6667 63 66.6571 64.6 64.6 65.3333 68 61.5333 63.6667 63.6667 0 0 0 0 0 61.5333 61.5333 0 0 0 0 33 50 0 0 0 0 0 0 49 53.25 0 0 0 0 50 0 0 54 44 0 0 47 0 49.5 49.5 48 0 0 0 0 0 51 51 51 51 0 0 52.5 52.5 53 53.5 60 0 0 63 64 64 0 0 64.5 0 62.5 62.5 64 64 63.5 64 0 63.3333 0 64.5 64.5 66 60 61.25 61.25 64.5 64.5 63 64 64.5 61.0667 61.0667 0 63.5 63.5 63.6 63.6 64.75 64.75 64.75 63.2667 63.75 63 65.3333 0 62.8333 0 60.8333 64.6667 65.8333 65.8333 64.5333 64.5333 64.5 64.5 62.25 0 62.25 61.5 0 0 63.2 63 63 0 70 70.3036 70.3036 73 0 0 51.3333 0 65.7143 59.6667 63.6667 63.9778 63.6667 63.9778 63.9778 62.5 0 0 0 63.9778 63.9778 63.6667 62 65.7143 65.7143 0 51.3333 51.3333 0 42 42.5375 42.5375 42 0 0 0 0 0 0 0 0 0 0 0 0 0 0 0 0 0 0 0 0 0 0 0 0 0 0 0 0 0 0 0 0 0 0 0 0 0 0 0 0 0 0 0 0 0 0 0 0 0 0 0 0 0
0 0 47.5 48.5 49 48.5 48.5 48.5 49 48.5 48.5 0 49 49 49 49 49.5 50 0 50 0 50 50.1667 50.1667 50 0 49.5 51 51 0 51 51 50.5 51 0 50.5 51 51.5 0 0 0 0 50.5 51 52 0 52.6667 53 52.5 0 52 52 0 0 0 0 0 0 0 0 0 0 0 0 0 0 0 0 0 0 0 0 0 0 0 0 0 0 0 0 33.6 0 63.9 0 0 0 0 0 0 85.6947 85.6947 85.6947 0 37.4752 0 0 0 0 0 0 79.8333 79.8333 79.8333 0 0 0 0 0 0 0 0 20.3137 20.3137 0 0 0 0 0 0 0 0 0 0 0 0 0 0 0 0 0 0 0 0 0 0 0 0 0 0 0 0 0 0 0 0 0 0 0 0 0 0 8.83333 8.83333 8.83333 9.71429 9.71429 10.6667 10 10 10 10 10 8.3 7.3 0 0 7.75 7.5 7.5 7.5 0 0 7.5 7.5 7.5 0 0 0 0 0 0 0 8.75 8.75 8.75 0 7.5 7.5 7.5 6.75 0 6.75 9.33333 0 9.5 0 9.5 6.66667 6.66667 0 0 0 7.7 7.7 0 0 6 6 0 7 0 8.5 12.5 12.5 0 0 10.75 0 0 12.5 10 10.3333 10 0 12 8.66667 11.5 11.5 13.5 13.5 13.5 13.5 0 9.45833 9.45833 0 0 0 0 15 15 0 0 0 0 0 0 0 0 0 0 0 0 0 20 25 0 0 24.5 0 0 0 0 0 29 29.5 0 0 0 0 34 34 35.6667 35.6667 35 36.3333 36.3333 0 35 0 35.2857 0 0 0 33 56 56 0 0 0 56 0 40.0833 38.6667 0 0 42.5 0 38 0 0 0 40.5833 0 34.1667 0 34.5 34 34 34 34.5 0 35 33.5 33.5 0 0 0 87 0 0 0 33.5 83 33.5 33 33 0 32 0 34 34 34 33 32.3333 32 32 32 33.5 32 32 32 33.3333 0 0 34 34 34.5 0 0 57 36 0 36 38 0 43 56 37 37 37 0 0 35.5 0 45.5 35 0 0 0 0 0 0 0 0 40 62.5 64 63.2778 0 63.2778 63.2778 62.6667 62.6667 63.1667 59.8333 63 0 0 0 62.5 60.75 60.75 50.75 0 0 0 0 0 0 62.5 62.5 63 63.5 63.5 61 71.5 71.5 61.5 69.5 62 63 64.1667 62.5 62 62 62.5 70.8333 70.8333 63 69.8333 69.8333 68.6667 64.359 64.359 64.359 61.6042 63.6667 63.6667 65 61.6667 61.6667 61.075 61.075 0 62.6667 0 0 0 0 0 0 0 0 74.5 0 0 0 0 0 61.5 0 50 50 30.1429 48 49 0 47 0 0 0 50 53 53 51 50.6667 0 43.3333 54 0 47 51 48 48 48 0 50 55.5 0 50.5 0 0 52 52 52 0 0 61.5 0 0 0 0 0 0 62.3214 62.3214 62.9 62.9 60 59.6667 61.7333 64 64 63.5 63.5 63.3333 61.3 63.3333 0 64 62.25 62.25 61.4 61.4 63.75 61.25 59.4 59.4 62.8333 65.1429 65.1429 65.1429 65.1429 61.0667 61.0667 59 63.5429 64.3333 64.3333 63 62.8333 62.8333 62.8333 62.8333 62.8333 66.6667 0 0 66.6667 64.5333 64.5333 60.8333 62.25 62.25 62.25 62.25 0 60.5 64 64 64.5 0 63.6667 63.6667 0 63 65.5 65.5 42 51.3333 51.3333 41.1667 0 0 65.7143 46.45 52.7143 52.6515 52.6515 55.2 54 54 55.2 55.2 55.2 52.6515 52.7143 52.7143 0 46 46.45 46.45 0 36.3529 42.6 53.2222 42.6 0 0 0 0 0 0 0 0 0 0 0 0 0 0 0 0 0 0 0 0 0 0 0 0 0 0 0 0 0 0 0 0 0 0 0 0 0 0 0 0 0 0 0 0 0 0 0 0 0 0 0 0
0 0 47.5 48 48.5 48.5 48.5 48.5 0 0 0 48.5 49 0 0 0 0 50 0 0 0 0 0 0 50 0 0 50 50.5 51 51 51 51 51 51.5 0 0 0 52 0 0 50 50.5 51 0 52 0 53 0 0 51 0 0 71 0 0 0 0 0 0 0 0 0 0 0 0 0 0 0 0 0 0 0 37.4752 26.7194 36.6316 0 0 0 0 26.7194 0 63.9 37.4752 22.9118 0 0 0 0 85.6947 85.6947 85.6947 33.6 37.4752 37.5379 0 0 0 0 0 71.9286 0 0 0 87.4346 0 0 0 0 0 0 0 0 0 0 0 38.8047 0 0 0 0 0 0 0 0 0 0 0 0 0 0 0 0 0 0 0 0 0 0 0 0 0 0 0 0 0 0 0 0 0 0 12 0 8.83333 8.83333 9.71429 8.83333 9 8 8 8 8 9.25 8.3 0 0 0 8 8 8 7.33333 0 0 0 0 10 6 6 6 0 0 6.5 8.75 7 7 0 0 0 0 8.16667 8.16667 0 8 8 6.75 8.8 9.5 6.66667 0 0 6.33333 0 0 0 9 0 0 0 0 6.5 9 0 0 7.83333 7.83333 8.5 0 9 8 0 10.3333 10.3333 18.3333 0 12 0 14.8333 14.8333 13.5 13.5 10 17.6667 0 0 8.5 0 0 6.125 0 16 0 0 16 16.75 16.75 19 0 0 0 20 0 21 22.4 23.1667 22.4 23.5 25 0 30.5 27.6667 0 0 0 29.3333 29.3333 29.6667 0 30.5 0 0 34 0 35 35 36.5 36 36 36 9.33333 9.33333 38 35.2857 0 0 56 56 56 56 0 20.5238 46.5 42.3333 41.875 0 0 0 39 0 57.8571 82 57.8571 57.8571 48 0 0 0 30.875 48 48 81 0 35.5 35.5 19.3333 0 34 0 0 33 33 33 33 32.25 83 33 33 31.5 32.5 32.5 34.1667 34.1667 34 34 0 33.5 33.5 33.5 33.5 0 32.5 32.5 33 34 33.3333 33.3333 0 33 33 0 0 43 43.5 36.5 36.5 0 46 0 0 36.5 36.5 36.5 0 37 0 0 37.6 37 0 38 42.5 43 0 96.5 63.5 63.5 0 0 0 0 0 63.5 63.2778 62.6667 0 63.1667 63.1667 63.625 62.5 62.5 0 62.5 0 0 0 0 0 0 50.75 63.1667 62.5 62.5 62.5 62.5 61.5 61.5 61 61.5 61.5 71.5 61.5 61.5 69.5 64.1667 64.1667 70 64 0 62.5 62.5 61.5 61.5 69.8333 68.6667 68.6667 64 58 64.359 61.6042 61.6042 65.75 65 65 61.6667 0 0 0 0 62.6667 62.6667 0 0 0 0 0 0 0 0 0 0 0 0 56 56 48 37.5 33.6667 0 0 0 0 0 50 50 51 0 0 0 0 0 0 0 0 47 48 0 0 0 0 0 0 0 0 51.5 51.5 51.5 0 0 0 63 61.4 61.4 60.6 61.9167 61.9167 61.9167 61.5 62.3214 62.9 62.3214 62.3214 62.9 60 59.6667 61.7333 61.7333 61.85 0 63 61.3 62.3333 0 62.3333 62.3333 61.3 62.25 0 61.4 61.4 61.4 62.3333 59.4 62.3333 62.3333 0 0 59.6667 65.1429 0 63.5429 63.5429 0 0 61 59.425 63 63 0 63.0952 58.1667 58.1667 66.6667 57.9 57.9 61.5 65.5 65.5 57.9 0 59.3333 0 0 60.6667 60.6667 63.6667 0 60.3333 0 60.3333 60 60.5 60.5 0 0 41.1667 41.1667 42.5375 42.5375 46.45 46.45 0 52.7143 52.6515 62 55.2 55.2 55.2 54 0 64.8929 52.7143 38 37 40.6818 40.6818 36.3529 36.3529 36.3529 36.3529 36.3529 42.6 0 0 0 0 0 0 0 0 0 0 0 0 0 0 0 0 0 0 0 0 0 0 0 0 0 0 0 0 0 0 0 0 0 0 0 0 0 0 0 0 0 0 0 0 0 0 0 0 0 0
0 0 47.3333 0 0 0 0 0 49 0 48 48.5 49 49 49 49 0 0 0 50 0 50 50 49.5 49.5 49 0 51.5 0 51 51 51 51 51 51.5 0 51 0 51.5 51.5 0 0 50.5 51 51.5 52 52.5 0 0 0 51 33.6667 0 0 0 0 0 0 0 0 0 0 0 0 0 0 0 0 0 0 0 0 0 0 0 0 0 0 13.6234 13.6234 37.4752 37.4752 67 0 0 32.6 0 0 0 20.3137 20.3137 0 93.4286 0 0 0 0 0 0 0 0 0 85.6947 0 9 0 0 0 0 0 0 0 0 0 0 0 0 0 0 0 0 85.6947 85.6947 85.6947 85.6947 0 92 92 0 0 67 0 0 0 0 0 0 0 0 0 0 0 0 0 0 0 0 0 0 0 9.875 0 10.3333 10.3333 10.3333 0 0 9.25 8 8 8 9 9 9 0 0 8.16667 7.66667 7.66667 7.33333 7.33333 0 8 8 8.5 0 0 0 0 0 7.33333 0 7 8 0 0 7 7 0 7.33333 7.33333 0 0 0 0 6.75 6.75 8.8 6.75 6.33333 6.33333 6 0 0 8 0 9 7.5 9 0 0 0 6.5 0 7.83333 0 9 0 0 9.5 0 10 13 9.45833 9.45833 22 17.6667 13 13 13 14.8333 0 16 9.33333 0 0 16.1667 0 15 14 0 18 0 17 15.5 0 19.5 17 0 0 22.5 22.5 22.4 22.4 23.1667 25 0 0 0 27 0 0 29.5 29.5 29.3333 29.6667 29.6667 31 0 34.5 34 34 35.5 0 0 0 34.75 34.75 0 0 0 58.25 0 8.85 42.2 42.2 41.125 62.5 21.5 0 41.875 41.875 0 37.5 37.5 54 48.5 0 64 51.8333 57.8571 41.125 40 0 38.6667 0 48 48 38.6667 38.6667 38.6667 38.6667 38.6667 46.5 38.6667 0 0 0 0 0 30 0 0 0 31.5 31.5 31.5 0 32 64 50 63 0 0 0 60.5 60.5 60.5 58 45.8333 33.5 32.5 33 34 33.3333 55 44 34.5 47.6667 42.5 0 0 0 0 0 49.5 46 43 38.5 38.5 36.5 34 37 0 40 59 40 0 38 37.5 37.5 0 35 53.5 0 40 0 61.75 63 61.75 63.2778 63.2778 63.2778 63.625 63.625 63.625 63.625 0 61.8333 62.5 60 0 0 62.5 59 60.75 60.75 0 60 50.75 61.5 61 61.5 59.5 59.5 74.6 61 0 61.5 71.5 0 61.5 61 59.8667 63.375 63.375 58.1 58.1 58.1 53.6667 60 61.619 64 58.7714 57.8421 58 58 64.359 61.6042 65.75 61.6042 66.6571 66.6571 61.6667 66.6571 64.6 61.075 61.075 62.6667 62.6667 0 0 0 0 0 69.5 0 0 0 59 53.5 53.5 0 32 55 49.3333 0 0 0 52.5 52.5 52.5 50 0 0 0 0 0 47 0 0 0 0 48 0 48 48 50 50 0 0 47.5 47.5 0 51.5 0 52 0 60.5 60.5 61.4 61.4 59 60.6 60.6 0 61.9167 60.6364 62.3214 61.25 62.3214 62.9 61.1429 61.1429 61.1429 59.6667 65 61.85 61.85 65 61.85 63 63 61.3 0 61.3 62.25 0 0 59.5 55 0 0 59.4 62.8333 62.8333 59.6667 65.1429 65.1429 61.6667 0 0 0 0 59.425 59.425 59.425 63.0952 63.0952 60.5 60.5 60.5 60.9 61.5 57.9 57.9 61 0 58 59 59.3333 59.3333 0 0 0 0 59.3333 0 60.3333 60 60 0 0 27.6 27.6 42.5375 42.5375 42.5375 42.5375 46.45 46.45 60.5 64.8929 52.6515 52.6515 56.5556 0 58 52.8333 0 0 0 40.6818 40.6818 0 40.6818 40.6818 40.6818 36.3529 40.6818 40.6818 36.3529 0 36.3529 0 0 0 0 0 0 0 0 0 0 0 0 0 0 0 0 0 0 0 0 0 0 0 0 0 0 0 0 0 0 0 0 0 0 0 0 0 0 0 0 0 0 0 0 0 0
0 0 0 0 48.5 48.5 48.5 48.5 49 0 48 48.5 49 0 0 0 0 0 0 50 50 50 50 50 0 49 49.5 50 50.5 50.6667 0 0 0 0 0 0 51 0 50 50 50 0 50.5 0 51.3333 52 0 0 0 51 0 33.6667 52 52.5 0 52 52 18.6667 18.6667 0 0 0 0 0 0 0 0 0 0 0 0 0 0 0 0 0 0 0 0 0 0 13.6234 0 0 0 0 0 47 0 0 0 0 0 0 0 0 0 0 0 0 0 0 85.6947 0 0 0 0 0 0 0 0 0 0 0 0 0 0 0 0 0 0 0 0 0 85.6947 0 49.1165 49.1165 85.6947 0 0 0 0 0 0 0 0 0 0 0 0 0 0 0 0 0 0 0 0 0 0 0 9.875 9.875 9.875 0 0 0 0 0 0 9.25 9.25 7.5 7.5 0 8 8.16667 7.66667 0 0 7.66667 8 8 9 9 9 9 9 0 7.33333 7.5 7.5 8.33333 8.5 8.5 0 7 7.5 0 7.33333 0 7 7.5 9.33333 9.33333 0 0 0 0 0 6 6 0 0 7 7 7 0 0 0 7.5 9 7.5 0 0 9 0 9 11 0 0 11 14.75 21.8 17.6667 0 0 0 0 0 17 13.3333 16 16 16.1667 0 0 0 18 17.1667 0 0 0 0 0 16 0 0 21.5 22 22 22.4 22 22.5 23 23 0 0 27 26 26 29 29 28.5 28.5 30.5 31 30 0 34.5 0 0 35 35 35 0 34.75 40 38 38 45.3333 0 0 31.3333 0 0 41.875 0 0 0 42 42.5 48.6 48.6 0 34.75 34.75 0 35 34.75 40.5833 40 0 0 38.6667 48 33.1667 44.8333 42.4667 42 42 42 46.5 46.5 45 63 32.9167 32.9167 32.9167 30 32.9167 45 39.5 39.5 47.5 47.5 32 0 58.5 58.5 13.25 0 0 20.15 0 0 24.8333 20.3333 59 34 0 33 34 0 33.5 33.3333 35 35 0 31.5 0 33 37 38 34 0 43 0 38 38 36.5 0 38 39.1667 45.5 45 38 0 43.5 0 0 0 59.5 63 0 0 0 63.2 61.75 63.2 0 61.75 59 64.55 64.55 63.625 57.8333 57.8333 57.8333 57.8333 0 63.5238 59.8333 59.8333 0 59 59 60 60 60 61.5 59.3333 59.3333 59.5 59.5 0 59.5 74.6 59.8333 59.8333 0 61.5 61.5 61 59.8667 63.375 63.375 70 58.1 53.6667 61.9211 58.7714 0 0 58.7714 61.619 61.619 57.8421 0 57.8421 57.8421 66.6571 61.6042 61.6042 61.6042 61.6667 66.6571 61.075 61.075 63 0 0 0 62.6667 0 62.6667 58.4333 0 0 44 53 53 31 80.3333 59.5 0 73 51 56 56 0 0 0 0 0 0 0 55.5 54.2667 0 0 0 0 48 50.6667 50.6667 0 0 0 0 0 0 0 50.5 0 0 0 0 0 60 0 0 57.6905 59 60.6 60.6 61.1429 61.1429 0 60.6364 61.25 60.6364 60.6364 60.6364 0 61.1429 0 65 60.5 0 0 61.85 0 0 63.6667 58.2 59.1111 59.1111 57.1429 66.3333 57.2857 59.3 59.3 59.3 59.4 59.5 59.4286 59.4286 59.4286 59.4286 59.6667 66.0667 0 59 59 59 59.425 59.425 59.425 60.9 58.1 60.9 0 60.9 60.9 57.3333 58.6667 58.6667 57.5 57.5 58 59 59 59 59.3333 59.3333 59.3333 60.975 64.0714 0 0 0 0 0 0 27.6 27.6 42.5375 42.5375 31.6952 33.1636 60.5 64.8929 52.7143 52.7143 0 52.6515 52.6515 0 52.8333 40.6818 40.6818 0 0 0 40.6818 37 40.6818 40.6818 37 37 38 36.3529 53.2222 53.2222 41.1667 0 0 27.6 0 0 0 0 0 0 0 0 0 0 0 0 0 0 0 0 0 0 0 0 0 0 0 0 0 0 0 0 0 0 0 0 0 0 0 0 0 0 0 0
0 0 49 0 48.5 48.6667 48.6667 48 48 0 49 0 49 0 0 49 49.6667 0 49.8333 49.8333 50 50.1667 50.1667 50 49.5 49.5 49.5 50 50.5 50.6667 50.6667 50.3333 0 50 50 50.5 51 0 50 50 50 50 50.5 51 0 51.5 51.5 51 51 51 51 51.5 50.5 0 58.5682 94 39.25 39.25 39.25 11.375 0 0 0 0 0 0 0 0 0 0 0 0 0 0 0 0 0 0 0 0 0 0 0 0 0 0 0 0 0 0 0 0 0 0 0 0 0 0 0 0 0 0 0 0 0 0 0 0 0 0 0 0 0 0 0 0 0 0 0 37.5379 0 0 20.3137 0 0 0 37.5379 37.5379 0 0 0 22.9118 0 85.6947 0 0 0 0 0 0 0 0 0 0 0 0 0 0 0 0 0 0 0 0 0 0 0 0 0 9.25 8 6 0 0 7.5 11 8 8 0 7.5 7.66667 7 7.66667 0 7.5 8.5 8.5 8.5 8.5 0 7.66667 7.5 7.5 8.33333 8.5 8.5 0 7.33333 7.5 8.16667 7.5 8 0 7.5 9.14286 9.33333 9.14286 0 9.75 9.75 0 6 6 6.5 0 9.25 9.25 8.5 8.5 0 8.5 0 10 9 9.5 10.75 9 0 7 10.75 0 20 20 0 9.33333 16 17 17 0 0 11.5 12.6667 8.5 0 0 0 0 17.3333 0 17 17.1667 17.1667 16.5 0 0 0 0 17 0 0 21.8333 21.8333 22 22 22 23 23 23 0 28 0 25.5 29 29 29 0 0 0 0 0 0 34 33 33 33 34.75 0 47 0 28.5 28.6667 39.5 59 45.3333 0 0 0 40.0833 0 42.5 0 51.5 50.1667 48.6 33 40.5 40 45.25 0 0 34.75 35.75 29.1111 15.3 26.1667 52.6964 33.1667 12.75 31.3333 42.4667 42.4667 42.4667 42.4667 46.5 0 19.3333 0 0 17.05 17.05 17.05 27.3333 27.3333 27.3333 23.7 23.7 23.7 22.3333 32 0 19.5 32 34 33.5 33.5 32.5 32.5 35 34 24.8333 34 12.75 33 34 0 0 32 0 0 34.5 0 38.75 0 35.5 0 37.3 0 0 0 38 38 0 0 39.1667 0 0 39.1667 0 0 37.3333 38 0 74.5 0 53 0 50 63.5 57.6667 62.5 64.55 61 0 61 59 59 54.2091 54.2091 0 0 0 0 0 63.5238 0 73.75 60.5 59.7667 59.7667 0 58.8333 59.2 59.2 59.2 0 59.3333 59.5 59.5 59.5 61.5 58.6667 0 58 59.8333 77.4231 77.4231 59.1623 59.1623 59.8667 0 62 62 61.9211 62 61.9211 61.9211 0 58.7714 61.9211 57.8421 57.8421 57.8421 57.8421 57.8421 57.8421 61.6042 61.6042 64.6 61.6667 61.075 63 0 0 61.075 0 0 0 62.1667 49.5 58 42.5 0 0 0 75 55 59.5 53.5 53.5 53.5 0 0 55 0 0 0 54.7857 54.7857 54 0 58 58 58.8333 0 0 53 48 0 49 0 0 52.75 0 59 0 0 58 58 58 56 56 61.5 57.5 61.8333 58.5 58.5 57.6905 65 0 0 56.5 0 0 60.6364 60.6364 60.6364 60.6364 59.3 60.6364 56.5859 61.1429 0 60.5 56.5 54.15 57.6 57.6 58.2 59.1111 59.1111 59.1111 57.1429 0 59.3 57.2857 57.2857 57.2857 59.3 54.2 59.5 59.4286 59.4286 59.4286 66.2 69.25 80 0 57 57.25 59.425 64.5 60.9 53.5 58.1 58.1 60.9 60.9 60.9 57.3333 57.3333 58.6667 57.5 58 58 59 0 61.5 52 0 0 0 60.6429 0 0 0 0 35.875 35.875 21.1667 27.6 31.6952 31.6952 60.4 64.5 54.8333 51.5 0 51.5 0 0 53 40.6818 40.6818 37 37 50.8 0 0 50.8 40.6818 0 37 37 36.3529 36.3529 36.3529 46.45 41.1667 0 0 0 0 0 0 0 0 27.6 0 0 0 0 0 0 0 0 0 0 0 0 0 0 0 0 0 0 0 0 0 0 0 0 0 0 0 0 0 0 0 0 0
0 0 48.5 48.5 48.5 48.6667 48.3333 48 48 48 49 49 0 0 0 48.5 48.5 48.5 0 49.6667 50 50.1667 48.5 48.5 49 49 49.5 50 49.5 49.5 49.5 0 51 0 49.5 49.5 51 50.75 50.75 50.75 50 0 50.5 51 0 0 0 51 51 51 0 50 50.5 20.3889 0 58.5682 90.3333 52 52 0 0 0 0 0 0 0 0 0 0 0 0 0 0 0 0 0 0 0 0 0 0 0 0 0 0 0 0 0 0 0 0 0 0 0 0 0 0 0 0 0 0 0 0 0 0 0 0 0 0 0 0 0 0 0 0 0 0 0 85.6947 0 0 0 0 0 0 0 0 0 0 0 0 85.6947 85.6947 85.6947 0 0 0 0 0 0 0 0 0 0 0 0 0 0 0 0 0 0 0 0 0 0 0 0 0 0 7.5 7.5 0 6.75 0 0 7.75 0 0 6.75 6.07937 6.07937 6.07937 6.07937 6.07937 7.5 7.5 7.5 7.5 0 7.5 0 0 7 8.5 8.5 7.33333 7.33333 7.5 8.16667 8.16667 8 0 7.5 7.66667 7.66667 7.66667 0 0 9.75 0 0 6 9.75 9.25 9 9 9 9.66667 9.66667 10.5 0 10 10.5 0 13 13 0 9 8 0 11 0 9.33333 18 13.3333 13.3333 12.6667 0 12.1 12.1 0 14 0 0 17 0 0 0 0 0 16 0 0 16.5 19.5 19 0 0 0 0 22 22 0 22.5 24 24 0 0 28 26 27.5 25.5 28 29 0 30 0 0 0 34 32 33 32.5 32.5 0 43.25 43.25 35 19.8333 28.6667 39.5 39.5 26.3333 26.3333 40 0 41.5 42.5 43 0 0 0 0 50.1667 42 39.3333 35 31.75 56 21.5 21.5 46.5 14 0 43.9583 15.3 31.3333 29.1111 29.1111 30.1 52.6964 52.6964 31.2667 33.625 46.5 34 33 31.5 24.1667 24.1667 12 33.5 33.5 22.3333 31.5 31.5 31.5 0 0 33.5 33.5 0 0 33.4 33.4 33.4 33.4 0 0 31.5 0 24.5 34 0 0 0 0 38.5 38.5 35 36 0 0 36 36.5 0 0 37.3 39.5 38.5 38.5 45.5 0 36.5 36.5 36.6 37.3333 0 0 37.3333 0 0 0 0 55.5 56.3 56.3 68.2 55.7857 55.7857 57.55 57.55 0 57.55 54.2091 59 59 54.2091 57.1091 57.1091 0 0 68.2857 0 63.5238 0 0 59.7667 59.7667 59.7667 58.8333 55.4141 60.3889 60.3889 54.7955 66.25 58.75 58.75 70.0316 70.0316 57.4 81.25 0 58.375 58.375 58.375 59.1623 0 59.1623 59.1623 57.3214 59.1623 57.3214 57.3214 57.3214 61.9211 0 61.9211 61.9211 61.9211 57.8421 57.8421 57.8421 57.8421 57.8421 58 58 58 64.359 61 59.6667 0 58.5 59.6667 0 59.5 63 63 58.4333 58.4333 0 0 45 0 53.5 53.5 0 61.5333 0 0 0 0 0 51.3333 0 0 0 0 58 58 0 58.5 58.8333 0 0 0 0 49 56 0 56 56 62 63 57.5714 56.5 57.5714 0 58 0 61.05 61.05 62.25 61.8333 61.8333 58.5 58.5 72.5 57.6905 57.6905 0 58.5 0 0 60.6364 61.25 61.25 56.0476 56.0476 56.5859 56.5859 56.0714 56.0714 56.5 54.15 54.15 0 57.6 0 59.1111 58.2 59.1111 59.1111 57.1429 57.1429 0 59.3 57.2857 59.5 59.5 0 59.3 54.2 0 54.2 58.5 58.5 57.25 57.25 57.25 0 0 57 57.8 0 58.1 57.2 58.1 60.9 54.9167 55.1 57.6 57.6 57.6 57.6 55.6667 55.6667 61 55.5 54.6667 60.975 60.975 60.975 60.6429 60.6429 60.6429 35.875 35.875 35.875 0 64.5 64.5 0 64.5 51.5 0 51.5 0 53.2222 53.2222 36.3529 36.3529 40.6818 40.6818 0 0 0 0 37 50.8 40.6818 37 0 52.6515 0 46.45 53.2222 46.45 42.5375 42.5375 42.5375 0 0 0 0 0 27.6 27.6 0 0 0 0 0 0 0 0 0 0 0 0 0 0 0 0 0 0 0 0 0 0 0 0 0 0 0 0 0 0 0
0 0 48.5 48.5 48.5 48.3333 48.3333 48.5 49 0 48.5 0 49 0 0 47.5 48 48.5 49 49.5 0 48.5 49.8333 0 49 49 49.5 50 50.5 50.5 50.5 0 49.5 50 0 50.2 0 50.75 50 50 50 50.5 0 50.5 50 50.5 51.5 51.5 51.5 0 51 51.5 49.6667 20.3889 0 52 51 51 51 0 0 0 0 0 0 0 0 0 0 0 0 0 0 0 0 0 0 0 0 0 0 0 0 0 0 0 0 0 0 0 0 48.1 0 0 0 0 0 0 0 0 0 0 85.6947 85.6947 0 0 0 0 0 0 0 0 0 0 0 0 0 0 0 85.6947 85.6947 0 85.6947 0 0 0 0 0 0 0 22.9118 0 0 0 0 0 0 0 0 0 0 0 0 0 0 0 0 0 0 0 0 0 0 0 12.3333 0 0 0 0 0 7.5 7.5 0 6.75 0 0 8.33333 0 6.75 8.33333 6 8.33333 6.07937 6.07937 6.4 7.66667 7.66667 0 7.5 0 0 0 0 7 0 8.33333 0 0 0 8.66667 0 0 7 7.5 7.5 7.5 9.66667 9.66667 7.83333 9.16667 0 6 9.66667 7.83333 7.83333 8.5 8.5 9 9.66667 8 11 0 10 10.6 0 10.8333 12 0 0 10.8333 12 0 0 0 0 0 0 8.5 0 0 0 17 18 0 0 17 0 18.5 18.5 0 0 0 0 0 21 21 21 20 20 19.5 19.5 17 21.5 25 0 23.5 0 24 0 27 26 27 26.5 27 0 0 31 33.5 0 0 0 0 0 0 32 14 35.5 35.5 19.8333 56 56 0 40 39.1111 0 40 42 43 0 42 37.25 0 43.1667 43.1667 39 40.3333 39.3333 35 31.3333 42.2 41.125 0 40 37 0 0 40 52.6964 29.1111 29.1111 30.1 30.1 44.5 52.6964 44.5 31.2667 33.625 11.4444 33.8571 33.8571 33.8571 31.5 0 40.5 31.5 42.6667 31.75 42.6667 33 32.8333 32.8333 0 0 34 30.25 30.25 33.4 0 34.9167 33 27.8 34 0 0 0 0 0 35 42 0 34.6667 34.6667 0 35.5 35.5 0 0 37.5 37.5 0 0 37 36.25 40 36.25 36.25 37 0 40.5 38 36.5 0 0 0 0 0 53 55.9444 55.0333 55.0333 68.2 55.7857 68.2 0 0 55.9333 54.2091 54.2091 54.2091 54.2091 0 0 57.1091 57.1091 39 62.7 67.6 57.0714 65.75 72.6667 0 55.4141 55.4141 55.4141 0 60.3889 60.3889 60.3889 54.7955 58.75 0 70.0316 0 81.25 58 58.375 58.375 58.375 58.375 0 59.1623 59.1623 59.3333 59.1623 51 57.3214 57.3214 62 62 61.9211 61.9211 61.9211 61.9211 58.7714 58.7714 57.8421 57.8421 58 59.5 59.5 0 57.25 59.5 57.25 59.5 0 59.6667 59.6667 59.5 0 63 0 57.75 57.25 0 61.5 0 0 0 0 58.3333 58.3333 0 0 0 65.3333 65.3333 0 0 57 58 58 0 58.5 58.5 52 0 56 0 60 0 54.3333 64 0 56.5 59.1667 59.1667 54.5286 55 56.5 56.5 58.6389 56 61.05 61.5 62.25 61.8333 61.8333 58.5 58.5 57.6905 57.6905 58.5 57.5 0 54.0833 0 56.0714 56.5859 0 56.0476 56.0476 0 56.5859 56.0714 0 55.5 54.15 0 0 57.6 63.6667 58.2 58.2 0 57.1429 57.1429 57.1429 0 59.3 44 57.2857 57.2857 59.3 56 0 0 55.6667 55.6667 0 56.1 56.1 56.3333 0 0 57 57.8 56 57.2 57.2 57.2 54.9167 55.1 57.6 0 55.1 55.1 65 60.6429 0 60.975 60.975 0 54.6667 54.6667 60.975 60.6429 60.6429 0 0 55 62 0 60.1333 53.2222 0 51.5 51.5 53.2222 53 53.2222 53.2222 53.2222 0 0 0 40.6818 47 40.6818 0 0 0 55.2 55.2 55.2 52.6515 52.6515 33.1636 33.1636 46.45 0 46.45 42.5375 42.5375 31.6952 42.5375 41.1667 0 27.6 27.6 27.6 0 0 27.6 0 0 0 0 0 0 0 0 0 0 0 0 0 0 0 0 0 0 0 0 0 0 0 0 0 0
0 0 47.3333 48 48.5 48.5 48.5 48.5 0 0 0 0 49 0 0 0 48 48.5 49 49.5 50 49.8333 49.8333 48.5 49 48.5 48.5 48.5 0 50.5 50.5 0 49.5 50 50 50.5 0 50 50 0 50 50.5 51 0 50 50.5 51 51 51 51 0 50 50.5 51 0 52 0 0 0 78.5 25 0 0 0 0 0 0 0 0 0 0 0 0 0 0 0 0 0 0 0 0 0 0 0 0 0 0 0 0 0 0 0 0 0 0 0 0 0 0 75.0545 75.0545 85.6947 0 0 0 0 0 0 0 0 0 0 0 0 0 0 0 0 0 0 0 0 0 0 0 0 0 0 0 0 0 0 0 0 0 0 0 0 0 0 0 0 0 0 0 0 0 0 0 0 0 0 10 10 10 10 10 10 10 0 8.33333 7 0 0 0 0 0 0 0 0 0 9 6.4 6.4 6.4 6.4 0 0 7.66667 6.16667 6.83333 6.83333 8 8 0 8.33333 8 0 8 8.66667 8.66667 0 0 0 7.2 11 7.2 7.2 8 9.16667 0 6 8 9.16667 0 0 8 0 9.16667 9.16667 9 0 10.6 11.6667 12.5 12.5 11.6667 10.6 0 10.8333 8.5 10 0 20.5 20.5 18 17 17 0 13 12 13.75 0 17 0 17 0 18.5 0 0 0 17.6667 17.6667 0 0 21 0 0 0 19 0 19 19 23.5 25 0 26.5 27 0 0 0 0 0 0 30 0 32.5 32.5 0 0 32 0 0 32.3333 58 51.3333 26.6222 17.3333 0 37.8333 37.8333 38 39.5 0 0 0 42 42 42 0 42.3333 42.3333 43.1667 0 0 0 0 35.6 0 31.3333 0 0 36.6667 0 36.5 29.25 0 52.6964 0 40.0833 41.875 40 36 37.25 44.5 19.6667 19.6667 0 23.6667 33 33.3333 0 26.8333 40.5 42.6667 32.5 32.5 0 32.5 33 33.5 0 0 0 34 0 0 0 34 34 34 34 37 0 38.1667 33 33 38.1667 0 35 34.6667 35 0 36 0 37 37 37 37 0 0 0 0 0 36.25 0 0 0 70 40.5 36.5 0 58.25 57.5 57.5 0 57.6 57.6 57.6 55.9444 55.9444 55.0333 55.0333 55.0333 0 54.3667 55.9333 55.9333 58 53.7667 56.375 56.375 55 53.7667 56.25 56.25 62.7 0 62.7 65.75 0 55.4141 0 55.3333 0 60.3889 60.3889 60.3889 60.3889 55.4141 54.7955 66.25 54.7955 70.0316 0 58 57.4 58 61.9211 0 77.4231 0 58.375 77.4231 65.2857 59.3333 65.2857 59.1623 62 67.5254 67.5254 67.5254 0 0 0 58.7714 57.8421 57.8421 56.5 58.25 0 57 58.25 55.8333 56.6667 56.6667 0 58.5 59.6667 59.6667 0 0 57 57 57.75 57.25 61.5 0 57 57 57 58.3333 0 0 0 0 57.25 58 58 58.5 58 0 56.2 0 0 0 0 0 57 58.6389 58.6389 0 0 55 55 56 54.5286 59.1667 59.1667 54.5286 54.5286 56.5 58.6389 58.6389 0 58 61.5 62.25 56.8333 66.1429 66.1429 65.7 57.7 58.5 57.5 0 56.0714 52.5 54.0833 54.0833 54.5 56.5859 56.0476 56.5859 0 56.5859 56.5859 56.0714 58.5 55.5 49.3333 54.15 59.1111 57.6 0 43.5 58.2 44 0 51.6 51.6 53.8333 53.8333 54.6667 0 54.875 54.875 55.5 0 55.6667 54.5 54.5 56.1 56.1 56.3333 55 55 57 0 57.2 65 0 0 54.3333 54.3333 59.6667 54.9167 0 0 80 0 51.4107 54.5 54.5 0 0 0 0 58.5 0 52.75 60.1333 0 0 0 0 0 44 0 53.2222 53.2222 53.2222 53.2222 53.2222 53 53 36.3529 0 44.3333 0 0 0 0 0 0 54 0 0 0 0 0 33.1636 33.1636 33.1636 0 31.6952 31.6952 41 0 33.5 0 0 0 27.6 27.6 0 0 0 0 0 0 0 0 0 0 0 0 0 0 0 0 0 0 0 0 0 0 0 0 0
0 0 0 48 47.4167 0 0 48.5 0 48 48.5 0 47.5 47.5 47 47.5 48 0 49 0 48.5 48.5 48.5 48.5 49 0 0 0 49 49 49 0 49.5 0 50 75.8333 75.8333 51.6667 0 0 0 0 0 50.3333 50.3333 50.5 51 51 51 51 51 0 50.5 51 51.5 51.75 0 0 51.2 0 53.3333 53.3333 0 0 0 0 0 0 0 0 0 0 0 0 0 0 0 0 0 0 0 0 0 0 0 0 0 0 0 0 0 0 0 0 0 0 0 0 0 0 0 0 0 0 0 0 0 0 0 0 0 0 0 0 0 0 0 0 0 0 0 0 0 0 0 0 0 0 0 0 0 0 0 0 0 0 0 0 0 0 0 0 0 0 0 0 0 0 0 0 0 0 10 10 10 10 9.85714 9.85714 10 0 8.33333 8.33333 0 0 7 8 0 0 8.33333 0 8 0 0 0 0 0 0 0 0 0 6.16667 6.83333 8 8 8 0 0 8 6 6 7.25 8 8 8 7 7 7 7.2 8 0 0 6 6 6.5 0 0 7.5 9.16667 8.75 8.75 8.75 9.16667 9.16667 9 0 0 0 10.6 10.6 11.6667 11.6667 29 18.5 18.5 18.5 13.75 12 16.6667 13 12.5 13.5 12.4667 0 0 17 0 17.5 0 19 0 0 0 0 0 22 20.6667 0 20.6667 0 0 19 0 0 0 0 0 0 27 27 0 0 0 31.75 31.75 0 30.5 30.5 24 24 0 44 18.5 56 35.75 0 0 26.5 39 0 38.5 38.5 0 0 39 39 0 0 42 42 0 50.25 40.3333 0 40 0 0 0 0 39.7 24.5 0 36.6667 26 36.5 36.25 48.4 32.5 40.0833 41.875 35.8333 40.0833 37 0 40 34 49 39 39 0 34 0 0 0 33.3333 32.5 0 0 32 32.5 33.5 37 0 35 34.5 34.5 35.5 0 0 34.3333 33.5 0 0 34 35.5 0 34.75 34.75 0 35 35 0 35 35 35.5 38 35.5 37 37 37 37 0 42 0 42 41 36 0 57 0 0 0 58.25 68.2 58.25 0 0 55.9444 0 55.9444 0 0 55.9444 55.6667 55.9444 0 0 54.3667 52.6667 56.25 51 0 55 56.375 55 55 56.25 56.25 56.25 39 62.7 55.3333 58 0 51.25 54.7955 54.7955 60.3889 55.4141 55.4141 55.4141 0 60.3889 54.7955 66.25 54.7955 70.0316 58.75 70.0316 57.4 57.4 0 58 68 68 0 0 65.2857 65.2857 59.1623 62 67.5254 56.8333 56.8333 67.5254 55 67.5254 65.875 0 54 54.5 56.5 58.25 54.5 55.5 55.5 55.8333 0 56.6667 0 56 0 0 56.5 56 57 57.75 57.75 57.25 56.5 56.5 56.5 57 56.5 56.5 56.5 55.5 55.5 57.25 58 58 0 57 0 56.2 56.2 56 55 57.3333 57.3333 61.05 0 0 0 0 58.6389 58.6389 55 0 55 54.5286 54.5286 54.5286 55 54.5286 54.5286 58.6389 0 0 58 57.8036 0 56.8333 56.8333 65.7 0 60 65.7 57.7 57.7 57.7 54.0833 54.0833 0 0 56.0476 56.0476 54.5778 54.5778 56.1667 56.1667 0 56.5 42.5 0 49 49.3333 45.7619 45.7619 55 54 55 51.6 51.6 53.8333 53.8333 54.1667 54.1667 0 0 0 55.6667 55.6667 54.5 59.1429 54.5 54.5 55.3333 63.5 63.5 55.5 0 0 55.5 53 52.5 52.5 52.5 54.3333 61 0 0 0 0 0 54.7 64.4 0 0 54.7 54.7 0 0 0 0 0 0 0 54.7 0 53.2222 53.2222 44 0 53 53 0 53 53 31.6952 33.1636 33.1636 0 0 0 0 0 0 0 0 0 0 0 0 0 0 33.1636 33.1636 31.6952 31.6952 31.6952 41 33.5 33.5 21.1667 21.1667 35.875 0 0 0 0 0 0 0 0 0 0 0 0 0 0 0 0 0 0 0 0 0 0 0 0
0 0 47.6667 0 47.4167 47.4167 47.5 0 47.5 0 47 49 48 48 48 47.5 48 48.3333 49 0 49.5 49.5 0 48.5 49 0 49 50 0 49 49 49 49.5 0 0 49 49.5 50 50 50 0 49 49.5 50 50.3333 50.5 51 0 0 49.5 51 51.5 0 51 51.3333 51.75 0 0 51.75 0 50.6667 44 44 0 0 0 0 0 0 0 0 0 0 0 0 0 0 0 0 0 0 0 0 0 0 0 0 0 0 0 0 0 0 0 0 0 0 0 0 0 0 0 0 0 0 0 0 0 0 0 0 0 0 0 0 0 0 0 0 0 0 0 0 0 0 0 0 0 0 0 0 0 0 0 0 0 0 0 0 0 0 0 0 0 0 0 0 0 0 0 0 0 13.3333 85.3333 13.3333 10 10 10 0 0 0 12 8.3 8.3 8.5 8.5 8.5 8.33333 8.33333 8.25 0 0 0 0 0 0 0 0 0 0 0 6.5 6.5 0 0 0 0 0 0 7 6 0 8 8 6.7 6.7 6.7 7.2 0 6 0 6 0 6.5 0 0 7.5 8.5 10.5 7.75 8.75 0 9.16667 9 9 9 9 0 0 0 10 12.6667 16.5 16.5 19 12.4667 12.4667 13 14 14 0 12.75 0 0 17.5 17 0 19 20.5 0 0 20.5 0 0 22.5 0 0 17 20.6667 0 0 0 0 0 20.5 26.5 27 27 0 28.5 0 27 31.2 31.2 31.2 0 43.25 32 8.5 0 18.5 0 0 0 0 38 37 38 0 39.3333 38 0 0 0 0 0 0 0 42 40.5 45.5 42 43.8333 44 0 0 0 0 0 0 0 36.6667 29 0 0 40.0833 34 0 26.1667 0 0 21 0 41.875 34 34.5 34.5 0 0 32.5 0 0 0 34.5 33 0 0 33.5 0 35 35 0 0 35.5 33 36.1667 0 34.3333 34.3333 35.3333 0 37 0 0 37 34 0 36 35 0 35 35.5 0 0 38 0 0 37 0 0 0 0 0 0 0 0 36 0 70 63.1667 0 0 0 68 55.7857 58.25 0 0 55.0333 55.9444 0 57.6 0 0 54.3333 0 54.3667 54.3667 55.7 57.0714 68.2857 0 0 56.25 51.8 0 0 0 0 0 0 52.5 0 72 54.7955 57.0714 57.0714 57.0714 60 60 60.3889 60.3889 60.3889 60.3889 0 52.5 52.5 0 70.0316 75.3 52.1667 66.6 75.3 0 52.1667 68 58 0 65.2857 65.2857 59.3333 0 61.5 56.8333 46.5714 68 68 80 0 54 54.5 0 54 54.5 53 55.5 55.8333 54 55 55.6 55.6 55.5 56 0 0 56 56 61.75 56.3333 56.3333 56.5 56.5 56.5 61.2 65.5 0 0 54 54 52 52 0 0 56.1667 56.1667 61.8333 0 56.5 62.25 0 0 0 0 0 0 58.6389 56.5 55 0 53.0303 54.5286 54.3968 55.5 54.3968 0 0 53.0303 56.5833 58 58 58 64.1667 0 58 0 56.8333 0 63.6667 0 0 51 58.5 53.75 51.75 53.75 54.0833 55 0 54.5778 54.5778 56.1667 0 58.5 58.5 0 0 49.3333 45.7619 55.75 53.7 55.8333 55.8333 54.5 56 51.6 0 54.5 0 56.5 55.5 59 55.5 0 54.6667 55.2857 0 0 64 55.3333 55.3333 55.5 55.5 63 53 55.5 52.5 52.5 52.5 52 56.6667 0 0 0 0 0 0 57 0 64.4 64.4 54.7 54.7 0 54.2 54.2 0 54.2 54.7 54.2 0 0 0 0 0 21.1667 0 33.5 41 41 31.6952 33.1636 0 0 0 0 0 0 0 0 0 0 0 0 0 0 0 0 0 0 0 0 0 31.6952 0 0 21.1667 0 0 0 0 0 0 0 0 0 0 0 0 0 0 0 0 0 0 0 0 0 0 0 0
0 0 46 46.5 46.5 46.5 46.5 47.5 47.5 0 0 0 47.5 47.5 47 47.5 0 47 47.6667 48 0 0 0 0 0 0 48 48.5 49 0 0 47.5 48 48.6667 49 0 49.5 49.5 49.5 49.5 0 49.3333 0 50 50 50.5 50.5 50.5 0 49.8333 50 50 0 50.5 50.5 51.75 0 50.4 0 49 50.6667 50.6667 0 44 44 0 0 0 0 0 0 0 0 0 0 0 0 0 0 0 0 0 0 0 0 0 0 0 0 0 0 0 0 0 0 92 0 0 0 0 0 0 0 0 0 0 0 0 0 0 0 0 0 0 0 0 0 0 0 0 0 0 26.7273 26.7273 0 0 0 0 0 0 0 0 0 0 0 0 0 0 0 0 0 0 0 0 0 0 0 0 0 0 0 0 13.3333 0 9.85714 9.85714 9.85714 9.85714 9.85714 0 0 0 0 0 0 8 0 0 0 8.25 8.25 8.25 8 0 0 0 6.5 0 0 6.25 0 0 6 0 0 0 0 0 7 8 8 8 7.83333 7.83333 7.5 7.5 7.5 6.7 0 7 0 6 7 6.5 6 6.75 7.5 0 7 7.75 8.5 0 8 9 9.5 0 0 0 0 0 0 8.5 8.5 13.3333 13.3333 12.75 12.75 12.75 13.75 13.75 13.75 0 0 17.5 0 0 0 19 0 0 16.8333 22 0 0 22 0 0 22 21.5 0 21.5 21.3 21.3 0 0 26.5 27 27 0 0 27.7143 55.5 31.2 31.2 55.5 31 12.3333 55 55 24.6667 24.6667 23.1667 0 35 35 0 36 39.3333 0 42.5 39.3333 0 39.3333 40 40.5 40.5 42.5 40.8333 43 35.6 35.6 42 39.3333 43.8333 44 43.8333 43.8333 0 0 49 65 45 0 0 26.1667 0 51.5 37.25 0 35 0 0 25 32 36 40 40 38.5 27.5 27.5 0 0 33.5 33.5 34 0 37.5 32 0 36 36 0 0 0 35.6 32 0 36.1667 35.3333 35.3333 34 34 0 0 0 0 36 36 38.5 0 35.5 0 35 35 35 35.5 0 37 37 37 0 0 0 0 0 0 34.7 34.7 64.55 0 0 0 63.1667 63.1667 57.55 57.55 59 0 0 0 55.9444 54.3333 68.2 53.9167 0 50.3833 54.3333 54.3667 52.8571 0 52.6667 63.5238 54 51.8 0 51.8 72 0 60.3333 59 25.5 0 0 57.4 0 39 54.5 0 0 54.5 60 60 65.5 65.5 55.4141 0 52.5 52.5 0 0 70.7 70.7 66.6 75.3 56.6667 52.1667 55.1667 54 54 54 86.2857 86.2857 69 54.5 54.5 46.5714 68 68 80 87.5 54 81.381 76.1667 55.25 0 53.6667 0 0 54 54 55 55.6 55.5 0 0 55 55 58.5 58.5 61.75 61.75 56.3333 54.5 61 61 65.5 0 55.5 54 54 54.2667 0 53 53 50.5 50.5 0 58.125 55 56.5 0 61.5 57.8036 64.1667 64.1667 58 0 59 59 0 0 53.0303 54.3968 55.5 55.5 0 54.3968 53.0303 53.0303 53.0303 0 0 58 57.8036 57.8036 58 57.8036 57.8036 51.1667 62.75 62.75 51.0833 0 51.0833 53.5 53.75 51.75 51.75 55 53.5 53.5 54.5778 54.5 0 56.5 0 55.5 0 55.5 55.75 0 0 53.7 0 0 0 52.9667 55.3333 53 54.5 54 54.25 54.25 59.2917 0 60.5 60.5 60.1111 60.1111 61.9 61.9 0 53.625 53 0 0 62.25 0 63.75 0 0 0 0 0 0 0 0 0 0 0 64.4 64.4 54.7 54.7 51.4107 60.975 51.4107 51.4107 0 51.4107 0 50.625 50.625 0 0 28.5 0 0 28.5 0 0 0 0 0 0 0 0 0 0 0 0 0 0 0 0 0 0 0 0 0 0 0 0 31.6952 31.6952 31.6952 0 0 0 0 0 0 0 0 0 0 0 0 0 0 0 0 0 0 0 0 0 0 0 0
0 0 0 46.5 46.5 46.5 46.5 47 47.5 0 0 0 47.5 47.5 47 47.5 48 0 47.5 48 48 48 48 48.5 0 48 48 48.5 49 49 49 0 48 49 0 49 49.3333 0 0 0 49.3333 49.3333 49.5 50 0 49 50.5 50.5 49.8333 49.8333 49.3333 49.3333 48.6667 48.6667 50 50.5 50.4 50.4 0 50.6667 0 50 50.5 0 50.5 51.5 49.8333 49.8333 50 0 0 0 0 0 0 0 0 0 0 0 0 0 0 0 53.7692 0 0 0 0 0 0 0 0 0 0 0 0 0 0 0 0 0 0 0 0 0 0 0 0 0 0 0 0 0 0 0 0 0 0 0 0 0 0 0 0 0 0 0 0 0 0 0 0 0 0 0 0 0 0 0 0 0 0 0 0 0 0 0 0 0 0 0 12 0 11.5714 11.5714 10.7333 11.5714 11 11 0 8 0 0 0 0 9 7.33333 9 7.33333 6.7 6.7 7 7.5 7.5 7 6.5 6.25 6.25 6.25 7.5 0 0 7.5 0 8.5 0 0 7.5 8.5 0 8.5 7.70833 7.70833 7.70833 7.70833 7 6.7 7 7.5 0 6 7 0 0 6 7.5 7 8.5 8.5 7.75 7.75 8 0 49 0 0 0 10 0 12 12 8.5 13 14.75 14.75 14.75 13 13.75 11.5 11.5 14 0 0 17.5 17.5 0 19 0 0 18.5 18.5 16.8333 16.8333 18.6667 19.1667 19.1667 22 0 21.5 22.1667 22.1667 0 0 0 0 23.5 27 0 0 25.3333 25.3333 34 30.5 0 31 31 32 32.5 36.25 23.1667 32.8333 0 35 35 36 36 39 39.5 0 42.5 0 37.25 40 0 0 40 32 35.6 0 43.8333 42.5 0 0 44.5 0 0 53.25 47 0 0 45.3333 44 0 0 0 0 35.8333 0 0 0 0 0 35.6 33.5 33.5 0 0 0 45 0 0 0 38 38 38 32 35 0 36 36 34.6667 0 33 0 0 32 32 35.5 0 36.1667 0 0 34 0 34.5 37 0 0 0 0 0 0 0 0 36 37 37 37 0 0 52.3333 0 52.3333 0 52.3333 0 0 55 64.55 61 0 58.5 58.5 58 55.9333 57.25 0 55.9333 57.8889 57.8889 57.8889 59 0 0 54.3333 54.3333 50.3833 54.3333 50.3833 68 55.7 55.7 60.6667 0 0 56.25 51.8 51.8 53.7667 53.7667 0 53.7667 51.3182 51.3182 56.375 56.375 0 53.7667 51.25 54.5 54.5 54.5 60 60 65.5 0 0 52.5 0 0 53.5 54.8 76 56.6667 56.6667 55.1667 55.1667 0 54 54 54 86.2857 69 69 0 0 49 65.8571 65.8571 81.381 81.381 81.381 0 76.1667 53.6667 53.6667 86.3333 54.5 54.5 54 0 50.7778 52.5 55.6 55 55 0 73.3333 51.6727 61 61 0 52.5 52.5 54.7857 54.7857 0 0 54.7857 54.2667 54.2667 54 54 53 53 0 0 0 0 0 56.5 0 0 0 0 0 0 0 58 53.0303 53.5 53.5 0 0 54.3968 54.3968 0 0 53.0303 50.0317 50.0317 53.375 57.25 53.375 57.25 53.375 56.25 0 0 0 61.5 62 62 51.0833 53.5 53.75 0 51 51.75 53 0 0 54.5 54.5 54.5 56.5 65.6667 52.6667 52.6667 0 0 54.3333 55.1429 55.1429 53.6667 63 0 52.9667 55.3333 55.3333 54 54 0 0 0 59.2917 60.5 0 60.1111 0 0 53.625 0 0 0 0 0 0 0 0 0 49 0 0 0 0 0 49 47.5 51 0 54.7 54.2 0 53.3333 0 0 54.5 54.5 0 51.4107 51.4107 50.625 0 0 0 50 0 0 0 0 0 0 0 0 0 0 0 0 0 0 0 0 0 0 0 0 0 0 0 0 0 0 0 0 0 0 0 0 0 0 0 0 0 0 0 0 0 0 0 0 0 0 0 0 0 0 0 0
0 0 0 47 47 47 0 45.5 0 48 48.3333 0 47.6667 47.6667 46.5 46.5 46.5 47 47.5 48 48 48 48 48.5 49 0 48 48.5 48.5 48.5 48.5 49 49.1667 0 0 0 0 49.5 49.5 0 48.5 49 49.5 50 49.8333 49 49.8333 49.8333 48.5 48.5 0 49.3333 48.6667 49.5 50 50.5 50.4 50.4 49 49 49.5 93.6 50.5 51 51 51 51 49.8333 50 0 0 0 0 0 0 0 0 0 0 0 0 0 0 0 0 0 0 0 0 0 0 86.6823 0 0 0 0 0 0 0 0 0 0 0 0 0 0 0 0 0 0 0 0 0 0 0 0 0 0 0 0 0 0 0 26.7273 0 0 0 0 0 0 0 0 0 0 0 0 0 0 0 0 0 0 0 0 0 0 0 0 0 0 0 0 0 0 11.5714 11.5714 11.5714 11.5714 9.35714 9.35714 9.35714 9.35714 9.5 0 0 0 0 7.66667 0 7.33333 7.33333 6.33333 6.33333 6.33333 7 7 6.66667 6 6 6 9 0 0 8.5 8.5 8.5 0 0 7.5 8 8 0 7.70833 7.70833 7.70833 0 7.70833 7.16667 6.5 0 0 6.5 6.5 7 6.16667 7 7 7 0 7.5 0 0 0 7.5 8 11 0 10.2143 10.2143 13 12 12 12 0 0 13.25 13.5 13.5 14 13 13 8.5 16.5 17 17 18.5 19 18.5 18 0 0 0 18.5 18.5 18.6667 19.1667 20 21.6667 0 0 22.1667 0 0 24.5 24.5 26.5 27 27 27 0 0 25.3333 26.25 0 0 0 0 31.6667 29.5 0 32.8333 32.8333 36.5 36 36 0 37.5 0 0 0 38.5 38.5 0 39.5 39.5 0 0 42 0 0 0 0 0 46 45.5 0 0 44 0 46.5 0 0 0 0 0 0 0 35.8333 0 0 0 0 0 0 26 40 40 42.5 42.5 45 34.5 34.5 33 0 0 0 36 36 0 0 0 34.6667 34.6667 34 0 0 35 0 0 0 0 32.5 36 34 0 0 0 37 40 37.6667 37.6667 0 32.5 0 35.5 37 37 37 0 0 0 0 89 0 0 50 55.7 0 0 73.8 57.1091 63.4286 0 64 62.5 62.5 0 0 0 0 55.25 57.25 53.9167 53.9167 61 56.5 53.9167 54.3667 50.3833 50.7 75.0909 68 55.7 55.7 56.5 67.6 0 52.6667 52.6667 51.5833 48.3056 0 48.3056 51.5833 46.1333 46.1333 46.1333 56.375 56.375 53.7667 60.3889 54.5 54.5 54.5 0 0 59.25 65.5 69.75 63.25 63.25 63.25 53.5 53.5 0 36.0667 53 64.5 82.1 0 0 71.3333 71.3333 73.2 73.2 84.3571 84.3571 48 49 49 74.25 67.2568 65.8571 65.8571 0 0 73.3333 51.5 0 52 69.2 69.2 0 56 50.7778 0 54 53.8667 0 0 53.8667 0 50.7333 51 53.8667 52.5 56.5 54.5 51.6727 51.6727 54.7857 0 54.2667 0 0 0 0 52 53.3333 53.3333 0 0 52.5 57.7 65.7 65.7 66.1429 64.1667 0 0 0 0 0 0 56.5833 53.0303 0 0 0 0 54.3968 53.0303 51.5 50.0317 45 50.0317 50.0317 56.25 53.375 53.375 51.1667 54.1667 54.1667 0 0 55.5714 63 53.5 0 0 51 69.5 0 0 54.5 58.5 71 58.5 58.5 52.6667 0 52.6667 0 0 54.3333 53.6667 53.6667 0 51.5 52.9667 52.9667 54 0 54 0 0 0 59.2917 56 59.6667 54.25 0 61.8 30.9286 30.9286 56 30.9286 0 0 0 55 55 0 0 0 0 0 56.6667 56.6667 56.6667 47.5 52.5 0 41.3333 0 0 0 0 0 0 0 52.8 52.8 52.8 0 52 0 48 48.6667 48.6667 0 0 0 0 0 0 0 0 0 0 0 0 0 0 0 0 0 0 0 0 0 0 0 0 0 0 0 0 0 0 0 0 0 0 0 0 0 0 0 21.1667 35.875 35.875 0 0 0 0 0 0 0 0
0 0 46 46.3333 0 0 0 0 0 46.5 47 47.6667 47.6667 47.3333 0 46 46.5 47 47.5 48 0 0 0 47 49 49 0 48.5 47.4667 47.4667 0 49 49.1667 49.1667 49 49 48.3333 50.5 50.5 0 48.8 48.8 50 48.8 48.8 48 49 49 49 49.6 0 49 49 49.5 0 48.5 48.5 48.5 49 49 49.5 0 0 0 0 0 0 0 50 50.5 0 0 0 0 0 0 0 0 0 0 0 0 0 0 0 0 0 0 0 0 0 0 0 0 0 0 0 0 0 0 54 0 0 0 0 0 0 0 0 0 0 0 0 0 0 0 0 0 0 0 0 0 0 0 0 0 0 0 0 0 79.8333 0 0 0 0 0 0 0 0 0 0 0 0 0 0 0 0 0 0 0 0 0 11 0 10.7333 10.7333 10.7333 10.7333 10 10 9.35714 9.35714 9.35714 0 0 9.5 8 8 0 0 6.75 0 0 0 6.5 6.5 6.66667 7.66667 6.66667 0 7 0 0 10.1 9 0 0 8 8 0 0 8.5 7.5 7.5 7.5 7.5 0 7.16667 7.16667 7 0 7 6.16667 0 7 0 7 0 0 0 8.5 0 0 8 0 11 13 13 0 0 12.2 0 13.5 0 8.5 15.3333 15.6667 12.5 0 15.6667 15.6667 0 16.5 0 0 18.5 18.5 18.5 0 0 0 17.2 16.9286 16.9286 0 0 18.5 21.6667 21.6667 20.5 0 0 0 24 0 26.5 27 27 36.8 36.8 0 27.5 0 33.4 0 32 0 32.3 34 0 0 0 34 36 37 37 37.3333 40.5 40.5 0 0 0 0 36.6667 0 0 26 41.5 41.5 42 45.9167 0 43.5 43.5 42.6667 45.5 42.6667 47 0 0 0 0 0 0 0 0 0 0 0 0 0 0 0 0 0 0 42 0 50.1667 35 35 35 0 34 0 0 0 0 0 36 37 0 0 37 0 0 0 0 0 0 0 0 0 40 37.5 0 0 0 0 37.6667 0 0 44 0 0 37 37 37 0 0 51 50 0 56 0 0 51.4286 73.75 63.5238 55.7 55.7 64.8333 0 0 63.4286 54.2091 0 58.5 58 55.9333 57.25 57.25 57.25 55.7 55.7 61 0 0 55.7 55.7 64.8 64.8 57.6667 50.4 50.4 57.6667 50.7 50.3833 51.7667 57.0714 52.6667 0 0 0 0 0 55.7917 46.1333 46.1333 46.1333 46.1333 37 0 0 0 54.5 48.0444 48.0444 59.25 69.75 54.5 71.8333 0 59.8214 84.8333 60.7333 36.0667 36.0667 0 64.5 0 0 82.1 84.1667 14.5 0 73.2 84.3571 0 48 83.5 71 71 67.2568 67.2568 67.2568 0 73.3333 51.5 52 52 69.2 69.2 58 0 56 72.6667 50.7778 50.7778 54 52.5 0 0 61 51 51 0 51 52.5 52 51.6727 52 51.6727 54.7857 0 53.5 71.8 71.8 0 52 52 52.5 53.3333 0 0 0 66.1429 65.7 66.1429 57.8036 64.1667 47.5333 0 56.25 0 0 56.5833 53.0303 0 54.5 52 52 49.0667 49.0667 51.375 49.0667 51.5 50.0317 50.0317 53.375 53.375 61.5333 61.5333 0 54.1667 55.5714 54.75 54.75 59 61.5714 51 52.3333 51 53 70 0 0 0 51 58.5 58.5 65.6667 52.6667 52.6667 0 0 55.875 55.875 52.5 55.1429 55.1429 45.6667 52.9667 0 59.8 63.3333 0 0 61 29 54.25 0 0 0 30.9286 0 30.9286 56 0 62.5 0 0 55 69.5 69.5 0 0 0 0 0 56.6667 56.6667 0 0 0 0 0 0 0 0 31 49 0 0 0 0 0 0 0 0 0 48.6667 0 0 0 0 0 0 0 0 0 0 0 0 0 0 0 0 0 0 0 0 0 0 0 0 0 0 0 0 0 0 0 0 0 0 0 0 0 0 0 0 0 28.5 0 0 0 0 0 0
0 0 0 0 46.5 46.5 46.5 47 0 0 47 47.5 47.3333 47.3333 47 47.5 0 47 47.3333 48 48 48 48 0 47 48 48 0 47.4667 48 48 47.3333 0 48.5 49 49 49 48.3333 48.3333 48.3333 47.8333 47.8333 47 48.8 0 48.5 0 0 0 48 0 0 0 49.3333 50 0 0 48.5 49 49 49.5 50 50.5 0 50 49.5 49.5 49.5 50 50 50 0 0 0 0 0 0 0 0 0 0 0 0 0 0 0 0 0 0 0 0 0 0 0 0 0 0 0 0 0 0 0 0 0 0 0 0 0 0 0 0 0 0 0 0 0 0 0 0 0 0 0 0 0 0 0 0 0 0 0 0 26.7273 0 0 0 0 0 0 0 0 0 0 0 0 0 0 0 0 0 0 0 0 11.5 11.8 0 8.5 8.5 9.3 9.3 10.25 10 10 9 9 9 8.5 8.5 8.5 0 6.75 6.75 0 0 0 0 8 8 8 9.33333 6 10.1 7 7.5 10.1 0 8 8.5 8 8 0 8 8.5 8.5 8.5 0 0 7 0 0 8 0 6.16667 0 0 0 7.7 7.7 8 0 7 7 0 11 8.5 8.5 12 13 13 0 0 28.5 12 0 13.5 0 14 15 18.3333 12.5 0 15 0 17.5 17.5 17 0 17.5 19 0 18.5 0 19 19 20.5 18 0 20 0 23.5 23.5 0 0 0 24.5 26 25 26.5 26.5 45.3333 36.8 0 0 25.5 0 0 0 32 32 34 0 34 0 34.5 35 0 0 37 0 40 0 43 38 39 0 0 0 0 0 0 45.9167 44 0 0 43 44.25 0 42.6667 0 0 0 0 0 0 0 0 0 0 47.5 0 0 0 0 0 0 0 37.25 42 42 0 0 0 35 0 0 0 0 0 0 0 36.5 0 0 0 38 0 38.5 38.5 0 0 0 38.5 39 40 0 0 0 49.75 50.2 0 0 50.6667 50.6667 0 0 0 0 0 37 0 0 62.8333 58 38.8333 89 51 51 51.4286 75.0909 75.0909 55.7 55.7 0 68.2857 68.2857 0 64.8333 54.2091 51.3182 51.3182 53.7667 0 63.4286 63.4286 51.3182 33.3333 63 63 0 56.5 56.5 52.8571 56.5 52.8571 50.7 50.7 0 50.4 50.7 50.7 57.0714 50.7 50.7 51.7667 0 0 0 54.125 0 55.7917 64.25 46.1333 0 37 69.4667 58.8 48.9333 0 53.3056 48.0444 59.25 53.2444 0 0 0 59.8214 0 60.7333 36.0667 36.0667 53 64.5 51.8523 51.8523 51.8523 75.5 0 0 88.7692 43.375 64.3571 43.375 64.3571 83.5 71 67.2568 67.2568 67.2568 67.2568 82 82 52 0 52 63.25 0 66.0714 69.2 0 50.7778 50.7778 0 0 51.3333 0 0 50.7333 50.7333 50.7333 51 49 50 50 50 54.5 54.5 55.5 0 53 0 0 0 0 45 43.6667 52.75 0 0 0 49 65.7 65.7 66.1429 65.7 66.1429 64.1667 58 56.25 0 50.0317 0 54.5 0 52 52.75 51.5 0 0 51.375 0 0 47.1667 58.6 0 57 53.5 51.5 51.5 54.75 0 54.75 59 0 0 52.3333 53.5 70 60.2429 39.5 0 60.2429 60.2429 79.9 79.9 52.125 78.3333 75.9 75.7778 0 68.625 55.1429 55.2 59.0667 0 69.4 52.9667 56.5 0 59 50.1667 0 0 0 50.1667 0 50.5 47.125 0 30.9286 0 30.9286 47.125 47.125 51.2 0 0 62.6667 0 0 0 0 0 49 0 54 0 50.8333 0 0 0 0 0 46.25 50.8788 0 0 43.75 47.7143 0 0 0 46.6667 0 0 0 0 0 0 0 0 0 0 0 0 0 0 0 0 0 0 0 0 0 0 0 0 0 0 0 0 0 0 0 0 0 0 0 0 0 0 0 0 0 0 0 0 0 0 0 0 0
0 0 46 46.5 45.1667 45.1667 45 45.3333 46 46.5 46.5 47.5 47.5 47.5 47 0 46.5 47 47.6667 0 0 0 46 46 0 47 47.1667 0 48 48 47 47.6667 48 48.5 49 48.5 48.5 47.5 47.5 47.5 47 47.8333 48 48.3333 0 48 47.5 47.5 47.5 0 48 49 49 0 48.6667 48.5 48.5 48.5 49 49 0 50 0 49.3333 50.5 50 50 50 49 50 50 0 0 0 0 0 0 0 0 0 0 0 0 0 0 0 0 0 0 0 0 0 0 0 0 0 0 0 0 0 0 0 0 0 0 0 0 0 49.5 0 0 0 0 0 0 0 0 0 0 0 0 0 0 0 0 0 0 0 0 0 0 0 0 0 0 0 0 0 0 0 0 0 0 0 0 0 0 0 0 0 0 0 0 0 0 0 11.5 0 9.66667 9.66667 10.25 10.25 0 8.5 8.5 8.5 0 0 0 0 6.75 0 0 6.5 8.4 0 9.66667 9.66667 7 9.66667 10.1 10.1 7.66667 7 0 0 8 8.66667 8.5 8.5 8 8.5 8.5 8.5 7 8 7 7.66667 7.25 9.5 9.5 7.5 7.5 0 0 0 9 0 0 0 0 0 12 0 7 12 9 0 13.5 13.5 28.5 10 0 17.3333 23 16.75 18.3333 18.3333 12 0 0 14 18 18 18 0 18.25 19 0 0 0 18.5 20 0 23 0 0 23.5 23 23.5 0 0 0 0 26 53.5 53.5 53.5 42.3333 26 0 0 27.5 23 0 28.5 0 0 33 0 0 0 0 0 37 38.5 0 42.3333 0 0 37.5 39.6667 39 0 41 39 41.5 42 0 0 52 43.9583 37.5833 37.5833 0 43.6667 0 0 0 0 45.5 0 0 0 0 10 35 47.5 48 0 0 0 0 0 0 0 0 27.6667 0 0 0 36 0 0 36.5 0 0 0 0 0 37.8 37.8 0 39.5 39.0833 39.0833 41 0 0 0 0 0 0 0 0 0 0 49.75 51 51.5 0 51 0 51 0 37 44 37 0 0 38.8333 38.8333 0 38.8333 80.3333 51 51 0 0 75.0909 75.0909 0 55.7 63.5238 68 68 0 63.4286 51.3182 53.7667 51.3182 51.3182 61.75 51.3182 64.8 0 33.3333 48.3056 45 0 0 0 51.7667 51.7667 51.7667 53.5 50.7 50.4 50.4 50.7 50.4 50.4 50.4 50.2 49.9167 46.6667 50.55 45.5 54.125 48.15 54 60 47.75 37.7333 50.6667 37.7333 48.9333 48.9333 0 50.1111 47.1944 65.2222 65.2222 65.2222 65.2222 59.8214 29.3333 38.9722 47.4762 51.4167 51.4167 56.25 51.3333 51.8523 51.8523 51.8523 0 0 43.375 43.375 88.7692 43.375 49.5 43.375 64.3571 67.2568 0 67.2568 67.2568 0 34 0 48 0 0 0 72.75 72.75 72.75 0 49.25 49.25 0 49 51.3333 48.3571 48.3 48.3 50.7333 49 51 51 52.5 52.5 0 0 48.5833 0 76 0 0 0 53.5 0 71.8 71.8 48.5 48.5 0 0 49 65.7 62 0 61.5 0 0 53.375 57.25 57.25 50.0317 0 0 51.375 51.375 51.5 50.8 49.1667 49.1667 51.3095 51.3095 51.3333 51.3333 51.5 53 0 53.5 53.5 0 0 0 0 61.5714 59 52.3333 67.6667 39.5 49.25 66 39.5 60.2429 0 55 65 55 55 19 23 43.5 58.1667 55.2 59.0667 47.8333 52.5 69.4 47.8333 53 0 0 59.0667 0 61.8 0 49.5 0 0 0 0 53.3333 51.2 47.125 51.2 51.2 47.125 0 0 0 0 0 0 50.6667 0 0 50.6667 0 54 50.8333 0 0 54 0 0 46.25 48.8571 50.8788 45.1667 45.1667 47.7143 47.7143 43.75 43.75 46.6667 0 0 43.6667 48 0 0 0 0 0 0 0 0 0 0 0 0 0 0 0 0 0 0 0 0 0 0 0 0 0 0 0 0 0 0 0 0 0 0 0 0 0 28.5 0 0 0 0 0 0
