6 0 7 0 0 6 7 7 6.5 6.5 6 6 0 0 6.5 0 0 6.5 6.5 6 6 0 5.5 5.5 5 6 0 4.66667 0 0 6 6 0 0 5 5 5 4.5 4.5 0 4 5 4.5 4.5 4.5 0 5 0 0 0 4 4 5 4.66667 4.33333 4 0 4 3.5 3.5 3 3 3.5 3.5 3.5 0 0 3 4 3.5 3.5 3 0 3 3 0 0 2 2 3 0 0 0 2 3 0 1.5 1.5 2 2 2 2 1.5 1.5 1 2 0 1 28 54 54 0 0 0 0 0 0 0 0 0 0 0 0 0 0 0 0 41.5 41.5 41.5 0 48.5833 36 0 40 39.5 39.5 39.5 40 41.2 0 0 42.6 42.6 0 41 42.5 0 40.4 41 41 42 0 0 41.5 41.5 40.5 40.5 41 40.5 40.5 41 41 0 0 0 0 40 41 0 0 40 0 0 0 38 0 0 42 35.3333 41.5 41.5 36 39 39 37.5 36 35.3333 35.3333 35.3333 0 24 22 0 36 36 36 35.5 35.5 35 35 35 35.5 36 0 0 35 35 35 0 0 0 0 32 32 0 0 0 31 0 0 31 0 0 0 29 29 29 28 28.5 0 0 0 27 27.5 0 27 0 0 0 0 0 24 0 24 0 0 23.5 0 0 0 23 0 0 21 21 0 22 21 0 23 20 21.9 21.9 19.9286 20 17.25 0 22 24.5 0 24 24.5 25 25.5 25.5 0 0 0 25 25 26 26 26 26.5 26.5 27 27 0 0 0 28 0 0 26 27 27 27 0 26 27 0 27 26.5 0 27 0 27 0 27 26.5 26.5 0 25.5 26 0 25 26 0 25 25 0 24.5 25 26 0 0 0 24 0 25 0 0 0 23.3333 23.3333 0 0 22.5 23 23 23 22.75 22.75 22.3333 0 0 0 0 22 0 21 0 0 0 0 0 0 0 0 0 0 0 0 0 0 11.5 0 13 0 0 0 11 0 0 10 9.5 9.5 10 10 0 9.5 10 0 0 0 9 9 0 0 0 0 9 0 8 8 8 8 0 8 0 8 8 0 0 0 0 0 8.5 0 0 7 22.9091 0 15.7902 15.7902 15.5 8.5 22 0 0 0 0 11 0 0 0 0 20.6667 26.5556 19 19.3333 19.3333 19 0 19 19 18.6667 18.6667 0 0 19.5 20 19 20.8333 20.8333 21.5 21.5 22 21 21 0 21 0 0 0 20 21 21 21 0 20.5 0 20 0 19 0 20 0 19.5 17 0 17.5 18 0 17 0 0 0 0 0 18.5 0 18 0 0 16.5 16.5 0 0 0 15 0 14.6667 0 15 0 0 0 0 0 0 0 0 10 11.5 11 0 11 11.3333 11.5 0 0 0 12.5 12.5 0 0 12.1667 13 11.5 12.5 0 12 0 0 0 0 14 0 13.5 0 0 12 13.5 13.5 14 0 0 0 0 13.5 13.5 14.5 15 15 0 15 0 15 0 14.5 14.5 14 0 0 0 0 0 0 0 20 20 22.5 14.5 14.5 15.5 13.5 13.5 0 15 0 14.6667 0 14 0 0 0 0 0 0 13 0 0 0 0 11 0 0 0 0 0 0 0 0 0 0 0 0 0 0 0 0 0 0 0 0 0 0 1.5 0 0 0 0 0 0 0 0 0 0 0 0 0 -22.5 -22 0 0 0 -23 -23 0 -23.5 0 -24 -23 -23 -23 -22.5 0 -23 -23 0 -23 0 0 -23 -23 -23 -23 -23
6 8 8 0 0 7 7 0 0 0 0 6 5.5 5.5 6.5 7 0 6.5 6.5 6 6 0 5.5 5.5 5 5 0 0 0 0 6 6 5.66667 5.66667 5 5 5 5 5 5 0 5 4.5 4.5 0 0 0 4.5 4.5 4 0 4 4 4.33333 4.33333 4 4 0 0 0 0 0 0 3.5 3.5 3 4 0 3 3.5 3.5 3 0 3 3 2.5 2.5 2 0 0 0 0 0 2 3 3 2.5 2.5 2 2 2 3 0 0 0 0 0 17.8333 46 0 0 0 0 0 0 0 0 0 0 0 0 0 0 0 0 0 0 0 0 0 41.5 44 0 39 0 39.5 39.5 0 0 43 0 0 42.6 42.3333 0 40.75 0 0 40.4 41.3 41.3 42 42 0 41.5 41.5 40.5 40.5 0 40.5 40.5 41.5 0 0 40 40 0 40 41 0 0 0 39.5 39.5 0 31.75 31.75 0 36 40.25 0 0 0 38 38 36.5 0 40.25 40.25 40.25 36 35 29.5 0 36 0 36 35.5 35.5 35 35.5 34.5 34.5 0 0 0 35 35 34 34 0 0 33 0 32 32 31.5 31.5 31 0 0 0 31.5 31 0 0 0 0 30 28 0 0 0 0 27 27 0 25.5 25.5 25 0 0 24 24 0 24 0 0 24 0 0 22 0 0 21 21 22 21 0 0 23 20 19.5 19.5 20.9048 20.9048 19.9286 23 23 24.5 24.5 24 24.5 25 25 0 26.5 26.5 26 26 0 0 26 26 26.5 26.5 0 25.5 27 27 25.5 28 0 0 26 27 26.5 26.5 0 0 0 27 0 28 0 0 27 27 27 0 26.5 26.5 26 0 26 0 0 25 0 25 0 25 0 0 0 0 24 25 25 25 0 24 24 0 0 23.3333 0 22 22.5 23 0 23 22.75 22.3333 22 22 21.6667 0 22 22 0 21.5 22 0 0 21 0 0 0 0 0 0 0 0 0 0 11.5 12 12.5 0 0 0 0 11 0 10 0 9 10 10 0 10 0 0 9 0 0 0 9 0 8 0 8.5 0 8 8 0 0 8 8 0 0 7 0 7 0 0 0 0 28 28 0 0 15.7902 15.7902 22.9091 0 8.5 17.5 19.25 19.25 3 22.1667 22.1667 12 17.0833 0 17.0833 20.5 26.25 0 25.5 0 19 0 0 0 0 0 19 0 0 19.5 0 0 20.8333 21.5 0 21.5 21 21 0 21 21 0 21 21 0 0 0 0 20 0 0 0 0 19 0 0 0 18 0 0 18 17.5 17.5 0 0 0 0 18 18.5 0 18 0 0 15.5 15.5 0 0 15 15.5 0 14.6667 14.6667 0 13.5 13.5 0 0 0 0 10.6667 0 0 10 8 11 10.6667 0 12 12 0 11 11 12.6667 12.5 0 12.1667 12.1667 12.5 0 0 0 13.5 13.5 14 14 0 14 14 14 0 0 13 0 0 0 0 13 13.5 0 0 0 0 0 0 0 0 0 0 14 0 15 0 0 13 13.5 0 0 14 29 0 0 14.6667 10.5 15 0 13.6667 13.6667 0 10.5 14.6667 0 0 13.3333 0 14 0 0 13 13.8333 13.8333 14 0 0 0 0 0 0 0 0 0 0 0 0 15 18 0 9.33333 0 0 0 0 0 0 0 0 0 0 0 0 0 0 0 0 0 0 0 0 0 0 0 -22.5 -22 0 -23 -23 -23 0 -23 -23 -23 -23 0 -22 0 -23 -23 -23 0 0 0 0 -24 0 -22 -23 -22 0
6 7.5 8 7.5 7.5 7 7 0 6.5 6.5 7 0 5.5 5.5 6.5 7 7 6.5 6.5 6 6 6 0 0 5 0 0 5 5 0 6 6 5.66667 5.33333 0 5 5 4.5 4.5 0 0 0 0 0 4.5 0 5 4.5 4.5 4 5 0 4 3.5 3.5 4 4 0 3.5 3.5 3 3 0 3.5 3.5 3 4 0 3 3.5 3.5 3 3 0 0 0 0 0 2 2 3 3 0 2 3 0 0 0 0 0 0 0 0 0 1 2 2 36.3333 0 0 0 0 0 0 0 0 0 0 0 0 0 0 0 0 0 0 0 0 40.5 40.5 40.5 39 36 0 39 0 0 40 0 41.3333 41.5 0 42.3333 42.3333 0 40.75 40.75 0 40.4 40.4 40.4 42 0 41 0 0 41 41 0 0 40 0 0 40 39.5 39.5 40 40 40 0 0 0 0 0 39.6667 39.6667 35 0 39 39 38.5 38.5 39.5 38 38 36.5 36.6667 36.25 36.25 36.25 42 42 44.6667 0 0 0 37 0 0 0 0 0 35 35.5 0 35 0 0 33 0 0 0 0 34 0 0 32 32 31 30.6667 0 0 29.6667 29.6667 31 0 0 0 29 0 29 29 0 0 27.5 0 0 25.5 25.5 25 0 25 0 24 0 24 24 23 0 0 0 0 0 22.5 22.5 0 22 0 0 21 21.5 0 0 0 20 20.9048 19.9286 23.5 23.5 23 23.5 24 24.5 25.5 0 25.5 25.5 25.5 25 25.5 0 26 25.5 25.5 27 27 27 28 26.5 26.5 27.5 27.5 27.5 27 0 0 0 27 0 0 27 27 27 0 0 28 27 0 26.5 0 26.5 26.5 26 0 26 0 25 25 0 25 0 25 0 0 0 24 25 25 25 0 25 0 0 0 0 23 0 22 22.5 23 23 23 0 22.3333 0 22 21.6667 21.6667 21 0 0 21.5 21.5 0 21 0 21 0 0 0 0 0 0 0 0 0 12 0 0 0 0 0 0 0 0 0 10 0 0 0 10 10 10 0 0 8 8 8.5 0 8 8 8 0 0 0 0 0 8 8 8 0 0 0 7 0 0 0 10.697 14.2727 0 0 0 10.697 15.7902 15.7902 15.7902 3.11765 -1 0 0 0 11.8222 22.2 22.2 24.3333 19.2 19.2 20.5 17.75 17.75 20 0 19.5 0 19 18.5 19 20 0 19 0 19 0 0 19 0 0 0 0 0 22 0 21 21 0 20.5 21 0 0 0 0 21 0 19.6667 0 19 19 20 0 0 18 18 18.5 18.5 0 18 18 0 0 0 19.3333 18 18 0 0 0 0 16 15 16 0 0 16 0 0 15 0 0 0 0 12 11.8333 0 10.6667 10 0 10 0 11 11 11.5 0 13 11.6667 0 12.6667 12.6667 0 0 13 0 0 0 14 14 0 14 15 0 0 14 14 0 0 0 0 0 0 14 14 13.6667 14 14 0 0 15 15 0 15.5 0 0 14 0 14 15 0 14 0 0 0 14 14 0 0 0 11.3333 0 13 13.6667 12.5 12 11.3333 11.3333 12 0 0 0 0 14.5 14.5 0 14.5 0 0 0 0 0 10 0 0 0 0 0 0 0 0 0 0 0 10.5 0 0 0 0 0 0 0 0 0 -1 -3 0 0 0 0 0 0 0 0 0 0 0 -23 0 0 -23 -22 0 0 -23 0 0 -23.5 -23 -23 0 0 0 0 0 0 -23 -23 -23 -23 -22.5 -22 -22 0 0
6 7.5 8 0 0 0 0 7 6.5 6.5 7 0 5.66667 5.66667 6 6.5 7 0 0 6 6 0 0 0 0 5 6 5.5 5.5 0 6 6 5.33333 5.33333 0 0 0 0 0 5 5 5 4.5 4.5 4 4.5 0 4.5 4.5 4 0 0 0 0 0 4 4 0 3.5 3.5 3 3 5 0 0 3 4 4 0 0 0 3 3 0 3 2.5 2.5 3 0 2 2.5 2.5 2.5 0 3 0 2.5 2.5 0 2 2 3 0 0 1 2 -8.33333 1.5 1.5 0 0 0 0 0 0 0 0 0 0 0 0 0 0 0 0 0 40.5 40.5 42.3333 42.3333 0 0 0 40 40 40.5 40.5 40 40.2 41.3333 41.5 43 0 0 0 40.75 0 42 43 42.5 42.5 41 0 0 41.5 42 0 0 41 0 41 41 0 40 39.5 39.5 0 0 0 40 0 0 40.1667 40.1667 39.6667 0 35 0 45.6667 36.25 36.6667 36.6667 42 38 38 36.5 39.6667 42 37.5 37.5 0 0 0 0 0 36 37 0 0 0 37 37 0 35 35 35 34.5 34.5 34 34 34 33.5 33.5 34 0 32 0 0 31 30.6667 30.6667 0 29.6667 0 31 0 0 0 0 27 29 29 29 28.5 28 0 0 0 0 25.5 0 0 0 24 24 24 0 23 0 0 0 22 23 22.5 22.5 0 22 0 0 21.5 0 0 0 0 0 0 0 24 21.6667 0 23.5 24 24 25.5 25.25 25.25 25.25 25 25 0 0 26 26 26 27 27 27 27 26.5 26.5 28.5 0 0 0 0 27 27 0 0 26 27 27 27 28 0 27.5 27.5 27.5 27.5 0 0 0 26 0 26 0 26 25.5 0 25 0 0 25 25 0 0 25 25 25 0 25 0 0 0 0 0 23 0 23 23 23 24 22 23 0 22 0 21 21.5 22 0 21 21.5 0 22 0 0 21 21 0 0 0 0 0 0 0 0 0 0 0 0 11 0 10 0 10 0 0 9 10 10 0 10 9.5 9.5 0 0 0 0 8 8 8 8 8 0 22.5 8 8 8 0 0 7 0 0 0 -1.5 0 20 7 7 7 10.697 10.697 10.697 10.697 15.7902 16.6571 15.25 1.5 0 17.5 0 21.6667 21.6667 0 0 18 19 25.6 17.75 0 0 19.5 0 19 19 19 19 0 19 19.5 20.5 0 20 20 20 20.5 21 0 0 22 0 0 21.5 0 21 0 20.5 21 0 0 20.5 0 19.6667 19.6667 0 0 0 0 0 0 0 0 0 0 16.3333 16.3333 18 0 0 18 18 18 0 0 0 0 16 0 15.5 0 0 0 0 15 0 15 0 0 0 12 11.8333 0 0 10 10 0 9 0 0 0 12.5 0 11.6667 9 12.5 12.5 13.6667 0 0 13 0 12 11.5 11.5 12.5 0 14.5 12 14.3333 0 0 13 12.5 13 14 14.3333 14.5 14.5 14.5 13.6667 13.6667 14 0 13.5 15.5 15.5 0 0 15 0 0 14 14 14.5 14.5 0 0 13 0 13 0 0 17.3333 0 14 0 0 0 12.5 10.5 11.3333 0 0 12 0 0 22.5 14 0 0 0 0 0 11 0 0 0 0 0 0 0 0 0 0 0 0 0 0 0 0 0 0 0 0 0 0 0 0 0 0 0 0 0 0 0 0 0 0 0 0 0 -22 0 0 0 -22 -22 0 -22 -22 -22 0 0 0 0 -22 0 -22 0 -22.5 -23 -23 -23 -23 -23 -22 0 -23 -23
0 0 0 7.5 7.5 7 7 7 6.5 6.5 7 0 5.66667 0 0 0 0 7.5 7.5 0 6 6 6.5 6.5 0 5 6 5.5 5.5 5.5 0 0 0 0 0 0 0 0 4.33333 5 5 0 4.5 4.5 4 4.5 5 0 0 4 5 5 0 3.5 3.5 4 4 4 3.5 3.5 3 3 5 0 0 0 0 0 0 3.5 3.5 3 3 4 0 2.5 2.5 3 0 2 2.5 2.5 0 0 0 3 2.5 2.5 0 2 2 3 2.5 2.5 0 2 0 1.5 1.5 0 0 0 0 0 0 0 0 0 0 0 0 0 0 42 0 0 0 40.5 41.5 41.5 0 41 40 0 39.5 40.5 40.5 40 40.2 43 43 43 0 0 0 41 0 42 0 0 0 41.5 41.5 41 41 41.5 0 0 41 41 0 41 41 0 0 0 40 40 40 0 40.5 0 0 0 0 40 44.6667 42 0 42 39.6667 39.6667 40 40 0 37.6667 37.6667 39 29.5 29.5 31 31 32.3333 0 33.5 0 0 0 0 0 37 37 0 0 0 0 34.5 34.5 0 35 33 34 34 0 0 0 32 32 30.5 31.5 31.5 31.5 32 0 31.6667 0 0 0 30 0 0 28 28 28.5 0 0 0 0 0 0 0 24.5 0 0 24 24 0 0 0 0 0 22 0 22 0 22 0 0 0 22 0 21.5 21.5 20 20 19.6667 19.6667 24.5 21 0 24 24 24 24.5 25.25 25.25 25.25 25 25 25 25 26 26.5833 26.5833 0 0 0 28.5 27 27 27 0 0 27 0 27 27 27 27 27 27 27 27 27 0 27 27 27 27 26.5 26.5 0 26 0 26 0 26 25.3333 25.5 0 24.5 24.5 25 0 25 0 25 24.5 26 0 26 0 24.5 24.5 0 0 23 0 0 0 0 23 0 0 0 22 22 0 0 0 23 23 0 22 22 0 0 0 0 0 0 0 0 0 0 0 0 0 0 11 0 11 0 10 0 0 0 0 0 9 10 0 0 10 0 0 9 0 0 8 8 0 0 0 0 0 8 8 8 0 0 0 0 7 7 0 0 18.6667 0 0 10.4 10.697 10.6667 10.697 10.6667 15 0 9 0 0 0 19.75 2.5 0 19.6667 17.25 19.2 0 17.0833 17.75 0 20 0 19 0 20 20 0 0 19 19.5 20 20 20 0 0 0 0 22 23 0 0 0 21.5 0 21 0 0 21 21 0 21 21 0 20 0 20 20 0 19 0 0 0 18 0 18 16.3333 18 0 0 18 16.5 16.5 18 18 0 18 0 0 16 0 15 15 15 15.5 0 15 0 0 0 11.8333 12 10.6667 10 0 0 0 0 9.5 9.5 0 10.5 12.5 0 0 13 9 13.6667 13.6667 0 0 12.5 12.5 12 12 12.5 0 0 0 12.5 12.5 0 13 0 13.5 0 0 0 0 0 0 14 0 0 13.5 0 0 0 14.5 15 15 14.5 14.5 15 14.5 14.5 0 0 0 13.5 22.5 29 0 14.5 14.5 14.5 14.5 0 14.3333 0 0 11.3333 11.3333 12.5 0 0 0 0 13.6667 13.6667 0 0 0 0 11 0 10 0 0 0 0 0 0 0 0 0 0 0 0 0 0 0 0 0 0 0 0 0 0 0 0 0 0 0 0 0 0 0 0 0 0 0 -22.5 -22.5 -21 0 0 -22 -22 -22 0 -22 -22 -22 -23 -22 0 0 0 -22 0 -22 -22 -22.5 -22.5 -22.5 -22 0 0 0
0 6 8 7.5 7.5 7 0 7 6.5 6.5 7 0 0 0 0 6.5 7 6.66667 6.66667 6 0 6 6.5 6.5 0 5 5 5.5 5.5 5.33333 0 6 5.5 5.5 5 6 0 4.33333 4.33333 5 5 0 4.5 4.5 4 4.5 5 0 0 0 0 5 5 0 0 4 4 4 0 0 3 3 5 0 0 0 4 4 4 3.5 3.5 3 3 4 0 2.5 2.5 3 3 0 0 0 2.5 3 3 3 2.5 2.5 0 2 2 0 0 0 0 0 2 2.5 2.5 2.5 46.5 0 0 0 0 0 0 0 0 -4.66667 0 -17.5 -17.5 42 0 39.75 0 41 41.5 41.5 41 41 0 40 41 41 41 39.75 0 41 0 0 0 0 0 41 40 41.5 0 41.8 41.8 41.5 41.5 41 41.5 0 40.5 40.5 41 41 0 41 41 41 40.5 40.5 40 40 0 40 39 39 39 0 0 33.5 40 31 0 39 37.6667 37.6667 40 37.6667 38 37.6667 40 35.25 39.6667 39.6667 28 35 37 30 30 18 0 0 0 0 0 36.5 35 35.6667 35.5 35.5 0 0 0 0 33 33.5 33.5 0 0 32 32 32 0 30.5 30 30 31 32 31.6667 0 0 0 0 0 0 29 0 0 0 0 0 0 0 25 25 0 0 0 24 0 24 0 24 0 0 22 22 0 22 22 0 22 0 22 0 0 0 20 21 19.6667 20.5 21.5 21 24 24 24 24 24.5 25 25.25 24.5 25.25 0 0 0 25 27 26.5833 28 0 0 0 26 26 26 0 0 0 0 0 27 0 28 27 0 27 27 27.5 0 0 0 0 0 26.5 26.5 27 0 0 26 26 0 0 25.5 0 25 25 25 25 0 0 24.5 24 25 0 25 0 0 0 0 23 24 0 0 0 23.5 0 0 22 22.5 22.5 0 0 0 22 22 23 0 21 22 0 0 20 20 0 0 0 0 0 0 0 0 10.5 10.5 0 0 0 0 11 10 0 10 10 0 0 0 0 9 0 0 0 0 8 8 8 8 8 0 8 0 7 8 0 0 7 0 7 0 0 7 7 0 0 0 7.4 7.4 9.45 15 10.6667 10.9182 15 10.697 -4 0 0 17 19.75 18.3333 19 0 17.25 18.5 18.5 19.2 19.2 0 20 20 19.5 19 19 0 19 0 0 0 0 20 20 20 20 20 20 20 21.5 21.5 0 0 0 0 21 21 21 0 0 21 21 20.5 21 0 20 0 0 0 0 19 0 0 0 0 18.5 0 18 0 0 19 17 17 18 18 18 18 0 0 15.3333 15.3333 0 15 15 15.5 16 14.5 0 0 0 0 0 0 0 0 9.5 0 0 11 0 0 12.5 10.5 0 0 13 15 13 12.5 0 0 11.6667 11.6667 13 0 12.5 13 0 0 0 0 0 0 13 13 14 13 0 14 14 0 0 14 14 14 15 15 0 14.5 15 0 14.5 14.5 15 14.5 14.5 14 0 0 0 0 0 0 0 0 15 11.3333 0 0 14 0 11.5 12 15.1667 13 13.5 0 14 13.6667 14 0 0 0 0 0 0 0 0 0 0 0 0 0 0 0 0 0 0 0 0 0 0 0 0 0 0 0 0 0 0 0 0 -14 0 0 0 0 0 0 0 0 0 -22 -22 0 -21 0 -21.5 0 -21 0 -22 -22 -22 0 0 -22 -21.5 -21.5 -21.5 -22 0 -21.5 0 0 0 0 0 0 0
7 7 7.5 7.5 7.5 7 0 0 0 0 0 7 6.5 6.5 6 6.5 7 6.66667 6.33333 6 7 0 6.5 6.5 6 0 0 5.5 5.5 0 5.5 0 5.5 5.5 5 6 6 0 0 5 5 0 0 0 0 0 0 5.5 5.5 0 4 5 5 4.5 4.5 4 4 0 0 0 0 0 4.5 4.5 4.5 0 4 4 4 0 0 3 3 4 4 0 0 3 3 3 2.5 2.5 2.5 3 0 3 2.5 2.5 3 0 2 0 2.66667 2.66667 0 2 2 2 1.5 1.5 47 0 0 0 0 0 0 0 0 0 48.5 0 0 42 39 39.75 42 0 0 0 0 0 0 0 0 39.75 39.75 39.75 41.8 42 43 42.5 42.5 42 0 41.5 41.5 43 41.8 41.8 41.8 0 41 41 42 0 41.5 41.5 41 41 40 41 41 41 0 0 0 39.5 39.5 40 40 40 40 0 0 33.5 39.5 35 35 39.6667 35.25 35.25 36.5 38 38 38 36.5 35.25 40 40 37.1667 37.1667 0 0 0 0 0 0 0 35 0 35 35 35 0 0 34.5 34.5 34 0 33.5 34 34 0 0 0 31.5 31.5 31.5 32 31.5 31 32 32 31.6667 0 0 0 29.5 29.5 0 0 0 28.3333 0 0 0 0 0 26 24.5 24.5 24.5 0 24 0 23 23 22.5 22.5 0 22.5 23 0 22 22 21.5 21.5 0 21 0 0 0 0 19.5 20.8333 20.8333 20.5 20.5 22.5 22.5 24 24 0 24.6667 24.5 24.3333 24 0 25.5 0 0 27.1667 27.1667 28 0 0 26.5 28 28 0 27.5 27.5 0 27 0 26 27 0 27 0 27 28 28 0 27 27 28 28 0 0 0 0 0 0 26 0 25 25 0 25 25 25 25 25 25 0 24 24 0 25 0 24.5 24.5 24 24 0 24 0 0 24 0 0 22 22.5 22.5 0 22 23 0 21.5 22 0 0 21.6667 0 0 0 0 0 19 0 0 0 14 0 10.5 10.5 0 0 0 0 0 0 0 0 0 0 0 0 9 0 0 0 0 0 0 0 0 0 0 8 0 8 0 7 8 0 0 7 0 0 7 0 0 0 0 28.5 0 12.1 15 9.45 10.9182 10.9182 10.697 10.6667 10.697 -4 5 0 -2 18.3333 18.3333 19 19 19 19.6667 18.6667 0 21.3333 21 0 19.5 0 19.5 19 19 19 20 20 0 19 20.5 20.5 20 21 19.5 20 20.5 0 22 21 21 21 22 0 21.5 0 20.5 21 0 0 0 20.5 20 20.5 20 20 0 0 0 19 19 18 18 0 18 0 0 18.5 19 16.5 16.5 0 18.5 0 17 17 0 17 15.3333 0 15 0 15 14.3333 14.3333 0 0 0 12.5 12.5 10 0 10 9.5 9.5 0 9.5 11 11 0 10 0 12.5 11 14 0 0 0 12 11.6667 0 0 0 12 13 13.5 12 0 13 13 13 0 0 0 0 0 14 14 14 0 0 0 0 15 15 15 15 15 15.5 15.5 15 14.5 14.5 0 14 14 13 14 14 0 0 0 14.5 14.5 11.5 0 0 0 13.5 13 16 14.3333 14 13 13.5 12 0 0 0 0 0 12 0 0 0 0 0 0 0 0 0 0 0 0 0 0 0 0 0 0 0 0 0 0 0 0 0 0 0 0 0 -16 0 0 0 0 0 -21 0 0 0 -22 -22 -21 -21 0 -22 -21.5 -21 -18 0 0 0 -22 0 0 0 0 0 0 0 0 0 0 0 0 0 0
7 7 7.5 7.5 7.5 7 8 0 6.5 6.5 7 7 6.5 6.5 6 6.5 7 6.33333 6.33333 6 7 0 0 0 0 6 6 5.5 5.5 5 5.5 0 5.5 5.5 5 6 6 5.5 5.5 0 5 0 0 0 5 0 4.33333 5.5 5.5 5 0 5 5 4.5 4.5 0 0 4 4.5 4.5 4 0 4.5 4.5 4.5 4 4 4 4 0 0 4 0 4 4 0 0 2 3 3 0 0 2.5 3 4 0 2.5 2.5 0 0 0 3 2.66667 2.33333 2 0 2 2 1.5 1.5 0 0 0 0 0 0 0 0 -6.5 -4.66667 -7.5 39.75 39.75 39.75 39.75 39.75 42 0 39.5 39.5 41 41 0 0 0 0 41 41 40 42 0 42 42 42 43 43 0 42 41 41 41 0 41 42 42 41.5 42 42 42.5 0 42 41.5 41.5 41 41 40.6667 41 41 0 0 41 39.5 39.5 0 33.5 30 39.5 39.5 39.5 39.5 39.5 40 40.5 39.5 39.5 39.5 39 38 38 38 37.1667 30.6667 33.6667 29.75 29.75 36 37 0 0 0 35.5 35 35.6667 0 0 35 34.5 34.5 0 0 34 0 35 0 0 0 0 0 0 32 0 0 32 32 32 0 0 0 30 30 0 0 29 0 0 0 0 26 26 26 26 0 25 0 0 0 24 0 0 0 22 22.5 23 0 22 0 0 0 0 22 21.5 0 0 0 21 0 20.8333 22 20.5 22.5 22.5 24 0 24 24.6667 24.3333 24.3333 24.5 0 25.5 0 25 26.5 26.5 27 0 0 0 25.25 27.5 25.25 0 0 27 27 27 0 26.5 0 0 27 28 28 28 28 0 27 28 28 0 0 0 0 0 26 0 0 0 0 25 0 25 0 0 0 0 25 0 26 26 0 0 0 0 24 24 24 0 0 0 0 0 0 0 22 23 0 22 23 0 22 22 0 0 21.6667 21.6667 0 0 0 0 20 0 0 0 14 0 0 0 0 0 0 0 10 0 10 0 10 0 9 0 10 0 0 8 0 0 8 8 0 0 7 8 8 8 0 7 8 0 0 0 0 0 0 0 6 0 6 12.6667 0 25.75 7.4 10.9182 12.1 15 15 15 15 -6.22222 18.3333 6.5 -2 18 17.3333 18.6667 19 19 19.6667 18.6667 18.6667 0 19.5 21 0 0 0 20 20 0 20 20 20 20 0 0 21 0 20 0 20 0 22 22 21 21 0 0 0 21.5 21 0 21 0 21 0 0 0 0 20 0 0 19 0 0 18 0 18 18 18 0 0 18.5 17 17 18.5 17 18 0 16.5 16.5 0 16 0 15 15 0 0 14.3333 0 0 0 12 10 0 0 0 0 0 9 0 11 11 11.5 11.5 11 11.5 12 0 12 12.5 12.5 12 12 12 13 12 0 0 12 13.5 13.3333 13.3333 14 14 13 13 13 13 13 13 13 14.5 14.5 14 14 0 0 15 15 15 15 15 0 0 15.5 15.5 0 0 0 13.5 13 0 13.5 15 0 15.1667 15.1667 16 13.5 15 0 13 15 16 18.6667 12.45 12.45 15.6667 0 12.5 0 0 0 12 12 0 0 0 0 0 0 0 0 0 0 0 0 0 0 0 0 0 0 0 0 0 0 0 0 0 0 0 0 0 0 0 0 -19 0 -20 -20 0 0 -22 -21.5 -21.5 -20.5 0 -21 -21 -21 -20.5 -21 -21 -21.5 0 0 0 0 0 0 0 0 0 0 0 0 0 0 0 0
7 7 9 0 0 0 8 8 0 0 7 7 6.5 6.5 6 0 7 6.5 6.5 6 7 0 0 0 5 6 6 5.5 5.5 5 5.5 7 0 0 5 5 6 5.5 5.5 0 0 6 4.5 4.5 5 0 4.33333 5.5 5.5 5 5 0 0 0 0 5 0 4 4.5 4.5 4 4 4.5 4.5 4.5 4 4 4 0 0 0 4 0 3 4 3.5 3.5 0 3 3 2.5 2.5 2 2.5 0 0 0 0 3 3 0 0 2.33333 2.33333 2 0 0 58 0 0 21 0 0 0 0 0 0 0 0 -7 41.3 41 41 39.75 40.5 0 42 42 39.5 39.5 40.6667 40.6667 0 0 40 40 40.5 39 40 41.5 42 0 0 41.5 42.5 42.5 42.5 42 43.6667 42.5 42.5 43 41.5 42 42 41.5 42 42 42.5 0 42 40 0 0 0 0 0 40.5 40.5 41 0 39.5 39.5 0 30 0 0 39.5 39.5 47.6667 47.6667 0 36 0 39 38.0833 36 36 0 0 39 30.6667 24 0 37 0 37 0 0 35 35 35 35.6667 0 0 36 0 0 33.5 33.5 34 0 0 0 0 33 33 33 32 32 0 32.5 0 32 32 0 0 0 31 31 0 0 0 0 0 0 0 26.5 26.5 26 26 26 25 0 0 24 24 0 0 0 22 22.8333 23 0 0 0 21 0 0 22 21.5 0 0 0 21 19.5 22 21 21.5 21 23.6 24 24 25 25 25 25 24.5 0 26 26 0 26.5 26.5 27 0 0 27 27.5 28 25.25 25.25 27 0 26 27 27 27 28 0 27 27.5 28 28 0 0 27 28 0 0 0 0 26 0 26 26 26.5 26.5 25.5 25.5 0 25 25 0 25 25 25 0 25 26 0 0 0 0 24 24 24 0 0 23 23 23 0 0 22.5 22.5 0 22.5 22.5 22 22 23 0 0 21.5 0 0 0 0 0 20 0 0 0 0 0 0 0 0 0 0 0 10 9 10 0 0 10 0 10 10 0 0 8 8 0 8 0 8 8 0 0 0 8 0 7 8 0 7 0 7.5 0 0 0 0 0 0 6 7 25.75 5.5 10.4286 10.9182 9.45 15 15 0 3 22.9091 20.1667 18 18.5 22 18.6667 0 0 0 0 20.5 0 19.5 21 0 20 0 20 20 20 20 20 20 20.3333 20 0 20 0 20 20 21 0 20 21 22 22 22 22 22 0 0 0 21 21 0 0 20 21 0 21 0 0 19 0 0 0 18 0 18 18 0 0 0 17.5 17.5 0 0 16.5 18 0 0 0 16 17 0 0 15 17 0 0 0 0 0 0 0 9.5 0 9.5 9 0 9 9 10.5 11 11 11 11 11.5 13 11 12 12 0 12 12 13 0 12 12 0 13.5 0 13.3333 14 14 0 13.5 0 0 13 13 13 13.5 13.5 14 0 13.5 14 0 16 0 0 15.5 0 0 15 15 15 15 0 14 13.5 13.5 29 15 14 14.3333 14.3333 17 15 16.5 16.5 13.5 0 16 0 12.4167 12.45 0 14.5 0 0 0 0 0 12 0 0 10 0 0 0 0 0 0 0 0 0 0 0 0 0 0 0 0 0 0 0 0 0 0 0 0 0 0 0 0 0 0 0 0 0 -20 0 -21 -21 -21 0 -21 -20.5 -20.5 -20.5 -21 -20.5 0 0 0 0 0 0 0 0 0 0 0 0 0 0 0 0 0 0
7 7 9 0 0 7 7 8 7.5 7.5 0 7 6.5 6.5 6 7.5 0 0 0 0 7 7 0 0 5 6 6 6.5 6.5 0 5.5 0 0 0 0 0 6 5.5 5.5 5 5 5 5 5 5 0 4.66667 5.5 5.5 0 0 0 4.5 4.5 4 5 5 0 4.5 4.5 4 4 0 0 0 0 0 0 4 4.5 4.5 4 0 3 4 3.5 3.5 0 3 3 2.5 2.5 0 2.5 3 0 2.5 2.5 2 3 3 0 2.5 2.5 2 0 0 24.3333 0 0 1.5 12 0 0 0 0 0 0 0 0 0 -16.5 -16.5 41 0 0 42 42 41.5 41.5 40.6667 41 0 40.5 40.5 40.5 40 40 41 41.5 42 0 0 40 42 41.8333 41.8333 43 41.75 41.75 41.75 0 41.5 42 42 41.5 42.1667 42.1667 42 43 43 0 0 41.5 41.5 0 0 0 40 0 40.5 0 0 0 29.75 0 33.6667 30.6667 39 47.6667 39.3333 0 36 36 38.0833 38.0833 38 34.5 34.5 34.5 33 35 24 21 0 0 37 0 0 35.5 0 35 36.5 0 0 36.5 36.6 36.6 34 35 0 34 0 0 34 0 0 32 32.6667 0 0 32.5 30.5 32.5 33 0 0 0 31 0 30 29.5 0 29 0 0 0 0 0 26 0 0 0 0 25 24 24 24 0 0 22.8333 22.8333 0 0 22 0 21.5 0 22 22 0 0 0 21 0 21 21 0 21 22 21 23 24 24.5 25 24.5 24.5 25 0 26 26 26 26 27.3333 27.3333 27.5 28 0 26.3333 0 26.3333 26.3333 27 0 26.5 27 27 27 28 0 27 28 28 28 0 28 28 28 27.5 27.5 27 0 26 26 0 0 26.5 26 0 25 26 0 25 0 25 25 26 25 25 26 26 24.5 24.5 0 24 0 24 24 0 0 23 0 23 23 22.5 22.5 22.5 22.5 22.5 22 22.5 23 0 23 22.3333 0 0 0 0 0 20 0 0 0 0 0 0 0 0 0 0 0 0 10.5 10 0 9.5 0 0 0 10 0 0 0 0 0 0 0 8 8 0 8 0 8 0 8 8 0 0 7 7 0 6 0 0 0 6 11 7 25.75 5.5 6 6 10.9182 15 15 3.5 -6.22222 20.1667 0 24 16 14.25 0 22 19 0 20 21 21 21 0 0 20.6667 20.6667 0 0 21 0 20.5 21 0 0 0 21 21 21 0 21.3333 21.3333 21 22 0 0 22 22 0 21 21 0 21 21.6667 0 0 0 0 0 20 0 0 18.5 18.5 18 0 18.5 0 0 0 19 0 0 17 17 17 0 0 18 17 0 0 16.5 17 0 0 15 17 0 0 0 0 0 0 0 0 11 0 0 0 0 7.5 9.5 0 11 11 11 11 11.5 11.5 12 12 0 12 0 12 12 13 13.5 13.5 0 0 0 0 0 0 14 14 0 0 0 0 0 0 0 14 14 14 0 0 0 15 0 0 15.5 0 0 0 14.5 14.5 0 0 15 0 14.5 12.45 18.6667 18.6667 16 16 0 13.5 0 12 12 12.4167 12.4167 12.4167 15 15.5 15.5 0 0 0 0 0 0 0 0 0 0 0 0 0 0 0 0 0 0 0 0 0 0 0 0 0 0 0 0 0 0 0 0 0 0 0 0 0 -18 -18 0 -19.5 -19.8333 0 -20.5 -21 -19.5 -20 -13.8 -3.1 -3.1 0 0 0 0 -2.5 0 0 0 0 0 0 0 0 0 0 0 0 0 0 0 0
0 7 9 8.5 8.5 8 0 7 7.5 7.5 7 7 6.5 6.5 6 0 0 6.5 6.5 6 7 7 0 0 5 6 6 0 0 0 0 6 6.5 6.5 6 6 6 5.5 5.5 5 0 5 5 5 5 5.5 0 0 0 0 0 6 0 0 4 5 5 5 0 0 0 0 0 4.5 4.5 4 4 0 4 3.5 3.5 4 0 3 4 3.5 3.5 3 0 3 2.5 2.5 3.5 0 3 4 3.5 3.5 0 3 0 0 0 0 2 2 0 24.3333 0 1.33333 1 0 0 0 0 0 0 0 0 11.75 11.75 41.3 41.3 40.1667 0 0 43 43 0 0 41 41 0 41.2 41.2 41.2 40.5 40.5 40 0 41.0833 43 43 0 42 0 41.8333 43 0 0 41.75 41 0 42.5 43 0 42.1667 41.8333 42 42 42 42 42 41.5 41.5 0 41 0 40 0 40 0 0 0 29.75 0 33.6667 35 35 39.3333 39.3333 40.8 38 39 39.7 39.7 38 40.8 40.8 40.8 28 39.6667 33 30 37 0 0 35.5 35.5 36 0 35 36 37 0 36.5 36.6 36.6 34 35 0 34 34 33.5 32.8 32.8 32.8 31.8333 31.8333 32.6667 0 32.5 30 0 32 0 0 0 30 0 30 0 0 0 0 0 27.5 27.5 0 26 0 0 25 0 0 0 0 25.5 22.5 22.5 23.5 24 0 0 22 0 21.5 22 0 22.5 0 0 0 0 20 20 20.5 20.5 21.5 22.5 22.5 23 0 0 23.5 24.8333 24.8333 25 25 26 0 26 26 0 27.3333 28 28 0 27.3333 26.8 26.8 26.8 0 0 0 27 0 0 28 0 0 0 0 0 27 28 28 0 27.5 27.5 27 0 26 26 0 0 26 26 26 26 0 26 0 0 25.5 0 26 26 0 25 0 25.5 25.5 0 0 0 0 0 0 0 23 23 0 22.6667 22.6667 22.6667 23 0 23 23 23 0 0 23 0 22.3333 22.5 22.5 0 0 0 0 0 0 0 0 0 0 0 0 0 10 10 0 0 0 10 0 0 0 0 0 10 0 7 0 0 0 8 8 0 8 8 0 7 0 7 7 0 7 0 0 0 0 6 6 0 9.45 0 10.5 5 12.3333 12.1 10.9182 10.9182 0 7.4 -6.22222 -2.16667 24 2.5 0 0 0 18.6667 17.5 20.5 20.5 20 0 21 20.5 20.5 20.6667 20.3333 21 0 20.5 20.5 20.5 20.5 21 0 20.5 21 21 21 21 0 21.3333 0 21 22.5 0 22 22 0 21 0 0 22 22 0 21 0 20 20 20.5 0 0 0 19.5 0 19 0 18.5 18.5 18 18 0 0 18 18 18 0 0 0 0 0 0 16.5 17 16 16.5 16.1667 16.1667 15.5 0 0 0 0 0 0 0 11 0 0 10 10 10 10 12 12 0 0 12 12 12 12.3333 12 12 0 12 12 0 12.5 13.5 0 0 12 0 13.5 14 0 13.5 15 0 14 14 0 14 14 14 14 0 0 0 13.5 16 0 15 15 15.5 0 15 0 0 0 0 0 0 0 0 25 15.5 15.5 16 0 12 14.5 14.5 12 10.6667 0 0 0 17.9 0 0 0 0 0 0 12 12.6667 0 9 0 0 0 0 0 0 0 0 0 0 0 0 0 0 0 0 0 0 0 0 0 0 0 0 0 0 0 0 0 0 -18 -18 0 -19.8333 -19.8333 -20.5 -20.5 -16 -20 0 0 0 0 0 0 0 0 0 0 0 0 0 0 0 0 0 0 0 0 0 0 0 0
7 7 9 8.5 8.5 8 0 7 0 0 0 0 0 0 0 6 0 6.5 6.5 0 7 7 6.5 6.5 6 0 0 0 0 6 0 5.5 6.5 6.5 6 6 0 5.5 5.5 5 6 0 0 0 0 0 0 5.5 5.5 5 5 6 0 5.33333 0 4 0 0 0 0 4 4 4 4 4 4 4 5 5 0 0 4 4 0 0 3.5 3.5 3 0 3 2.5 2.5 3.5 4 0 4 3.5 3.5 0 3 3 3 2.5 2.5 2 2 0 2.5 1.33333 1.33333 1 51.75 0 0 0 0 0 0 0 43.3333 43.3333 41.3 41.3 40.1667 40.1667 0 43 40.3333 42.5 42.5 0 41 41 41.2 41.2 41.3333 0 40 40.5 41.0833 41.0833 43 43 0 42 42.5 42.5 42 42.5 42.5 44 0 0 0 0 41.6667 41.8333 41.8333 42 0 42 42 41 41 41 0 41 0 40 40 41 0 0 39 40 0 40 45 45 43.5 43.5 40.8 38 43 39 39.6667 0 38.1667 40 40 0 34.5 33.5 22 30 0 0 0 35.5 36 0 0 0 37 35 36.5 36.6 35.8333 0 0 0 0 0 34 33.5 32.8 32.8 0 31.8333 32.6667 33 0 0 32 32 0 0 0 0 29.5 30 0 0 0 0 0 27.5 27.5 27 0 0 0 0 0 25 25 0 24 0 0 0 23 0 21 22 21.9 21.9 22 22 22 0 0 0 20 0 21 20.5 20.5 21.5 21.5 22.6667 23 0 25 24.5 24.5 0 25 25 26 0 0 0 26.5 26.5 28 0 27 27 27.5 26.8 26.8 0 0 0 28 0 27 0 28 28 0 28 0 27 28 28 0 27 27 0 26 26 26 0 25.5 26 26 26 26 0 26 26 0 26 26 0 0 0 26 25.5 25.5 0 0 0 24 0 24 0 0 23 23 24 22.6667 22.6667 22.6667 23.5 0 23 23 22.6667 22.5 0 0 0 22.3333 23 0 0 0 0 0 0 0 0 0 0 0 0 0 0 0 0 9 0 0 9 0 0 0 0 0 0 0 7 0 8 8 8 8 0 0 7.66667 8 0 8 0 0 7 0 0 0 6 0 0 5.5 10.9182 9.45 7.4 0 0 35 16.875 10.9182 0 0 -6.22222 10.8667 -6.22222 17.5 -0.666667 0 -1.5 0 18.1 18.1 20 20 20.5 0 21 21.5 21.5 20.3333 20.3333 0 0 0 0 21 21 21 0 20.5 21 21 21.5 21 21 21 21.5 0 21 21.5 22 22 21 21.5 0 21 22 22 0 0 0 0 19 21 19 20 20 0 19.6667 19.5 19.5 0 18.5 18 18 18 0 19.5 17 17.5 20 0 0 0 0 0 16.5 17 0 16.5 16.1667 0 15.3333 0 0 0 0 0 0 0 10 0 10 10 10 10 10 11.5 12 12 0 11.5 12 12 0 0 12 12 12.5 13.5 0 13 13 0 0 12.5 0 14 13.5 0 13.5 14.5 0 14 14 0 0 14.5 13.5 13.5 14.5 16.5 0 14 16 0 15.5 15.5 15 15 15.5 0 0 0 14 35 0 32 0 17.9 12.4167 12.4167 12 15 0 14.5 14.5 0 17 12.5 13.5 13.5 13 13.25 13.25 14 0 0 0 12 0 0 0 0 0 0 0 0 0 0 0 0 0 0 0 0 0 0 0 0 0 0 0 0 0 0 0 0 0 0 -15.6667 -2 0 -19 -19 -19 0 -2 -15.6667 -15.6667 0 0 0 0 0 0 0 0 0 0 0 0 0 0 0 0 0 0 0 0 0 0 0 0 0 0
0 7 7.5 8.5 8.5 8 0 7 7.5 7.5 7 7 7.5 7.5 0 6 8 7.5 7.5 7 7 7 0 0 0 6 6 5.5 5.5 6 0 5.5 6.5 6.5 6 6 0 0 0 5 6 5 5 5 5 5 5.5 5.5 5.5 5 5 5 5.33333 5.33333 0 0 5 5 4.5 4.5 4 4 4 5.5 5.5 0 4 5 5 0 0 0 0 4 4 3.5 3.5 3 0 0 2.66667 2.66667 2 0 0 4 3.5 3.5 3 3 3 3 0 0 2 2 3 3 0 0 3.25 51.75 0 0 0 0 0 0 -7 12 12 46.6667 46.6667 0 40.5 40 43.1667 43.1667 0 0 0 0 42 41.5 41.3333 41.3333 41 41 40.5 41 42.0833 42.6667 42.6667 42 0 42.5 0 42 44 44 42 42 42 42 0 41.6667 41.5 41.5 41.5 0 42.5 42 42 42.25 42.25 0 40.5 40.5 0 0 40 40.5 40.5 40 40 40 33 39.6667 39.6667 47.5 47.5 39 38.5 43 39.6667 38.5 39.5 37.25 37.25 37.25 36.6667 36.6667 32.5 31 31 0 36.5 36.5 35.5 0 0 35.6667 35.6667 36 36 36 35.8333 35.8333 35 35 0 0 0 34 34 33.5 33.5 33.5 33 33 0 33 0 32 0 30.5 30.5 0 0 30 0 0 30 0 0 28 27.5 27.5 27 0 0 0 0 0 25 25 26 24.5 24.5 24.5 24.5 23 0 0 0 21.9 21.9 22 22 23 20.5 20.5 0 0 0 0 21 21 0 21.5 22.6667 22.6667 25 0 24 24 24.5 25 0 25.5 0 26 26 26.5 27 27 0 27 27 27 27 27 0 27 27 28 0 27 27 28 0 27 28 28 0 0 28.5 0 0 0 0 0 26 0 0 0 0 26 26 26.5 0 26 0 0 26.5 0 0 26 26 26 0 0 25 24 24 24.5 0 0 0 0 0 0 0 24 0 23 23.6667 0 23.6667 23 22.6667 22.6667 22.5 0 23 22.5 23 0 0 0 0 0 0 0 0 0 0 0 0 0 0 9 0 10 0 0 0 0 9 9.5 9 9 9 0 0 0 8 8 0 0 8 0 0 0 0 0 0 7 7 7 0 0 0 0 0 3.5 12.1 0 7.4 7.4 17.3333 16.875 16.875 10.9182 0 -6 0 -3.875 -11.5 3.5 22.9091 22.9091 -1.5 22.9091 16 16 0 20 0 21 21.5 21 21 20.5 20.5 20 20 20 20.5 0 20.5 21.1667 0 0 21.5 21 21 21.5 0 21.5 0 0 21 21 22 0 0 21.5 0 21 22 22 0 0 20 20.1667 20.1667 21 0 20 20 0 0 19.5 19.5 19 0 0 18 18 0 0 17 16 17.5 17.5 17.5 0 0 0 16 0 0 16 15.5 0 15.3333 0 15.3333 0 0 0 0 0 0 9.5 0 0 0 0 9 11 0 0 0 12.5 0 12.5 0 0 0 0 13 13.5 0 0 13.5 0 13 0 0 0 0 13.5 13.5 0 14 14 0 13.5 13.5 13 14.5 14.5 14.5 0 16.5 14 0 16 0 15 15.5 0 0 0 14 0 14.5 14.5 0 0 0 19.6 0 0 17 14.5 14.5 15.5 15.5 16.2 12.5 12.5 13.5 13.5 13.5 15.3333 15.3333 13.25 0 13.3333 13.3333 13 0 0 0 0 0 0 0 0 0 0 0 0 0 0 0 0 0 0 0 0 0 0 0 0 0 0 0 0 0 -10 5 7.5 12 0 7.5 0 0 0 0 0 0 0 0 0 0 0 0 0 0 0 0 0 0 0 0 0 0 0 0 0 0 0 0 0 0 0
0 7 7 8.5 8.5 0 0 0 7.5 7.5 7 7 7.5 7.5 0 6 8 7.5 7.5 7 7 7 6.5 6.5 6 6 6 5.5 5.5 6 0 5.5 6.5 6.5 0 0 0 5.5 5.5 5 5 5.5 5.5 5.5 0 5 5.5 5.5 5.5 5 5 5 0 0 0 0 5 5 4.66667 4.66667 0 4 4 4 4 0 0 5 0 0 0 4 4 4 4 3.5 3.5 3 4 0 2.66667 0 2 3.5 0 4 3.5 3.5 3 3 3 3 3.5 3.5 3 0 3 3 2.5 2.5 3.25 51.75 0 0 0 0 0 0 -15 21.8333 -7.5 0 0 0 0 40.5 43.1667 43 0 0 42 42 0 42.5 0 0 41 41 0 43 42.0833 42.0833 42.0833 42.6667 0 42.5 0 0 40.5 40.5 0 0 0 0 0 42 43.5 43.5 40.5 42 42.5 43 0 41.5 41.5 0 41 0 0 0 40.8333 40.8333 40.8333 39.5 39.5 30 40 33.5 34.5 44 44 40 38.1667 0 39.6667 38.5 38.5 37.75 37.75 37.75 0 39 36.8333 0 31.5 0 0 0 36 36 0 35.6667 36 36 0 36 35.5 35.5 35 34 0 34.6667 35 35 35 34 34 0 33 33 33 33 0 32 0 30.5 30.5 31 30 0 30 30 30 30 0 28 28 28 28 0 0 26 25.5 0 25 25 25 0 24.5 24.5 25 0 24 0 22 0 21.9 22 22 22 0 0 0 20 0 0 21 21 20 20.5 23 0 24 25 23 23 24.5 25 25 0 0 26 26 26.5 27 27 0 27 27 28 0 0 0 27 27 28 0 27.5 0 0 0 0 0 0 0 0 28 0 27.5 27.5 0 26 26 26 0 25.75 26.5 26.5 26 26.5 0 0 0 26 0 0 0 25.5 26 0 0 0 0 24 24 24 0 23 0 24 24 24 0 0 0 23 23.6667 23.6667 23.6667 23 0 22.5 23 0 22 0 0 0 0 0 0 0 0 0 0 0 0 0 0 0 0 0 9 10 0 0 0 0 0 8.5 0 0 9 0 8 8 8 8 0 0 0 0 8 8 0 0 0 0 6.5 0 6 6 0 6 0 3.5 3.5 6 0 7 17.2 13.6667 16.875 17.3333 17.3333 18.6667 9.66667 16.3333 17.5 0 22.9091 19 6.75 22.9091 19 20 0 20 19.5 0 0 0 0 0 0 0 0 0 21.5 0 20.5 21.1667 21.1667 0 20.5 20.5 21 21.1667 21.1667 21 0 21 0 21.1667 23 0 0 21 0 0 22 22 0 0 0 0 0 20 20.5 20.5 20 20 0 19.3333 19.3333 0 19 0 18 18 20 17.5 17.5 18 18 17.5 0 17 0 16.5 16.5 15.75 0 0 15.5 13 0 0 0 0 0 0 10.6667 9 10 10 0 10 0 10 0 10.5 0 11 11.5 0 13.5 12.5 13 13 13 0 0 13.5 0 13 13 13 12 12 12.5 0 0 13 14 0 0 14 14 14.5 0 14 0 0 16.5 14.5 14 15 0 0 0 0 15 15 0 0 0 14 14 0 0 31 17.6 17.6 0 10.5 12.5 16.2 16.2 14 14 16.2 16.2 0 10.5 8.5 16 17.6 15.3333 13.25 0 0 13.3333 14.5 0 0 0 0 0 0 0 0 0 0 0 0 0 0 0 0 0 0 0 0 0 0 -10 0 0 0 0 0 0 0 0 0 0 0 0 0 0 0 0 0 0 0 0 0 0 0 0 0 0 0 0 0 0 0 0 0 0 0 0 0 0 0 0 0 0 0
8 0 0 8.5 8.5 8 8 8 7.5 7.5 7 7 7.5 7.5 7 0 7 0 0 0 0 0 6.5 6.5 6 7 0 5.5 5.5 6 6.5 7 6.5 6.5 0 0 7 6.66667 6.66667 0 5 6 6 6 5 5 5.5 5.5 5.5 0 5 5 5.5 5.5 5 0 5 5 4.66667 4.33333 0 0 0 0 0 0 0 0 5 4.5 4.5 0 4 4 4.5 4.5 0 3 0 4 0 0 2 3.5 4 0 3.5 3.5 3 3 4 0 2.5 2.5 3 3 0 0 0 0 0 1.5 1.5 0 0 0 0 0 0 0 48.25 0 0 0 38 41.5 42 0 42.5 42.5 0 41.5 42 0 41.1667 41.1667 41 41 0 0 0 41.5 41.5 43 43 42.5 42.5 0 41.5 41.5 41 0 41 41 42 42 41.5 41.5 41 0 42 43 0 41.6667 41.6667 41.5 42 0 41 40.8333 40.8333 40.8333 40.8333 0 30 31 0 32.5 36.6667 39.5 39.5 37.25 39.5 0 38.5 38.5 38.8 37.6667 38.6667 38.6667 0 39.5 39.5 24 31.5 30.5 0 0 36 36 36 0 0 0 36 0 0 0 0 34 0 33.9 34 0 0 34.5 34.5 0 0 0 33 0 0 0 0 30.5 30.5 30 0 0 30 30 30 30 30 29.5 29 29 29 0 27 26 26 0 25 0 0 0 24.5 24.5 0 25 24 0 24 0 0 22 22 0 21 21 0 20 0 19.5 21 21 0 20.5 21.5 0 0 24 23.5 23.5 25 0 25 25 26 26 26.5 27 27 27 27.5 27.5 27.619 27.619 27.619 27.619 0 0 27 0 27 0 0 28 0 28 28 28 28 28 29 0 0 27 0 26 26 25.5 0 26 26 0 0 26.5 0 26 26.5 0 26 26 0 26 26 0 0 24 24 24 24 24 0 0 0 23 23 24 0 24 0 0 23.5 0 24 23.5 23.5 0 24.5 0 0 0 0 0 0 0 0 0 0 0 0 13 0 0 0 10 10 10 0 10 0 0 8.5 0 0 7.5 0 0 9 0 8 8 8 0 0 8 8 8 8 8 0 7 0 0 0 0 5 6 0 5 0 6 4 0 0 5.5 0 6 24 -6 7.5 18.6667 9.66667 16.3333 16.3333 21.7 -1 8.5 21.7 18.3333 19.5 16 0 20 22 19.5 0 0 0 20.8333 20.8333 0 0 20.5 21 21 21 21.5 0 21 21 0 21.8333 21.8333 0 22 0 0 21 22 21.1667 24 22.5 0 0 0 0 0 0 0 0 0 19.5 20 19.8333 21 20 20 20 0 19.3333 19 19 0 0 18 18 18 18.6667 18.6667 0 17 0 17 0 0 16 15.75 0 0 15.5 15.5 0 0 0 0 0 11 10.6667 10.6667 0 0 0 0 0 10 10.5 0 11 11.5 11.5 12 13 13.5 13.5 13 13.5 0 13 13.5 0 0 0 12.5 13 0 12 0 0 0 0 0 0 0 13 13.5 13.5 14.5 15 0 0 16.5 14.5 0 0 0 0 15 15.5 15.5 0 0 0 0 0 15 0 0 17.6 17.6 16 19 0 16 15.5 15.5 0 16 16 0 18.5 6.5 3 7.5 0 15 14.5 14.5 0 14.3333 14.5 0 0 -4 0 0 0 0 0 0 0 0 0 0 0 0 0 0 0 0 0 0 0 0 0 0 0 0 0 0 0 0 0 0 0 0 0 0 0 0 0 0 0 0 0 0 0 0 0 0 0 0 0 0 0 0 0 0 0 0 0 0 0 0 0 0
8 8 0 8.5 8.5 8 8 8 0 0 7 7 7.5 7.5 7 7 0 7.5 7.5 7 7 0 6.5 6.5 6 7 7 0 0 0 0 0 0 0 6 6 7 6.66667 6.33333 6 0 6 6 6 0 0 0 5.5 5.5 6 6 0 5.5 5.5 5 5 0 5 4.33333 4.33333 0 5 0 3.5 3.5 5 5 0 5 4.5 4.5 4 4 4 3.5 3.5 0 0 3 4 0 0 2 3.5 4 4 0 0 3 3 4 0 0 0 3 3 0 3 2.5 2.5 2 0 2.5 0 0 0 0 0 19.25 -13 0 0 0 38 41.5 42 41.6667 43 42.5 42.5 42 42 0 41 41 41 0 40.5 41 0 0 42.6 42.6 0 0 43.1667 43.1667 0 41.5 41.5 41.1667 0 41.6667 42 42 0 0 0 42.5 42.5 42.5 0 0 41.6667 41.3333 0 0 42 42 42 0 41.5 41.5 0 0 31 40 40 43.25 0 0 37.75 37.6667 43 39.5 38.8 38.8 37.6667 39.4 38.6667 0 39.5 32.5 40 31 29.5 0 0 0 36 0 35.5 35.5 36 36 35.5 35.5 0 34 34 0 33.9 35 35 35 35.5 35.5 0 0 0 33 33 0 32 0 0 0 30.5 30.5 30 0 0 0 0 30 29.5 0 0 0 0 27 0 26 0 24 25 25 0 24.5 24.5 0 24 25 0 24 0 0 0 22 0 21 21 0 21 0 20 0 0 0 0 0 0 23 24.5 24 24 24 25 0 26 26 26 26.5 27 27 27 28 0 0 27.619 27.619 27.619 0 0 27 28 28 28 0 28 28 27 28 28 0 0 29 0 0 0 0 0 0 0 0 0 0 0 26.5 26 26 0 0 0 0 26 0 0 25.5 0 0 24 25 24 24 0 24 23.5 24 0 23.5 0 0 23.5 23.5 23 23.5 0 23 23.5 0 24 24.5 0 23 0 0 0 0 0 0 0 0 0 0 0 0 0 0 0 0 10.5 0 0 0 0 8.5 0 0 0 8 8 8 0 8 0 8 0 0 8 8 8 0 7 0 7 0 6 6 0 0 0 5 5 0 4.5 6 6 0 5.5 0 -0.333333 16.0833 0 2 17.5 -2 0 17.1667 17.5 17.5 28 28 21.7 20.5 20.5 0 20 22 0 0 21 21 0 20.5 0 21 0 21 0 21 21.5 0 21 21 0 0 21.8333 0 0 0 0 21 20.5 22 22 22 22.6667 0 0 22.3333 0 0 0 0 20.5 19.5 20 20.5 19.8333 20 0 20 19.5 19.5 19 19.3333 0 19.5 0 0 19 18.6667 17.5 0 0 18 16 0 0 16 15.75 15.75 16.3333 16.5 16.5 0 0 0 0 0 11 0 0 10 0 10.5 0 10 9.5 9.5 0 10 11 0 0 12 14 13 0 13.5 0 13.5 0 13 13 13 0 12.5 12.5 12.3333 0 0 0 0 17.5 14 13.5 13.5 0 13.5 14 15 15 14.6667 15 13.5 13.5 14.5 0 15.8333 15.8333 15.5 14 15.3333 0 0 0 14 14 14 0 0 19 6.5 18.5 16.3333 0 14 14 15 0 0 0 10.5 13.5333 13.5333 20 17.5 14 14 15 0 0 14 0 0 5.5 0 0 0 0 0 0 0 0 0 0 0 0 0 0 0 0 0 0 0 0 0 0 0 0 0 0 0 0 0 0 0 0 0 0 0 0 0 0 0 0 0 0 0 0 0 0 0 0 0 0 0 0 0 0 0 0 0 0 0 0 0 0
8 8 0 7 7 8 8 8 8.5 8.5 8 7 6.5 6.5 7 7 0 0 0 7 7 8 0 0 6 0 0 0 0 6 6 6.5 0 0 6 6 6 6.33333 6.33333 6 0 6.25 6.25 6.25 5 5 5 5 5 6 6 0 4.5 4.5 5 5 5 5 4.5 4.5 4 5 0 3.5 3.5 5 5 0 5 4.5 4.5 4 5 0 0 0 4 0 3 4 3.5 3.5 0 3.5 4 4 4.5 4.5 0 0 0 0 2.5 2.5 3 3 0 0 2.5 2.5 2 3 0 0 0 0 0 0 19.25 3.66667 39 0 0 38 39 42 0 0 0 0 42 42 0 41 41 41 0 40.5 41 0 42.6 42.6 40.8333 0 0 0 42.5 0 42 42 43 41.1667 41.6667 41.5 0 41.25 41.25 41.25 0 0 44 0 0 41.3333 41.3333 0 42 42 0 0 0 0 0 0 40.5 31.5 0 36.8333 39 40.5 40.5 38.6667 38.6667 39.4 38.8 38.8 40 39.4 39.4 38.6667 34.6667 0 38 0 0 19 0 0 36 37 36 0 35.6667 0 36 35.5 35.5 0 34 34 33.9 33.9 35 35 0 33.5 33.5 33 33 0 0 32 0 32 32 0 0 0 30 0 29 0 0 0 30 29.5 29.6667 29.6667 0 0 27 0 0 26 26 0 25 24.5 24.5 24 0 25 0 0 23.5 23.5 0 0 0 0 21 21 0 21.25 0 19.3333 19.3333 0 21 21 20 0 0 22 24.5 24.5 24.5 25 0 0 26 26 26.5 0 27 27 28 0 0 26.25 26.25 26.25 0 0 28 0 28 0 0 0 0 0 0 29 28 0 0 27.6667 27.6667 0 0 26 26 26 27 0 27 0 26.5 27 0 26 25.5 25.5 26 26 26 0 25 0 0 24 24 24 24 24 24 24 24 24 24 24 0 24 0 23 24 24 24 25 23.5 0 25 0 0 0 0 0 0 0 0 0 0 0 0 0 0 0 0 0 0 0 0 0 0 0 0 8.5 8 8 0 8 8 0 8 0 0 0 39.5 7 7 0 0 0 7 7 0 6 6 0 5 0 5 6 4.5 5 5.33333 0 0 5.5 6.33333 6.33333 9.33333 16.875 -6 0 0 0 17.1667 17.1667 17 0 21.7 21.7 18.3333 21 0 20 20.6667 0 0 21.5 0 21 20.5 0 21 21 21 21 20.3333 20.3333 0 21.75 21.75 22 23 22 23 0 0 22 0 0 22 0 23 22.6667 22.6667 22 22 22 0 0 0 0 19 20.5 0 0 0 20 20 0 20 0 17.8333 17.8333 18.5 18.5 18 0 17.5 17.5 17.5 0 13.3333 13.3333 17 0 0 16.5 16.5 16.3333 0 0 0 0 0 0 0 0 0 7.33333 10 10 11 0 10 9.5 9.5 10 10 11 0 12.5 12.2 12.2 12.2 0 0 0 14 14 0 13 13 0 13 0 12.3333 0 13 13 13.5 13.5 13.5 14 0 13.5 14 14.5 0 0 14.6667 14.6667 0 14 14.5 0 0 15.8333 16 16 0 15.5 0 0 0 0 0 17.5 17.5 20 13.5333 10.5 16.3333 0 15.5 15.5 14 0 0 0 16.3333 0 14.75 14.75 25 0 0 0 12.5 0 12 0 0 0 0 0 0 0 0 0 0 0 0 0 0 0 0 0 0 0 0 0 0 0 0 0 0 0 0 0 0 0 0 0 0 0 0 0 0 0 0 0 0 0 0 0 0 0 0 0 0 0 0 0 0 0 0 0 0 0 0 0 0 0 0 0
8 8 8.5 8.5 8.5 8 8 8 7.5 7.5 8 0 0 0 7 0 7.5 0 0 7 7 0 0 0 0 7 7 6.5 6.5 0 6 6.5 7.5 7.5 7 0 6 6.5 6.5 6 0 6.25 5.8 5.8 5 0 6 0 0 6 6 6 0 0 5 5 0 0 4.5 4.5 4 5 0 3.5 3.5 5 5 5 6 0 0 0 0 0 3.5 3.5 4 4 0 3 3.5 3.5 0 3 3.5 4 4.5 4.5 0 3 4 4 0 0 3 3 3 4 0 0 2 3 26.5 0 0 0 0 0 12 3.66667 39 38.5 38.5 0 38.5 39.25 41 0 0 41 40.6667 41.5 42 0 41.5 41.5 0 40.5 41.5 0 40.75 40.8333 40.8333 0 0 43 43 43 42.5 42.5 42.5 0 0 41.6667 41.5 41.25 41.25 41.25 44 43.5 43.5 0 0 41.5 41.5 42 42 42 42 0 41 41.5 41.5 0 30.5 31.5 0 39.5 39.5 40.5 40.5 38.6667 39.4 0 39 39 39 0 0 38.6667 0 42.4 39 46.5 0 29.5 0 0 36 12 37 36 36.6667 36 36 35.5 35.5 0 0 34 33.9 0 35 35 0 34 34 32.5 32.5 0 32 0 0 31 0 0 0 30 30 0 30.3333 0 0 29 0 29 29.6667 28.4 28 0 27 0 26 26 26 26 0 24.5 24.5 24 25 0 0 0 0 0 0 25 22.5 22.4167 22.6667 22.6667 0 21.25 21.25 0 19.3333 0 21 21 20 20 0 23.75 22 22 0 25 25 25.5 25.5 26 26.5 0 0 27 28 0 27 27.75 27.75 26.25 27 0 28 26 0 28 0 28 28 0 28.5 28.5 29 0 28 27.6667 27.5 0 0 26 26 26 27 0 25.5 0 0 0 0 26 26 0 26 26 26 26 0 0 0 24 0 24 24 24 0 24 24 24 24.5 25 0 0 0 23 24 23.6667 24 24 0 24 24 0 0 0 0 0 0 0 0 0 0 0 0 12 0 0 0 0 0 10.6667 0 0 0 0 9 0 0 0 0 8 9 0 8 0 0 0 7 7.5 0 7 0 0 0 6.5 0 6 0 0 5 0 0 4 4 0 2 5 23.5 23.5 12.4 6.33333 9.33333 26.6 -6.22222 -3.875 -4.5 12.6667 17 17 17 0 21.5 0 17.6667 18.5 0 20 20 0 21 21 0 21 21 21 21 21 21 21 20.5 20.3333 22.25 22.25 21.75 22 22 21 22.5 0 22 22 21.6667 0 21.3333 0 22 22.5 22 22 0 0 0 0 20 20 20 0 0 20 0 20 0 0 20 19.5 19.5 17.8333 19 0 0 17 17 17 0 18 0 13.3333 19 0 0 0 16.3333 0 0 0 21 21 0 0 0 0 0 10 0 9 10 38 0 0 0 0 0 0 0 0 12.2 12.2 12.5 13 0 0 0 13 0 0 13 0 0 0 0 13 0 0 13.5 13.5 13.5 13.5 14 14 15 14.5 14.5 14.5 14.5 14.8 14.8 14.8 14.5 15.5 0 14 0 16 15 15.5 0 0 13.5 14 14 25 25 14.75 0 21 14.5 16.8333 16 13.25 15.5 13 0 0 14.5 8.5 11.8667 11.8667 0 5 0 0 0 13.3333 17 12.3333 12 0 12 4 0 0 0 0 0 0 0 0 0 0 0 0 0 0 0 0 0 0 0 0 0 0 0 0 0 0 0 0 -9 0 -10 0 0 0 0 0 0 0 0 0 0 0 0 0 0 0 0 0 0 0 0 0 0 0 0 0 0 0 0 0
7 8 0 0 0 0 0 0 0 0 8 8 7.5 7.5 7 7 7.5 0 0 7 7 8 7.5 7.5 7 7 7 6.5 6.5 0 6 6.5 6.5 6.5 7 0 0 0 0 0 6 5.8 5.8 5.8 5 6 6.5 6.5 6.5 5 6 0 0 0 5 5 5 6 0 0 4 5 5 0 0 5 5 5 0 0 0 4 4 5 4.5 4.5 0 3 4 4 0 0 3 3 0 0 4.5 4.5 0 3 3 4 3.5 3.5 3.5 0 3 3 0 0 0 2 0 0 0 0 0 0 -4.33333 39 39 38.5 38.5 39 38.5 39.5 41.5 0 0 0 40.6667 40.6667 43 42 41.5 41.5 0 40.5 0 41 40.75 40.75 40.75 0 0 43 44 0 42.5 42.5 42 0 42 43.5 0 43.5 43.5 47.3333 43 0 43 0 0 41.5 41.5 0 0 42 42 0 0 0 0 40.5 29.5 31 40 32.5 39.5 0 0 38.6667 0 0 0 0 0 40.3333 40.3333 36 0 38.2 33.5 0 35 30.5 17.5 17.5 29.8 26.5 37 36 36.6667 0 37.1667 36 36 36 35.6667 35.6667 34.5 34.6667 35 34 0 0 0 32 32 32 32 32 0 32 32 30.5 30.5 30.5 0 0 29.5 0 0 0 0 29 28.4 28.4 28 0 0 0 0 0 25.5 0 0 0 0 24 24 0 24 0 23 23 23 0 22.5 22.4167 22.6667 22.4167 22.4167 21.25 0 21 20.5 0 0 0 0 20.5 21.5 23.75 23.75 23.75 23.5 25 25 26 25 26 26.5 26.5 0 27 27 27 27 27 27 0 27 28 0 0 28 28 0 28 27.5 27.5 28 0 29 0 28 27.5 27 0 0 0 0 0 0 0 0 0 26 26.5 0 26 26 27 0 26 0 26 25.5 25.5 0 0 24 24 0 0 0 24 0 0 24.5 25 25 0 25 23.5 24.6667 23.6667 24.5 0 0 24 24 0 0 0 0 0 0 0 0 0 0 0 0 0 0 0 10.5 11 0 0 0 0 0 0 0 8 0 8.5 0 0 0 0 8 7 0 7.5 0 7 0 7 7 0 0 6 0 5.5 0 0 5 0 4 4 4 33 2 10.8667 10.8667 -6.22222 21.4286 21.4286 23 0 9.2 -3.875 -4 12.6667 19 19.1667 20 18.4167 19 0 0 18.3333 0 20 20.5 0 0 21 21 0 20.5 0 0 0 0 0 22 20.5 20.5 0 21.75 22.5 22.5 0 22 22 22.5 23 21.6667 21.6667 21.5 0 21.5 21.5 22.5 0 22 22 0 0 20 0 0 20.5 0 0 0 0 20 20 20 19.5 19.5 19 19 0 0 0 0 0 0 18 18 0 0 16 0 0 0 0 0 0 0 43 36.9 36.9 40.3333 9.5 8.5 0 0 0 10 0 10 0 10.3333 0 10 10.5 11 11 12 0 12 0 0 0 11.8333 11.8333 0 0 0 0 0 0 0 12 0 14 14 0 0 0 0 0 15 0 0 14.5 15 14 14.8 14.8 14 15.5 0 0 0 15.5 15 0 0 0 0 13.5 12.5 0 0 14 14 15.6667 15.6667 16.8333 16.8333 13.25 13.25 13.25 16 16 15.6667 0 11.8667 11.8667 16.3333 17.3333 0 0 14.5 15 0 14 5.5 4 11.5 0 0 0 0 0 0 0 0 0 0 0 0 0 0 0 0 0 0 0 0 0 -5.29167 -5.29167 -10 -6.5 0 0 0 0 -9 -9 0 0 0 0 0 0 0 0 0 0 0 0 0 0 0 0 0 0 0 0 0 0 0 0 0 0 0 0 0 0
7 0 8 8 8 8 0 8 7.5 7.5 8 8 7.5 7.5 7 7 7.5 8.5 8.5 0 0 8 7.5 7.5 7 0 7 6.5 6.5 6 7.5 0 6.5 6.5 0 7 0 6.5 6.5 6 6 6 6 6 5 6 0 0 0 0 6 0 5.5 5.5 0 0 5 6 5.5 5.5 0 5 5 0 0 4.5 0 5 0 0 0 4 0 5 4.5 4.5 0 0 4 4 0 0 0 0 0 4 3.5 3.5 4 0 3 0 3.66667 3.66667 0 0 0 0 0 0 0 2 3 0 0 0 0 0 0 0 38 38.8333 38.8333 39 0 41.5 41 41.5 41.5 41 40 41.5 43 43 42 42 41.5 41.5 0 41 41.5 43.5 43.5 44 0 43 44 0 42.5 42.5 43.5 0 42.5 42.5 43.5 0 0 0 0 43 0 42.5 0 0 0 0 0 41 42 0 0 36.5 36.5 36.5 29.5 40.3333 46.5 39 42.4 42.4 42.4 36 40.3333 0 0 0 0 39.3333 39.3333 37.3333 37.3333 38.2 33.5 0 22.5 20 0 0 33.75 29.8 26 0 37.5 37.5 0 37.1667 37.1667 37.1667 35.6667 34.5 0 34.6667 0 0 34 0 0 32 32 32 32 32 0 32 32.5 0 0 0 0 30.5 30.5 0 0 0 0 29 28.4 28.4 28 27 27 27 0 0 0 0 25 25.5 25.5 25 0 0 24 23.5 23.5 0 0 25 0 0 22.4167 22.4167 0 22 22 0 0 22 20.5 20.5 21 21 22.5 21.5 21.5 21.6667 24 0 0 25.5 25.5 26 0 27 27 27.6667 27.6667 27 0 27 27 27 27 28 28 0 28 0 28 28 27.5 27.5 28 0 0 0 27.5 27.5 27 0 26 26 26 26 0 26 26 0 0 27 27 0 26 26 0 26 0 26 0 0 25 24 24 25 25 0 25 0 24 0 25 0 0 0 25 0 24.6667 24.6667 23.6667 0 0 0 0 0 0 0 0 0 0 0 0 0 0 0 0 0 0 10 11.3333 0 0 0 0 0 0 0 9 0 0 0 0 0 0 0 0 0 6.5 7 0 0 7 7 7 0 6 0 0 5 6 0 0 0 4 0 4.5 0 0 10.6667 -6.22222 9.2 -3.875 3.11765 0 3.11765 3.11765 -3.875 -4 17.5 0 12.6667 19.1667 18.4167 0 18 18 19 0 20 20 21 0 21 0 0 20.5 21 0 21 21 21 20.5 20.5 22 0 21.6667 0 0 0 0 0 23 0 0 0 22 0 22 0 0 0 0 0 0 0 20 0 0 0 0 20 0 0 19 0 0 0 19.3333 19 0 0 0 0 0 0 0 18.5 18.5 0 0 16 0 0 0 16 0 0 0 0 39.5 39.5 0 0 9.5 9.5 22 0 9 25.75 21.6667 10 0 10 28.5 28.5 0 11 11 11.5 0 0 12 12 12 0 12 0 0 13.5 13.5 0 0 0 12.5 13.5 14.6667 15 0 0 0 0 12.3333 0 0 0 0 0 0 14 15 15 0 0 16 0 16 16 0 0 14 12.5 0 17.3333 0 11.8667 8.5 16.5 16.5 16.5 16.5 14.1667 14.1667 16.8333 16.8333 16.8333 6 0 13.5 13.5 21 13 14.3333 0 0 15 0 12 2.5 -6.5 4 0 0 0 0 0 0 0 0 0 0 0 0 0 0 0 0 0 0 0 0 -8 -4.33333 -5.29167 -10 0 0 0 0 0 0 0 0 0 0 0 0 0 0 0 0 0 0 0 0 0 0 0 0 0 0 0 0 0 0 0 0 0 0 0 0 0
0 0 8 7.83333 7.83333 8 0 8.5 0 0 8 8 7.5 7.5 0 7 7 8.5 8.5 0 0 7 7.5 7.5 7 0 7 6.66667 6.66667 6 7 7.5 0 0 7 7 7 6.5 6.5 6 6 7 6.5 6.5 0 5 0 0 5.83333 0 6 6 5.5 5.5 5 0 5 6 5.5 5.5 5 5 5 4.5 4.5 4.5 6 0 5 0 0 5 5 5 4.5 4.5 0 3.5 4 4 0 0 3 3 0 4 3.5 3.5 4 4 4 0 3.66667 0 0 3 0 3 2.5 2.5 3 0 19 0 0 0 0 0 0 12 38 39 39 39 0 41.5 41.5 41.5 41.5 0 41 41 0 0 0 0 41.5 41.5 41 41 41.5 43.1667 43.1667 41.5 44 0 43.5 0 43.5 43.5 43 41 0 0 0 0 0 42.5 43 0 43 43.5 43.5 0 0 42 0 41 41 0 0 29.8 29.8 40 0 41 35 33.5 38.2 0 0 37.3333 39.3333 39.3333 0 38.5 38 37.5 37.5 37 37 38.2 0 0 32.9 0 0 0 33.1667 30.6667 30.6667 0 37 0 37 0 0 35 35.5 36 0 35 0 0 34 0 0 0 0 0 31.5 32 0 32 32 32 32 29 0 0 29 29.5 0 0 0 28 29 29 0 27 0 26 0 0 0 0 0 24 24 0 0 23 24 24 23.5 24.5 0 0 0 23.5 23.3333 23.3333 0 22 22 0 21.3333 22 0 21 21 21 20.5 21.5 21.5 21.5 24.3333 25 25 25 0 26 26.3333 0 27 27.6667 27 28 0 0 26.5 26.5 27.5 28 28 0 27.5 27.5 0 28.5 0 28 28 28 28 28 28 28 28 0 0 26 0 26 0 26 26 0 26 26 27 26 26 26 0 26 0 0 25.5 25.5 0 24 24 25 25 25 25 0 24.5 0 24 25 25 25 25 25 23.5 24 24 24 0 0 0 0 22 0 0 0 17.5 17.5 0 0 0 0 0 13 0 11 0 11 11 0 10 0 0 0 0 0 0 0 7.5 7.5 7 8 0 0 0 6 6 0 7 0 6 0 0 0 0 5 0 0 0 0 4 4.5 4.5 -1 15.8 6 4.66667 9.2 3.11765 3.11765 -3.875 3.11765 3.11765 3.11765 0 4.66667 0 19.1667 19.1667 18.4167 18.4167 17 19 0 0 20 20 0 20.5 21.5 0 0 20.5 0 0 21 20.5 21 21 21 21 0 0 22 0 0 0 0 21 0 0 22 0 22 22 22 0 0 22 0 0 0 21 20.3333 20.3333 20.1667 20.1667 20 20 0 0 0 0 19.3333 19.3333 19 0 19 0 17.5 17.5 0 0 0 0 0 0 15.8333 16 0 0 15 0 0 0 0 35.5 35.5 0 0 9 9.66667 0 9 4.66667 9 4.66667 9.5 9.5 0 22.5 28.8333 0 18 0 11.5 12 12 12.5 13 13 13 0 14 0 0 0 14 0 0 13 13 0 0 14 14 13.5 13.5 0 13.5 0 0 15 14.5 14.5 0 0 0 15 16 0 16 0 16 15.5 15.5 14.5 14.5 14 29.3333 16.3333 16.3333 22 0 0 14.5 14.5 16 14.1667 0 0 16.5 0 0 14 2 6 0 21.5 21.5 14.5 14.5 0 0 -6.5 20 0 0 0 0 0 0 0 0 0 0 0 0 0 0 0 0 0 0 0 0 0 1 -3.33333 -3.33333 -10 0 0 0 0 0 0 0 0 0 0 0 0 0 0 0 0 0 0 0 0 0 0 0 0 0 0 0 0 0 0 0 0 0 0 0 0 0
8 0 8 7.83333 7.83333 8 0 8.5 0 0 8 8 7.5 7.5 7 8 0 7 7 8 8 0 7.5 7.5 7 7 7 6.66667 0 0 7 7.5 7.5 7.5 0 7 7 6.5 6.5 7 0 6 6.5 6.5 0 0 6 5.83333 5.83333 0 6 0 5.5 5.5 5 6 0 5 5.5 5.5 5 0 0 0 0 4.5 0 0 5 5.5 5.5 5 5 0 0 0 0 0 4 4 4.5 4.5 0 3 3 5 4.5 4.5 4 4 4 4 0 0 0 3 0 3.5 0 0 0 3 3 -6.66667 27.5 27.5 0 0 0 0 39.8333 0 0 39 0 0 41.5 41.5 41.5 0 40.5 42 0 42.5 42.5 42.5 0 41 41 41 41.5 41 41 41 0 0 42.5 43 43.5 43.5 43.5 0 0 44.5 0 0 0 43 43 0 0 42 43 42.5 42.5 42 0 0 41 0 26.5 29.8 33.75 40 30.5 41 35 33.5 38.2 0 0 40 40 0 40 39.3333 0 34.6 34.6 38.6667 0 40 32.5 0 32.9 0 0 0 33.1667 35 12 0 38 0 0 0 0 0 0 36 35 0 34 34 0 0 0 0 32 0 31.5 32 0 31 0 32.5 32.5 30 0 0 29.5 0 29 29 0 0 28.5 28.5 0 0 0 0 26.3333 26 26 0 0 23.5 23.5 0 0 0 23.5 0 24.5 0 0 22.5 22.3 22.3 22.3 23.3333 0 22 21 21.3333 21.3333 0 0 0 0 0 20 23 23 20.4 23.3333 0 25 25 25.5 25.5 27 27 27 27 27 0 26.3333 26.3333 27.5 27.5 28 0 28 0 27.5 27.5 28 0 29 0 0 28 28 28 27.5 27.5 0 0 0 26 0 0 0 0 0 0 26 26 26 0 0 0 0 0 0 25.5 25.5 25 25 25 25 0 0 25 0 24.5 0 0 25.1667 25.1667 0 25 25 0 0 0 25 24.5 0 0 0 0 0 0 0 18.5 0 0 0 0 0 0 0 0 0 11 0 0 0 0 10.6667 0 0 0 0 0 0 7.16667 7.5 7.5 7 8 8 0 0 6 6 7 7 0 0 0 29 0 0 5 0 0 0 5 -3.875 -6.22222 4.5 5 10.8667 16.4 0 9.2 3.11765 5.5 3.11765 3.11765 3.11765 3.11765 12.4 3.11765 9.2 20 19 20 0 19 19 19 21 0 20 0 20.5 21.5 0 0 21 0 20 0 21 21 0 21 0 0 0 22 0 0 0 0 22.5 23 0 22 22 0 0 22 0 21.5 23 0 0 21 21 0 20.3333 20.1667 0 20 0 20 20 0 0 20 0 17 19 0 0 18.8 17.3333 0 0 0 0 18 15.8333 15.8333 16 0 0 0 0 0 0 0 0 0 0 0 9 9.66667 0 9 9.5 0 4.66667 9 10 6.5 10 10 10 12 12 0 0 33 6.5 6.5 12 0 0 0 13 13 13 13 0 12 13 12 13.5 14.5 14.5 14 14.5 14.5 0 14.6667 0 13.5 0 0 14 14 0 0 0 0 0 15.5 16 16 0 0 0 13 13.5 29.3333 21 29.3333 22 0 17 0 16.25 14 14 16.25 16.25 0 17 0 0 11 24 0 0 21.5 12 0 0 12.3333 0 0 0 0 0 0 0 0 0 0 0 0 0 0 0 0 0 0 0 0 0 0 0 0 0 0 0 0 0 0 0 0 0 0 0 0 0 0 0 0 0 0 0 0 0 0 0 0 0 0 0 0 0 0 0 0 0 0 0 0 0 0 0 0
8 8 8 7.5 7.5 8 0 8.5 8.5 8.5 8 8.5 0 0 7 0 8.5 0 0 8 8 8.5 0 0 7 7 0 0 0 0 6 7.5 7.5 7.5 7 0 7 6.5 6.5 7 0 6 0 0 6 0 6 6 6 6 6 0 0 0 5 0 0 0 0 0 0 5 0 4.5 4.5 4.5 6 0 5 4.5 4.5 5 5 0 4.5 4.5 4 4 5 4 3.5 3.5 4 4 0 5 4.5 4.5 4 0 0 0 0 0 3 3 0 4 3.5 3.5 0 3 0 0 2.5 2.5 0 0 0 39.8333 39.8333 38.75 38.75 38.75 39 39.3333 40 41.5 41.5 0 40 42.5 0 42.5 42.5 42.5 0 41 41 41 42 41.5 41.5 41 41 0 0 43.5 43.5 43.5 43.5 0 43 43.75 43.75 0 0 43 43 43 0 0 0 0 0 42.5 0 42 42 0 26 33.75 33.75 40 40 32.9 0 47 40 48.5 48.5 38.6667 34.6 41 39.3333 39.3333 0 34.6 34.6 38.6667 0 36.3 35.5 0 37.3333 0 0 0 0 0 37 0 36.5 0 36 36 36 0 35 35 0 0 0 0 33 32.5 32.5 32 32 32 32 32 0 0 31.5 31.5 31.5 0 0 0 30 0 28.5 0 0 26.5 26.5 27 0 26 26 26 25.5 0 0 0 0 0 0 0 23 0 22 23 23 23 23 23.5 22.5 22.3 22.3 22.3333 0 0 0 21 21 0 0 0 21 21 19.5 23 23 23 25 25 0 26.5 0 0 27 27.5 0 27 0 27.6667 0 0 27.4167 0 26.3333 0 0 0 28.5 28.5 28 28 28 28 28 29 0 28 27.5 27.5 0 27 0 26 0 26 26 0 26 26 26 26 26 27 0 26 0 27 0 0 0 25 25 0 25.5 0 25 0 0 0 25 25 25 26.5 0 25 0 0 24.5 25 24.5 0 22.6667 0 0 0 20 0 0 0 0 0 0 0 0 0 0 0 0 0 11 0 0 10.6667 10.6667 0 0 0 8 8 0 7.16667 7.16667 8 0 8 0 0 0 0 0 6 0 6 3.66667 0 32 5.5 6.5 6.5 0 0 5 -3.875 0 17 5 0 10.8667 10.6667 0 6.5 3.11765 3.11765 16.6571 16.6571 16.6571 16.6571 20.4167 -2.16667 7.4 10.5 25.75 0 0 20 20 20 20.5 20.5 20.5 0 0 0 20.5 21.8333 21.8333 0 0 23.3333 23.3333 21 0 0 21.5 21.5 21.6667 22 22 0 21 0 23 23 0 0 0 0 21.5 22 22 22 22 22 22 0 21 0 0 0 0 0 20 0 20 20 19 19.5 0 0 0 0 0 0 18.8 18.8 45 0 16 0 0 0 16 0 0 0 0 0 0 0 0 0 0 0 0 10 0 9.46667 10 9.5 9.5 9 0 0 10 0 9 11 11 12 12 12 12 0 13 21.5 28.7 28.7 12.5 16 13.5 0 15.5 15.5 13 12 0 14 14 14 14 14 0 14 12 14.6667 0 13.5 13.5 13.5 14.5 0 14 16 0 15 0 0 0 0 13.5 13.5 14.5 14.5 6 14 0 23 0 19.5 19.5 13 14 13 16.25 17 0 3 0 12.5 15.5 0 12 21.5 12 0 11 14.5 14.5 0 0 0 0 0 0 0 0 0 0 0 0 0 0 0 0 -1 -1 -5.5 0 0 0 0 0 0 0 0 0 0 0 0 0 0 0 0 0 0 0 0 0 0 0 0 0 0 0 0 0 0 0 0 0 0 0 0 0 0 0 0 0 0 0 0
8 8 9 9 9 9 9 9 8.5 8.5 8 0 0 0 0 8 8.5 8.5 8.5 8 8 8 7.5 7.5 0 7 8 7.5 7.5 0 6 7.5 7.5 7.5 7 8 0 6.5 6.5 0 0 0 6.5 6.5 6 6 0 6 6 6 6 0 0 0 0 6 0 6 0 0 5 5 0 4.5 4.5 4 4.5 0 5.5 0 0 0 0 0 4.5 4.5 4 4 5 5 4.5 4.5 4 4 4 0 0 0 0 0 4 0 0 0 3 3 4 4 0 0 3 0 38.5 0 2.5 2.5 2 0 0 46 39 39.25 39.25 38.75 39 39.3333 40 40.5 40.5 0 41 41.5 0 42.5 42.5 42.5 0 0 0 0 0 41.5 41.5 41 41 41.5 42 43 43 43 43.5 0 43 43.75 0 0 0 43.5 43.5 43 0 42.3333 0 41.5 41.5 0 0 41.5 0 0 41.5 41.5 41.5 0 40 32.9 37.3333 32.5 40 48.5 48.5 0 36.3333 0 39.6667 39.6667 0 36.3333 36.3333 0 0 0 0 0 22 37 0 0 37.5 33 0 0 36 36 36 35.8333 35.8333 0 0 0 35 34 34 0 33 0 0 32 32 32 0 32 32 0 32.5 32.5 32.5 29.5 32.5 31 0 28 29 29 0 0 0 0 0 26 26 26 0 0 0 0 0 24.5 24.5 0 0 0 0 23.1667 23 0 0 23.5 0 0 0 23 0 0 0 0 0 0 0 0 0 0 0 23.25 23.25 23.25 24.25 0 0 24 0 26 23 27.5 0 27 27 27.6667 0 0 27.4167 27.4167 0 0 27.5 28 28 28 28 0 0 28 28 29 29 0 27.5 27.5 0 27 0 0 0 26 26 0 26.3333 27 0 26 26.5 27 0 26.5 0 27 0 25 25 25 0 0 0 0 0 25 0 0 24 0 23.5 25.3333 27 0 0 0 0 24 0 23 22.6667 0 0 0 19 19 0 0 0 0 0 0 0 0 0 0 0 0 0 0 0 9.75 9.75 0 0 9 0 0 0 7.75 7.75 7 0 8 8 0 6.5 10.6667 0 7 0 5 6 0 0 6 0 -0.880952 -3.6 5 5 -0.666667 -0.666667 5 5 5 -2.16667 3.5 6 7 0 23.3333 16.6571 2.5 16.6571 16.6571 16.6571 -5.5 17.2 7 10.5 0 19.5 -6 18.1667 18.1667 0 19.5 21 0 20.5 21 0 21 0 0 21 21.5 23.3333 23 0 0 21.75 0 20.5 23 23 23 22 0 23 0 22 22 0 0 21.5 0 22 0 0 0 22 0 21 20.5 20.5 20.5 21 0 0 0 19.5 0 19 18.5 18.5 0 0 19 0 0 18.8 18.8 45 18 0 0 0 15 0 15 20 48.5 0 0 0 0 0 0 0 0 10 10 0 9.46667 9.46667 10 0 9 9 10 0 9 9 10 0 11 11 11 12 12 13 13 0 12.3333 12.3333 0 11.8 11.8 13.5 13.5 0 12 13 15 0 19.5 19.5 13 13 14.6667 14 15 15 15 14.5 14.5 14.5 14 14 14 15 16 16 0 0 0 13.6667 0 0 24 24 11 0 0 36.7857 33.375 15.75 15.75 15.75 33.375 25 21 10.5 0 22.0556 22.0556 0 0 0 0 0 0 10 10 10 11.3333 0 0 0 0 0 0 0 0 0 0 0 0 0 0 0 0 0 0 0 0 -5.5 0 0 0 0 0 0 0 0 0 0 0 0 0 0 0 0 0 0 0 0 0 0 0 0 0 0 0 0 0 0 0 0 0 0 0 0 0 0 0 0 0
8 8 9 9 9 9 9 9.5 0 0 8 0 8.5 8.5 8 8 8 8 8 8 0 8 0 0 0 7 8 7.5 7.5 7 0 7.5 7.5 7.5 0 8 0 6.5 6.5 6 7 0 6.5 6.5 6 6 6 0 0 6 6 7 0 0 0 6 6 0 5 5 5 6 6 5.5 5.5 5.33333 6 6 0 5.5 5.5 5 5 5 0 0 4 4 5 5 4.5 4.5 0 4 4 0 4.5 4.5 4 5 0 4 4.5 4.5 4 4 4 4 0 0 3 3 3 48.3333 0 0 38.6667 2 0 0 48.3333 0 0 39.25 39 41 41 40.5 40.5 0 41 41.5 0 0 43.5 43.5 0 42 0 41 42 0 0 0 0 41 41.5 0 42 42 43.5 0 43 43.75 44.3333 0 0 42.5 43 0 42 42.6667 0 41.5 41.5 41.6667 0 42 0 41 30.6667 33.1667 33.1667 0 0 32.9 37.3333 35.5 36.3 0 0 41.9 41.9 43 40.5 40.5 40.5 37 37 35 0 41.1667 39 34.2 34.2 0 0 0 37.5 0 0 36 0 0 0 36 36 0 0 34 0 34 34 0 0 0 32 32 33 0 0 32.1667 32.1667 31 31.5 0 0 29.5 32.5 0 0 28 0 29 0 27.5 27.5 27 0 26 26 25.5 0 0 26 0 0 23.5 23.5 0 0 23 23.3333 23.1667 23.1667 0 24 23 23 0 0 22.5 0 0 0 0 21 0 21.3333 0 0 21 21 0 0 23.25 20 0 0 0 25.5 0 0 27.5 0 27 27 27 27.6667 27.6667 27 27 27 0 27.5 28.1667 29 0 0 0 0 0 0 29 29 0 0 27 0 0 26 26 0 26.5 0 26 27 27 27 0 0 27 0 26.5 0 27 0 0 0 24.5 0 25 25 0 25 25 0 0 0 24 0 24.3333 0 26 25 22.3333 0 0 0 23 0 22.6667 23.5 0 0 0 0 0 0 0 0 0 0 0 0 0 0 0 0 10 10 10.6667 0 10 0 0 8.5 8.5 0 0 0 0 0 0 0 0 2.16667 7 6 0 6 6 4.5 0 0 5 0 -5.5 5 -4.5 5 0 4.33333 5 5 5 11.6667 17.5 0 24 16.6571 23.5 3.16667 11.1667 0 -0.333333 -0.333333 0 17.2 17.2 18.5 18.5 15.5 15.5 18.1667 0 0 0 0 0 0 21.5 21 23 20.3333 20.3333 0 24 21.5 0 0 0 0 21.75 20.5 22.5 22.5 0 23 0 23 23 0 22 22 21 21 0 0 21.5 0 0 0 0 21 21 0 0 0 0 20 0 19 0 19 0 0 19 19 19 19 0 19 19 0 17.5 0 20.5 20.5 36.5333 36.5333 0 31 14 9.16667 36 0 0 0 0 9 9 0 0 0 9.5 9.5 0 0 0 0 0 9 9 9 10 0 11 11 11.5 11 12 13.5 13.5 14.5 0 12.3333 11.8 11.8 11.8 11.6667 0 10.5 10.5 13 14.5 14.5 14 14 14 13.5 13.5 13.3333 14.5 14.5 12 10 14 14.5 15 15 0 0 15 0 15.6667 0 0 13.6667 13.6667 13 36.1667 36.1667 0 0 10.5 32.3333 20 17 14 15.75 33.375 33.375 36.7857 10.5 21.5833 21.5833 32.3333 0 12 0 0 0 0 0 23.25 11.5 11.5 11.3333 0 0 0 0 0 0 0 0 0 0 0 0 0 0 0 -1 -1 0 0 0 0 0 0 0 0 0 0 0 0 0 0 0 0 0 0 0 -7.66667 0 0 0 0 0 0 0 0 0 0 0 0 0 0 0 0 0 0 0 0 0 0 0 0
0 8 9 9 9 9 9 9.5 0 0 0 9 8.5 8.5 8 8 8 8 8 8 0 0 7.5 7.5 8 0 7 7.5 7.5 7 0 7.5 7.5 7.5 0 8 8 0 0 6 7 7 6.5 6.5 6 6 7 0 0 5.5 0 0 0 0 5 6 6 0 5.5 5.5 6 0 5.5 5.5 5.5 5.5 0 0 6 5.5 5.5 5 5 5 5.5 5.5 0 4 5 5 4.5 4.5 4 5 0 6 0 0 4 0 5 5 4.5 4.5 4 4 0 4 3.5 3.5 3 3 3 4 52.7222 52.7222 26.5 27 22.5714 21.8333 21.8333 40.1667 40.1667 39 41 0 40.5 40.5 40.5 0 39.5 0 0 0 42.1667 42.1667 42 42 0 41 42 41.5 41.5 41 41 41 42 42 42 42 42 0 0 44.3333 44.3333 43.5 43.5 43 43 0 0 42.6667 0 41.5 41.5 42 0 42 42.5 42.5 30.6667 30.6667 30.6667 33.1667 0 37.3333 37.3333 35.5 41.1667 0 0 0 35 37 41 38.5 39.75 37.75 37.75 37.4167 37.4167 38.3333 38.3333 45.5 34.8333 0 0 0 36.5 0 0 36 36 36 35.6667 35.5 35.5 0 35 35 34.5 34.5 35 0 33.5 33.5 0 32.5 32.5 0 32 32.1667 32.3333 32 31 31 31.5 0 31.0833 0 0 28 0 29 0 27.5 27.5 27 0 26 0 0 0 0 0 0 0 24.5 24.5 0 23 23.3333 23.3333 23 23.5 24 0 24 0 22.5 22.5 22.5 0 21 0 21 21 20 20 0 0 21 0 0 0 21.5714 21.5714 0 26 25 25.5 0 0 0 0 0 27 27.5 27.6667 27.3333 0 28 28 0 28.1667 0 0 28 28 0 27.5 28 28.5 28.5 0 0 0 27 0 26 0 26 0 27 27 27 27 0 0 27 27 27 0 26.5 0 26 25.5 25.5 25 25 0 0 24.5 0 25 25 0 24 24 24 0 24.3333 0 0 0 0 0 0 0 0 0 0 23.5 0 0 22.1667 0 0 0 0 0 0 0 0 0 0 0 0 0 0 10.5 0 0 0 9.5 0 0 0 0 0 0 8.64286 0 0 7 0 6.5 6 6 0 6 6 6 0 0 0 0 -22 0 4 0 0 4.5 0 5 0 5 7 6 0 6.66667 6.66667 6.5 7 7 9.66667 16.6571 0 0 17.2 17.3333 17.3333 18.5 16.875 16.875 20.5 0 0 19.5 20 21 21.5 21.5 0 20.6667 20.3333 0 24 21.2 0 0 0 0 21 23 22 22 22.5 24 0 21.5 0 0 22 22 0 21 0 0 21 0 22 21 0 0 0 0 20.5 21 20 0 0 19 0 0 19.6667 0 18.6667 19 18 19 0 18 18.5 0 0 0 0 0 0 0 0 31 12 0 0 0 0 0 0 0 0 9 9 9 0 0 10 9 10 10 0 0 9.5 9.5 9.5 9.5 11 11 11 12 12 12 12 0 0 0 14.5 14 11.5 0 13 14 14 13 13 14 0 13 0 0 15.5 15.5 14.75 14.75 14.5 15 0 14.5 14.5 14 14 15.5 16 0 0 0 0 0 14.5 0 32.3333 21.5833 21.5833 13 0 0 10.5 14 14 14 20 0 5.5 5.5 21.5833 21.5833 0 0 12.5 12.5 0 10.5 11.5 0 17.5 17.5 17.5 12 12 0 0 0 10 0 0 0 0 0 0 0 0 0 0 0 0 0 0 0 0 0 0 0 0 0 0 0 0 0 0 0 0 -6.5 -3.33333 0 -7.66667 -7.66667 0 0 0 0 0 0 0 0 0 0 0 0 0 0 0 0 0 0 0 0 0 0 0
9 9 9 0 0 0 0 0 0 0 8 9 8.5 8.5 8 8 8 0 0 8 0 8 8.5 8.5 8 0 7 7.5 7.5 7 7 8.5 8.5 8.5 7 8 8 0 7.33333 7 7 7 7 7 7 0 6 0 0 0 6 6 0 0 6 7 0 6 5.5 5.5 6 6 6 0 0 5 5.6 0 6 5.5 5.5 6 0 5 5.5 5.5 5 5 5 5 4.5 4.5 0 5 0 4.5 0 0 4.5 0 5 5 4.5 4.5 4 4 0 0 3.5 3.5 3 3 3 4 3.5 3.5 25 3 0 20 20 39 39 -15 40 0 41 0 0 0 0 0 41 41.5 42.1667 41.8333 42 0 42 0 42.5 41.5 41.5 41 41 0 0 43 0 0 42.6667 41 0 42.25 43.6667 43.5 43.5 43 43 0 42 42 0 0 0 41.5 0 41 43 0 35 35 35 33.1667 0 37.3333 34.2 39 41.1667 39.5 39.5 37.4167 37.75 37.75 39.75 39.75 39.75 35 35 38 38 44.5 0 0 0 0 0 0 28.5 0 0 0 37 36 36 36 36 36 35.5 35.5 35.5 35 35 35 0 0 33 32.5 32.5 0 32 32.3333 32.3333 0 0 0 30 0 31.0833 32 0 0 30 0 0 27.5 27.5 27.5 0 28 26.75 0 25 0 0 0 0 24.3333 24.3333 0 23 23 0 23 24 25 0 0 0 0 0 22 0 21 21 0 0 20 0 20.4 0 21 0 0 0 21.5714 0 26 26 0 26 0 25.75 27 27 27 27 28 27.3333 27.3333 28 27 0 28 28 28 0 27.3333 27 28 28 28 28 27.5 28 0 0 27 0 26 26 26 0 26.3333 27 27 0 27 27 27 27 27 27 27 0 0 0 0 25 0 0 0 24 0 0 25 0 24 24 24 24 24 0 23 0 23.5 0 23.3333 23.3333 23 23 23 23 22.5 22.5 22.1667 22.1667 20.3333 0 0 0 0 0 0 0 0 0 0 0 0 0 0 0 0 0 0 0 0 0 11.5 0 13.3333 0 6 7 0 0 0 0 6 6 6 6 0 0 5 0 6 0 5 0 0 0 5 5 5 6.5 1.5 0 0 6.66667 7 7 7 0 0 13.0714 24 0 -2 17.3333 17.3333 17.3333 17.3333 17.8095 17.5 17.8095 17.8095 19.5 20 20 18.6 20.3333 0 20.6667 20.6667 21 20 21.2 0 0 22 0 21.3333 0 0 0 21 23 0 23 0 0 0 0 0 22 0 0 21 21.8333 0 21 0 0 20.5 20.5 20.5 0 20 0 0 0 0 18.5 18.6667 0 20 19.5 19.5 0 22 18 0 0 31.619 0 0 0 0 14.5 15 0 0 0 0 0 0 0 0 9.5 9 8 9 10 10.5 0 0 0 0 9 0 10 0 0 0 9 10.5 11 11 0 12 12 13 12.5 12.5 12 0 11 11 0 0 0 0 0 13 0 13 12.5 12.5 13 0 0 14 14 14 15 14 0 15 15 15 0 15.5 15.5 15 14.5 14.5 14 14 0 0 0 0 14.3333 13.5 15.3333 15.3333 14.6667 14.5 14.5 10.5 10.5 15.3333 13.7 14.3333 14.3333 0 0 0 0 0 10.5 11.5 0 11.5 11.5 11.5 7.33333 7.33333 0 0 17.9167 0 10 0 0 0 0 0 0 0 0 0 0 0 8.16667 0 0 0 -5.5 -5.5 -7.5 -2.66667 0 -4.25 -4.25 -2.27778 -2.27778 -4.5 -4.5 -7 -7 -6.5 -3.33333 0 0 0 0 0 0 0 0 0 0 0 0 0 0 0 0 0 0 0 0 0 0 0 0 0
9 9 9 8.5 8.5 8.5 9 10 9.5 9.5 0 9 8.5 8.5 8 9 9.5 0 0 8 9 9 0 0 8 8 8 7.5 7.5 7 7 7 8.5 8.5 0 0 8 7.33333 7.33333 7 7 0 7 7 7 7 0 6.5 6.5 7 6.5 7 6.5 6.5 6 6 7 7 0 0 6 6 6 5.66667 5.66667 0 5.5 7 7 0 0 6 6 6 0 0 5 5 5 5 4.5 4.5 0 5 5 0 4 4 33.5 5 60 5 4.5 4.5 0 4 4 5 0 0 3 4 44 4 3.5 3.5 25 3 0 0 45 40 40 0 40.5 41 41.5 0 0 40.3333 41 41 41 41.5 41.8333 41.8333 42 0 42 41.5 41.5 41.5 41.5 41 41 41 41 43 42.5 42.5 0 0 0 43.6667 43.6667 43.5 43.5 43 0 0 0 43 0 0 0 41 0 0 42.5 42.5 0 0 0 0 0 34.2 34.2 45.5 38.3333 39.5 39.5 37.4167 38 0 39 39 40 39.5 39.5 38.5 38.5 0 37.1667 33.2 33.2 20 0 0 0 0 36.3333 0 8 0 0 36.5 36.5 36.5 0 36 0 0 0 0 0 0 33 0 33 0 0 33 0 0 31 31 31.5 0 31.0833 31.0833 0 31 0 29.5 29.5 28.5 28.5 0 0 27 26.75 0 0 0 0 0 0 0 24.3333 0 0 23 0 0 25 25 0 0 0 21.5 21.5 22 0 21 21 0 20 20 20.7917 20.7917 0 0 21.5714 21.5714 0 0 19.5 0 26 26 25 0 0 0 0 0 0 0 0 0 25.3333 26.3333 25.3333 0 0 0 28 0 28 28 28 28 29 0 28 0 0 0 0 0 0 0 0 0 0 0 27 27 27 0 0 0 26.5 0 27.1667 26 0 0 0 24.5 0 25 0 0 0 25 0 0 0 0 0 0 0 0 25.6667 0 23 0 23.3333 23 23 0 22 23.5 23.5 19.8333 19.8333 0 19.5 20 0 0 0 0 0 0 0 0 0 0 0 0 0 6 0 8 0 0 7 8 0 0 0 4 0 0 0 6 6 6 6 6 6 0 0 5.5 0 5 0 0 0 0 0 5 0 5 6 7 7 0 0 6 7 7 18 32 13.0714 13.0714 14.8571 10.4545 9.33333 15.4 17.3333 17.3333 17.8095 29.2 17.8095 17.8095 14 19 20 21 20.3333 20.8 20.8 20.8 0 20 21 0 0 22 22 22.6667 0 0 22 23 0 22 0 22 0 0 0 0 0 0 21 21.8333 0 0 21 0 21 20.5 20.5 20.5 0 0 20.5 0 20 18.5 0 0 18 0 19 19 18.5 18.5 0 18.5 31.619 31.619 21.3333 0 0 0 0 0 0 12 0 0 0 0 0 0 8 0 0 0 10 10 9.5 9.5 0 0 10 0 8 8 8 8.5 9 11 11.5 0 10.8333 10.8333 12 0 0 0 12 12.8333 12.8333 12 12 0 0 0 13.5 13.5 0 0 13 13 13 13 12.5 14.5 14.5 15.5 16 0 0 14 14 14 14 0 0 15 14.5 14.5 14 0 0 13.5 22.1667 22.1667 20 13.2 13.7 13.7 14.1667 14.6667 14.6667 14.1667 14.1667 13.7 13.7 13.2 7.5 -1 0 15 0 0 11 11 0 11.5 11.3333 11.3333 11.3333 11.3333 12 10.6667 0 17.9167 0 0 0 0 0 0 0 0 0 0 0 0 8.16667 0 0 0 17.9167 -5.5 -5.5 -7.5 -6.5 -6 -4.25 -2.27778 -2.27778 -6.66667 10 3.8 -7 -7 -6.5 -6.5 0 0 0 0 0 0 0 0 0 0 0 0 0 0 0 0 0 0 0 0 0 0 0 0
9 9 9 0 0 8.5 9 10 9.5 9.5 9 9 0 0 8 8 9.5 0 0 8 9 9 8.66667 8.66667 8 8 8 7.5 7.5 8 0 0 8.5 8.5 8 8 0 7.5 7.5 7 7 0 7.7 7.7 7.7 7 7 0 0 0 7 7 0 0 6.5 0 7 7 6.5 6.5 6 6 6 5.66667 0 0 0 0 7 6.5 6.5 6 6 6 5.5 5.5 0 0 0 5.5 5.5 5.5 0 5 5 5.5 5.66667 5.66667 5 5 0 0 0 0 0 0 4 5 4.5 4.5 0 4 4 4 3.5 3.5 0 24.5 -3.5 4.66667 20 40.3 40.3 0 40.5 41 42 0 0 0 40.3333 40.3333 41 41 42 42 42 0 41.6667 41.6667 42 42 42 41 41 41 41.5 0 0 0 0 0 43 42.5 42.5 0 0 43 0 0 0 43 0 0 0 42 41 0 0 42 33 33 41 0 41 34.8333 34.8333 41 44.5 39.5 39.5 38.0833 0 0 40 40 40 39.5 39.5 38.0833 38.0833 0 37.1667 31.5 34.3333 0 0 0 0 14 0 0 8 37 0 36.5 36.5 36 0 35.6667 35 35 0 34 0 0 0 0 0 0 0 33 0 31 31 0 0 0 0 30 31 0 0 30 0 28.5 28.5 28 0 27 27 0 0 0 26 26 0 0 0 0 0 23 23 23 23.5 23.5 0 0 23.3333 21.5 21.5 21.75 0 0 0 0 29 20 20.7917 20.4 20.4 0 21.5714 21.5714 22.25 20 26 25.5 26 26 0 0 27 27 27 27 27 26.5 26.5 0 25.3333 26.5 25 0 28 28 28 0 28 28 28 0 0 28 28 27.5 27.5 0 26 0 26 26 0 27 27 27 0 27 0 0 26 0 26 26.5 27.1667 27.1667 0 0 0 25 25 25 0 25 25 25 25 25 24.5 0 0 24 0 23.5 24 0 23 0 24 0 23 0 0 0 0 0 0 19.5 19.3333 20.3333 20.3333 0 0 0 0 0 0 0 0 0 0 0 8 8.5 0 0 0 0 0 7 0 7.5 0 0 0 0 6 6 6 6 0 0 5.5 0 0 0 3.66667 3.66667 10.5 5 5 5 5 6 6 0 6 7 7 0 0 6.5 0 0 13 13.0714 13.0714 13.0714 13.0714 16.0833 21.4286 15.4 10 17.3333 0 16.875 16.125 17.8095 21.5 21 22 21 21 21.5 20.8 0 21 0 22 22.6667 0 22 22 22.6667 0 23 23 23 0 30.5 0 22.5 0 0 0 0 0 0 21 0 0 0 21 0 0 21 21 0 0 20 20.5 0 19.5 19.5 0 0 18 18 18 18 0 19 17.5 17.5 0 17.5 17 0 0 0 15 14.5 14.5 0 0 0 0 0 9 0 8.5 9 9 9 0 9.5 9.5 9 0 8.5 0 0 0 9 0 9.5 10 10 11 11 11 10.8333 12 0 0 12 0 13 12.8333 12.8333 14 14 13.5 13.5 12.5 12.5 0 0 13 13 13 13.5 13 15 15 15.25 15.5 14 15 15 0 0 13 13.6667 15 15 15 14 0 0 14 0 0 0 20 14.4 14 14 13 14.8333 14.8333 13 13 14 14 14.4 0 0 0 0 0 19 0 18 0 23.6667 0 11 11.5 0 0 10.6667 0 0 0 0 0 0 0 0 0 0 0 0 0 0 0 8.16667 0 10 0 0 0 0 0 0 -4.25 0 0 0 0 0 0 0 0 0 0 0 0 0 0 0 0 0 0 0 0 0 0 0 0 0 0 0 0 0 0 0 0 0
9 9 9 8.66667 8.66667 10 10 10.5 0 0 9 9 9.5 9.5 9 0 9 0 0 0 0 9 8.66667 8.33333 8 9 0 7.5 7.5 8 8 0 7 7 8 8 9 0 0 7 7 8 7.7 7.7 0 7 7 7 7 0 7.5 0 7.5 7.5 7 7 7 7 0 0 6 0 6 0 0 5 7 0 7 6.5 6.5 6 6 0 5.5 5.5 5 0 5 6 5.5 5.5 0 5 5 5.5 5.66667 5.33333 5 5 0 5 4.5 4.5 5 5 0 0 4.5 4.5 4 0 4 4 0 0 0 24.5 25.6667 11.1667 -4 12 12 0 41 39.6667 40.875 0 0 0 41 40.3333 41 0 0 0 0 41 41.6667 41 41 40.5 40.5 0 0 41 41.5 0 42 42 42.5 42.5 43 43 43 0 0 42.5 43 44 0 0 0 41.5 41.5 41 43.5 41.5 43 0 0 0 41 41 0 0 33.2 37.1667 44.1667 44.1667 0 38.0833 38.25 0 40 39 0 38.25 38.25 40.3333 30 41.5 0 0 34.8333 30 0 0 0 32 37 9 0 37 0 0 0 34 36 35.6667 35.6667 34.6667 0 0 0 0 33 33 33 0 32.5 32.5 32 0 0 0 30 0 29.5 31 0 30 30.5 30.5 0 0 0 0 27 0 27 0 0 25.5 26 0 0 0 0 0 0 0 23.5 0 23 23 24 23.3333 23.3333 0 0 21.75 0 21 21 0 29 20 33 20.4 19 20 20 20 21.3333 0 25.5 0 0 0 0 25 26 0 0 0 26.5 26.5 26.5 26 28.5 26.5 0 28 28 28 28 28 28 28 28 28 28 28 27.5 27.5 0 0 26 27 0 26.5 27 27 0 0 0 0 27 0 0 0 0 27 0 0 0 0 0 25 0 0 25 0 25 25 0 25 25 0 0 0 0 23.5 24 26 23 0 24 0 0 0 0 0 0 0 20 19.3333 19.3333 20.5 0 0 0 0 0 0 0 0 0 0 0 0 0 0 0 0 0 6 6.5 7 0 6.5 6.5 0 0 0 0 0 0 5 6 0 5 0 5 5 5 5 5 5 5 5 5 5.5 6 0 6 0 0 7 4.66667 0 8 0 0 0 10.3333 4.66667 21.4286 16.0833 3.33333 16.6571 0 -0.333333 13.6667 13.6667 20 21.5 22 21.5 0 0 22 0 0 21.5 29.75 22.5 21.5 22 0 22 22 22 21 0 23 23 0 30.5 22.6667 23 0 0 0 22 0 46 0 0 28 0 0 0 0 0 0 21 0 20 20 20 0 0 0 0 0 18 18 21.3333 17.5 17.5 19 19 17.3333 0 21.3333 17 16 0 0 0 15 0 0 0 0 0 0 0 9 9 9.5 10 0 8.5 8.5 9.5 9 9 9.5 9 9 9 0 9 10 10 0 0 0 0 0 12 0 12 0 11.5 11.5 13.4 14 14 0 0 0 0 13.5 0 13 13 13 0 0 0 14.3333 15.25 15.25 15.25 13.6667 14.5 14.5 14 0 13 0 0 0 0 0 14 13.5 13.5 0 0 13.6 13.6 13.8333 11 17 13 14.8333 11 11 13.8333 0 13.6 7.75 0 0 0 0 23 0 0 0 -6.66667 0 0 11 0 0 0 0 0 3.2 0 0 0 0 0 0 0 0 0 0 0 0 0 0 0 0 0 0 0 0 0 0 0 0 0 0 0 0 0 0 0 0 0 0 0 0 0 0 0 0 0 0 0 0 0 0 0 0 0 0 0 0 0 0 0
9 9 9 8.66667 8.33333 10 10 0 10.5 10.5 0 9 9.5 9.5 0 0 0 9 9 9 9 0 8.33333 8.33333 8 9 9 0 0 0 8 8 0 0 8 8 8 0 0 7 7 8 0 0 0 7 7 6.66667 6.66667 8 8 8 0 0 7 7 0 7 6.5 6.5 6 0 0 5.5 5.5 5 7 7 7 6.5 6.5 6 6 0 0 0 5 6 0 6 5.5 5.5 5 5 5 5.5 5.33333 5.33333 0 0 0 6 5.5 5.5 0 5 5 5 4.5 4.5 4 0 4 4.5 4 4 3.66667 0 25.6667 11.1667 0 12.5 12.5 0 41 39.3333 40.875 40.875 40.875 42 40 41.6667 0 41.3333 41.5 41.5 41 41.5 0 41 41 41.1667 41.1667 0 41 0 41 0 0 0 43.8333 43.8333 0 0 43 0 0 41.5 42.5 0 43 0 42.3333 41.25 41.25 41.25 0 42 0 0 42 42 42 28.5 0 33.2 33.2 37.1667 41.5 41.5 41.5 40.3333 38.25 0 39.6667 39.6667 0 38 38 43.6667 31 29 38.2667 38.2667 31.4167 31.4167 31.4167 0 0 21.6667 21.6667 19.6667 19.6667 35.5 0 35.4 35.4 0 36 35.5 35.5 34.6667 35 0 33.5 33.5 32.5 32.5 0 33 0 0 0 31 30.5 30.5 30 0 0 0 0 31 30.5 28.5 30 0 0 0 27 0 27.5 0 0 0 0 25.5 0 0 24 0 0 0 23.6667 0 23.1667 23.1667 0 0 24 0 0 22 0 0 21.6667 0 0 0 20 19.5 0 0 18.5 18.5 0 20 20 25 26 26 0 24 25 27 0 0 0 29.5 29.5 25 0 0 26.75 27.5 27.5 28 28 0 28 0 29 0 28 28 27.5 27.5 0 27 27 0 0 26.5 27 27 0 27 0 0 0 26 26 0 26.5 0 27 26.5 26.5 0 0 25 25 25 25 0 25 25 0 25 25 0 0 0 0 23 22.6667 22.6667 22.5 25 0 24 0 0 0 0 0 0 20 0 20 0 0 0 0 0 0 0 0 0 0 0 8 0 7.5 7.5 0 0 0 0 0 7 6 0 0 5.66667 6 6 0 0 0 5 0 4 4.5 5 0 5 5.5 5 0 0 0 5 5 0 0 5 6 1.5 0 6.5 4.66667 7 0 0 0 10.3333 0 16.6571 20 20.4167 21.4286 12.4 16.0833 16.0833 19.5 20.5 0 18 20.5 21.5 21.5 21.3333 22.8333 22.8333 0 0 0 0 0 23 0 40.6667 22 22.5 0 22 22 23.3333 0 0 23 23 0 0 0 21.5 21.5 21.5 0 19.5 21 21 21 0 0 0 21 32 0 23.6667 20.6667 30 0 0 0 0 0 0 0 0 17.3333 17.3333 19.1667 19.1667 0 0 0 0 0 0 0 0 0 17.6667 0 0 0 0 0 0 0 9 10 0 0 9 24 9.5 9.5 9.5 10 10 10 10 10 8 10.3333 9.5 10.5 11 11.3333 11.3333 13 0 11 10.5 10.5 12.5 12.5 10 0 0 0 0 12 14.5 14.5 12 13 13 0 0 14 14.3333 14.3333 0 0 0 15 0 14 14 0 14.5 15.5 15.5 0 15 0 14 0 0 0 13 13.6 13.6 13.8333 13.1667 13.1667 15.6667 15.6667 15.6667 17 13.8333 0 11.6667 18 18 0 0 0 -10.5 0 0 -0.190476 -0.190476 -6.66667 12.1667 12.1667 0 0 17.6667 0 0 0 0 0.9 0.9 1.33333 0 0 4.66667 0 0 0 0 0 0 0 0 0 0 0 0 0 0 0 0 0 0 0 0 0 0 0 0 0 0 0 0 0 0 0 0 0 0 0 0 0 0 0 0 0 0 0 0 0 0 0 0
0 9 9 8.33333 8.33333 10 10 10 9.5 9.5 0 9 9.5 9.5 9 9 0 8.83333 8.83333 9 9 10 0 0 8 9 9 0 0 7 0 8 8 8 0 8 8 8.5 8.5 8 8 0 8 8 8 7 7 6.66667 6.33333 6.5 8 8 7.5 7.5 7 7 7 0 0 0 0 7 7 0 0 6 6.5 7 7 0 0 6 6 7 0 0 6 6 6 0 5.5 5.5 5 0 6 0 6.5 6.5 0 0 5.5 5.5 5.5 5.5 5.5 5.5 6 4.8 4.8 4.8 4 5 6 0 4.5 4.5 4 0 3.5 11.1667 0 0 0 0 40.5 40.5 40.875 40.875 40.875 40.875 40 41.6667 0 41.3333 41.5 41.5 0 41 0 0 41 41.1667 41.75 41 41 41 42 0 42 42 43 0 44 0 43 0 0 42.5 42.5 43 43 42.3333 42.3333 41.25 0 41.5 0 41 43 42 0 0 0 42 0 34.3333 34.3333 41 40 40 40 44 39.5 39.5 39.6667 39.8333 0 39.5 39.5 39.5 0 40.2381 40.2381 38 0 19.5 19.5 0 28.5 21 21 25.5 0 37 0 35.4 35.4 0 0 0 0 35 0 0 33.5 33.5 0 34 0 0 0 0 0 0 30.5 30.5 0 0 0 0 0 30.3333 0 30.5 0 0 0 28 0 0 27.5 0 27 0 26 26.5 0 0 24 0 0 24 23.6667 23.6667 23 23 0 24 23.5 23.5 0 21.5 22.5 21 21.6667 20.5 0 0 20 20.5 0 0 18.8333 18.8333 0 0 20.4 0 0 21.25 0 0 25 0 27 27 27 26.5 26.5 26 26.75 26.75 26.75 28 28 28 28 0 28 0 28 28 28 0 0 0 27 0 0 0 0 0 0 0 0 0 27 27 27 0 26 26 26.5 27 0 0 0 0 0 25 25 25 25 25 0 25 0 25 25 0 0 24.3333 0 23 23.6667 23.6667 0 0 25 24.5 0 0 0 23.5 23.5 20 0 0 19 0 0 0 0 0 0 0 0 0 0 0 7.5 0 0 0 0 0 0 6 6 0 5 0 0 0 6 0 0 0 5 0 4.5 4.5 0 5 0 5 0 6.33333 6 6 0 5 5 0 5 0 6.5 0 0 0 0 0 0 0 0 0 16.5 -1.5 0 0 12.4 12.4 18.5 16.0833 15.4 18.6667 18 18 0 28 28 22 21.5 0 22 22 22 0 21.5 22.5 0 0 0 0 21.5 21.5 23 23.5 0 23 0 22 22 0 0 22 0 0 0 19.5 21 23 23 21 0 0 27.5 20 0 19.8333 0 0 0 0 0 0 0 0 0 0 0 0 17.75 17.75 0 0 17 0 0 0 0 0 0 0 0 0 0 0 0 7.5 8.33333 9 9 9.5 0 9.5 9 26 9 0 9.5 7 10 10 10 9 9 10.3333 10.5 11.8333 11.8333 11.3333 12 12 12 12 0 10 12.25 12 0 13 13 0 12 12.5 13 13 13 13 0 0 14.5 14 0 14.6667 14.6667 0 15 0 14 0 0 13 15.5 15.5 0 0 0 29.5 0 0 0 18 20.5 11.6667 16.3333 0 0 14.5 22.6667 13.1667 13.1667 8.5 16.5 0 0 0 0 0 0 0 0 12 12 12 0 -15.5714 6 5.75 3.5 20 17.6667 17.6667 17.6667 7 3.2 0.9 0.9 0 1.33333 0 0 0 0 0 0 0 0 0 0 0 0 0 0 0 0 0 0 0 0 0 0 0 0 0 0 0 0 0 0 0 0 0 0 0 0 0 0 0 0 0 0 0 0 0 0 0 0 0
10 10 10 0 0 10 10 10 9.5 9.5 10 0 0 0 9 9 9 0 0 9 9 10 0 0 8.5 0 0 0 0 8 8 8 8 8 9 9 9 0 0 8 8 0 8 8 8 7 7 6.33333 6.33333 6.5 8 8 7.5 7.5 7 0 7 7 7.5 7.5 6 7 7 6.5 6.5 6 6.5 7 7 0 0 7 7 7 6.5 6.5 0 6 6 6.5 0 0 5 0 5.5 6.5 5 5 6.5 0 5.5 5.5 5.66667 5.66667 5.5 5 5.5 0 4.8 4.8 4 5 5 5 5.5 5.5 0 5 0 4.66667 4.66667 0 0 11.5 40.5 40.5 40.75 41 41 0 0 41.1 0 41.3333 42 42 0 41.5 0 0 41.75 41.75 41.75 41 41 41 41.5 42 41.5 41.5 43.4 43 44 44 0 0 0 0 0 0 42 42 44 0 0 40.6667 40.6667 41 19.6667 0 42 42 42 42 0 34.8333 34.8333 0 45.5 45.5 45.6667 0 38 38 40 39.8333 37.3333 0 0 0 42.5 39 0 0 0 19.2 19.2 0 27.5 0 10 37 37 0 35.5 35.5 35.4 0 35.3333 0 0 0 0 0 0 0 32.5 0 33 0 0 32 0 0 0 0 30 0 0 0 0 0 30 0 0 27.5 27.5 0 0 0 0 27 0 0 0 0 0 0 0 0 0 24 24 24 0 23 24 23.5 23 23 23 22.5 22 0 21 21 0 0 19.5 18.1667 18.1667 0 37.5 37.5 0 18.1667 13 0 18 21.25 21 20.7 25 25 26.5 27 27 27 27 26 27.5 27 27 0 0 27.5 0 27 28 28 28 28 0 27.6667 27.5 27.5 0 26 26 26 26.5 27 27 27 0 26 0 0 0 0 0 0 0 0 0 0 0 25 0 25 25 0 25 25 25 0 25 25 0 24 25 25 0 24 23.6667 22.6667 22.5 24 0 0 0 23.5 0 23.5 23.5 0 0 0 0 0 0 0 0 0 0 0 0 0 0 9 0 0 7 7 8 7 0 6 6 6 0 5.5 5.5 5.5 5 0 5 0 4.5 5 0 4 0 5 5 5 6 6 7 0 0 5 5 5 5 5 7 16.5 6 6 7 7 0 6 26 0 7.1 4 1.5 19 20 20.4167 21.4286 0 23 18.6667 18 22 22.5 22 0 22 22.5 21.5 23 0 21 0 21.6667 30.3333 0 22 22 22.5 23 23 21 24 20 23 0 22.5 0 0 0 22 0 0 0 0 20 21.3333 21.3333 21 20.5 20.5 20 20 19.8333 19.8333 0 0 0 0 0 0 18.5 0 18 0 0 17.1667 17.1667 0 0 0 0 0 0 0 0 0 0 0 0 0 0 0 8 7 0 0 0 0 0 9.5 0 9 0 9 9.5 10 10 10 0 0 0 10.3333 12 11.8333 11.8333 12 11.5 11.5 12 12.5 0 12.5 12.25 0 12.5 13 13 0 12 12.5 12.5 12.5 13 0 13 0 12 0 0 14.6667 14.6667 0 0 0 14 0 13 0 0 0 14 14 14.5 35.6667 35.6667 0 0 0 0 16.5 17 22.6667 22.6667 13.5 13.5 0 15.5 21.1774 0 0 0 0 0 11.5 11.5 0 0 0 11.5 0 0 -0.190476 0 0 0 0 0 17.6667 17.6667 0 0 3.2 3.2 3.2 0.9 1.33333 2.25 0 0 0 0 0 0 0 0 0 0 0 0 0 0 0 0 0 0 0 0 0 0 0 0 0 0 0 0 0 0 0 0 0 0 0 0 0 0 0 0 0 0 0 0 0 0 0
10 10 10 0 0 9.5 10 10 9.5 9.5 0 10 9.5 9.5 0 9 9 10.1667 10.1667 10 10 0 9.5 9.5 9 0 9 8.5 8.5 8 8 8 8.16667 8.16667 8 9 9 8.5 8.5 8.5 0 8 8 8 8 7 8 8 8 0 8 8 7.5 7.5 7 8 0 7 7.5 7.5 0 0 7 6.5 6.5 6 8 8 0 7.5 7.5 7 7 0 6.5 6.5 6 0 5.5 6 5.5 5.5 6 0 5 5.5 5 5 6.5 0 5.5 5.5 5.66667 5.83333 6 6 6 6 5.5 5.5 5 0 5 5 5.5 5.5 0 25 5 5.5 6 5.5 5.5 11.5 38 40.3333 40.75 40.75 40.75 42 42 43 41.1 42 42.5 42.5 0 41.6667 42 0 42 40.5 40.5 41 41 41 41 0 41.5 41.5 41 0 44 44 44 43.5 43.5 0 42 0 41.5 43.5 0 0 0 40.6667 0 41 25.5 0 32 32 21.6667 0 0 30 31.4167 38.2667 40.2381 40.2381 40.2381 43.6667 43.6667 0 39.8333 37.3333 37.3333 37.9333 37.9333 39 34 37 35.25 0 35.75 19.2 19.2 19.2 36.5 36 36 36 36.6667 0 2.5 2.5 0 0 35.3333 0 34 0 34 34 0 0 32 0 32.5 33 0 0 31 30.5 30.5 30.5 30 0 31 0 0 0 28.5 29 0 0 0 0 0 27 27 0 0 27 0 26 0 0 0 24 0 0 25 0 23 0 0 24 0 0 0 23 23 0 0 0 20 0 20 0 0 37.5 21.3333 21.3333 15.75 15.75 20 0 21.5 21.5 23 23.5 25.5 25 26 26 0 0 0 25 27 27 27.5 0 0 0 0 0 0 0 0 0 0 0 27.5 27.5 0 26 26 0 27 27 27 0 0 26 0 27 27 27 0 26 27 27 26.5 26.5 0 25 0 0 0 0 0 24.5 0 0 25 0 0 0 0 25 25 0 24 24 0 24.5 0 0 0 0 0 0 0 0 0 0 0 0 0 0 0 0 0 0 0 0 0 0 0 0 0 0 0 0 0 0 0 0 5 5 0 0 0 5 5 0 5.16667 5.16667 0 0 5 0 5 5.5 0 6 6 6 0 0 0 5 0 5 17.5 0 6 6 3.33333 3.33333 0 6.5 25 5.5 5.5 7.1 20.5 20.5 0 20.4167 21.4286 18.5 0 20 0 22.5 22 20 0 21.5 21.5 21.5 22.5 22.5 21.5 21.5 0 22.6667 0 23 20.5 0 0 20 0 24 26.6667 20 0 22 0 27 18.5 22 0 0 21 21.3333 22 0 21.3333 0 20.5 20.5 0 0 0 0 0 19.5 19.5 0 0 0 17 0 18 18.5 0 0 17.5 0 0 15.8 0 0 0 0 0 0 0 0 9 0 0 8 0 0 7 9 9 9 0 10 0 0 8 8 9.5 0 9 9 9 0 0 10 10 11 11.8333 0 12.5 12 35 0 0 0 10 0 0 0 0 0 11.5 0 0 15.25 15.25 12 0 13 15.25 16 14.5 0 14 14 13 13 13 13.5 12.5 13 14 12.5 12.5 0 0 0 27.1667 27.1667 35.6667 31.3 0 20 21.1774 21.46 15.5 17.1667 21.46 0 8 6.75 0 17 13 13 11 0 11 0 0 9 0 9 0 9.66667 4.64286 5.5 5.5 5.75 0 3.5 8.33333 8.33333 8.42857 7 0 0 13.4545 13.4545 1.33333 2.25 0 0 0 0 0 0 0 0 0 0 0 0 0 0 0 0 0 0 0 0 0 0 0 0 0 3.8 3.8 -3.16667 0 0 0 0 0 0 0 0 0 0 0 0 0 0 0 0 0 0
0 10 10 9.5 9.5 11 11 11 10.5 10.5 0 10 0 0 9 0 9 10 10 10 10 10 9.5 9.5 9 9 9 8.5 8.5 8 0 8 8.16667 8.83333 9 0 9 8.5 8.5 9 9 0 9 9 9 8 0 7.5 7.5 7.5 8 0 7.5 7.5 8 8 8 8 0 0 7 7 8 0 0 6 7.5 8 0 0 0 7 0 0 0 0 6 6 6 0 5.5 5.5 6 6 6 6.5 6.5 6.5 6 6 7 0 5.83333 5.83333 6 0 6 7 0 0 5 6 6 0 5.5 5.5 0 0 0 0 0 5.5 5.5 -3.66667 38 40.3333 41.5 41.5 41.5 41 41 41.5 42 42 42.5 42.5 43 43 42.5 42.5 41.75 42.5 42.5 0 0 41 41 0 0 0 42.5 44 44 0 44 0 0 42 0 42 42 42 42 41 41 0 0 41 41 43 41.5 41.5 21 41 0 48 48 0 40.2381 40.2381 0 42.5 39.5 43 0 39 39 37.9333 38.4 31.5 0 28 38 0 37.5 23.6 23.6 0 0 0 0 36 0 24 0 0 36 35.3333 35.3333 34.5 34 0 34 0 32.5 32.5 32.5 0 33 33 0 0 0 0 30.5 30.5 31 30 30.5 0 0 29 0 29 0 0 0 27.6667 28 27 27.5 0 27.5 0 27 26 0 0 24 24 0 0 24 0 0 23.5 0 23.5 23.5 23.5 0 23 0 0 0 0 21 0 38.5 15.75 0 21.3333 21.3333 34 0 15.75 24 24 20 22 0 0 21 24.5 27 26 26 26 27 25 26.5 26.5 26.5 27.6667 0 28 0 27 27 28.5 28.5 28 29 0 27.5 27.5 27 0 26.5 0 26.5 27 27 27 0 27 27 27 27 27 27 0 26.5 27 0 0 0 26 0 24.5 25 0 25 25 0 25 0 0 25 0 24.5 25 25 25 25 0 0 24 0 0 0 0 0 0 0 0 0 0 0 0 0 0 0 0 0 0 0 0 0 0 0 0 0 0 7 7 0 0 5 5 5 5 0 0 0 0 0 4.5 5.5 0 0 0 5 4.5 5 5 5 5 0 6 6 0 0 0 5.5 0 6 6 0 0 8 7 0 0 7 0 6 7 7.33333 20 20 20 20.5 0 0 20 20 19 18.5 18.5 -1.21053 17 0 0 0 22.5 23 0 21.5 22.6667 0 23 20 0 22 22 0 22 23 23 23 22.5 0 0 23 0 0 0 0 21 22 22 0 0 0 0 20 0 19 19.5 0 19 20 0 0 0 17 19 0 17.3333 18 17.5 0 0 0 0 0 17.6667 17.6667 0 0 0 0 0 0 8 0 0 0 0 7 0 9 0 10 9 0 0 0 9.5 9.5 7 0 9 9 0 0 10.3 10.3 0 11.7 11.7 14 0 0 14 0 0 0 8 13 13 0 0 0 0 0 12 12 13 0 13.5 14.6667 15.25 16 13 14 13.5 13.5 0 0 0 0 0 0 15 0 13 14.3333 0 27.1667 27.1667 0 0 0 8.5 0 0 14 14 0 0 9.75 12 0 0 0 0 0 11 0 10.6667 10.6667 0 0 0 0 4.64286 4.64286 5.5 0 0 3.5 3.5 0 0 8.33333 8.33333 0 0 0 0 13.4545 0 0 0 0 0 0 0 0.0238095 0.0238095 0.0238095 -0.1 0 0 0 0 0 0 0 0 1.5 1.5 -0.75 0 -0.75 0 0 2.5 3.8 3.8 0 0 0 0 0 0 0 0 0 0 0 0 0 0 0 0 0 0
10 10 11 0 0 10.5 10.5 11 10.5 10.5 10 0 0 0 9 10 10 0 0 10 10 10 0 0 9 9 10 0 0 8 9 9 8.83333 8.83333 9 10 0 8.5 8.5 9 0 0 9.66667 9.66667 8 9.66667 0 7.5 7.5 7.5 8 9 8.5 8.5 8 8.5 8 8 8.5 8.5 0 7 7 7 7 0 7.5 8 8 8.5 8.5 0 7 7 0 0 0 6 6 7 6.5 6.5 7 6.5 6.5 7.5 7.5 7.5 7 7 7 7 6.5 6.5 0 0 6 7 6.5 6.5 0 6 6 6 5.5 5.5 5 2 5 5.5 6 2 2 -13.5 46 40.5 41.5 41.5 41.5 0 0 0 0 41 42.6667 42.6667 42.6667 43 42.5 42.5 41.75 41.75 41.75 42.5 0 41 41.3333 0 41.6667 41.6667 43.2 44 44 44 44 0 0 0 42 42 42 42 0 0 40 41 41 41 41 0 0 0 41 28.5 0 0 35.75 35.25 37 37 37 39 37.9333 37.9333 39 39 39 38.4 38.4 31.5 38 0 32.5 0 0 23.6 23.6 35 36 34.2 36.5 0 0 0 36.5 36.5 36 0 34 34.5 0 0 34 0 0 0 32 32 0 33 0 32.5 32.5 32 0 0 0 0 30 29 30 30 30 0 0 0 28 28 0 26.6667 27 0 28 0 0 0 0 0 0 24 0 24 24 23.5 24 24 24 24 23.5 23.5 23 22.5 22.5 0 0 57 20.5 0 0 0 0 19 19 34 26.75 28.25 23 0 24 22.5 25 22 21 25.5 0 0 27 27 26.5 0 26 26 25 27.6667 27.6667 27 0 0 27.5 28 28 28 0 28 28 0 0 26 0 0 27 0 0 0 0 26 27 26.5 27 27 26.5 26.5 0 0 25.5 25.5 0 0 0 25 25 0 0 0 25 25 0 0 0 25 25 25 0 0 24.5 0 0 0 24 0 0 0 0 0 0 0 0 0 0 0 0 0 0 0 0 0 0 0 7 0 6.5 0 7 7 0 0 0 9 6 5 5 5 0 0 0 0 4 4 4 4.5 6 0 5 0 4.5 5 5 5.5 6 0 0 0 0 5 5.5 0 0 0 7 7.5 7 0 0 7 7 0 6 0 7 7 0 4.66667 7.5 15.5 15.5 20 0 19 0 -17 1.85714 3.71429 0 21.5 -4.5 0 22.5 0 22 22 22.6667 23 20 22 22 22 22 21.6667 22 0 0 22.5 0 0 0 0 0 0 0 22 22 0 21 0 20 20 20 0 0 0 0 0 20 0 0 19 18 18 0 17.3333 0 0 18.3333 18.3333 17.5 0 0 0 0 0 0 0 0 0 0 8 0 8 0 10 10 7.33333 0 0 9 0 9 0 0 8 0 8.33333 8.33333 8 9 0 11 11 10.3333 11 0 0 0 0 10 10 0 0 0 11.5 12 13.5 0 0 0 0 11 0 11.5 12.5 0 13.5 12 12 13 0 0 13 0 13 13 13.5 0 0 14 14 0 14 0 0 14.5 0 17 17 0 0 0 0 0 0 0 11.5 9.75 9.75 0 0 12 0 15 11 0 10.6667 0 0 6 0 0 9.66667 9.66667 9.66667 0 0 0 0 0 3.5 3.5 8.33333 0 0 -1.45 -1.45 0 0 0 0 0 0 0 0 -2.125 -1.61905 0.0238095 0.0238095 0 0 0 0 0 0 0 0 0 21 0 0 0 0 0 0 0 0 0 0 0 0 0 0 0 0 0 0 0 0 0 0 0 0 0 0
10 10 11 0 0 9.5 11 0 10.5 10.5 10 11 9.5 9.5 9 10 10 10 10 10 10 10 9.5 9.5 10 10 0 9.5 9.5 9 9 0 9 9 9 10 0 9.5 9.5 0 9 9 8.5 8.5 8 8 8 9 9 0 8 8 8.5 8.5 8 8.5 8 9 8.16667 8.16667 7.5 8 0 7.5 7.5 7 7.5 8 8 7.5 7.5 7 8 7 6.5 6.5 0 6 7.5 7 7.5 7.5 7 8 7 7.5 7.5 7.5 7 7 0 7 6.5 6.5 6 0 7 7 6.5 6.5 6 6 7 7 0 0 0 5 5.5 6 6.5 17.8333 17.8333 0 38 38.5 40 41.5 41.5 41 41 41.5 0 0 42.6667 42.6667 42.6667 43 42 42.5 42.5 42 42 42 0 0 0 0 41.6667 41.3333 41.5 40 44 44 0 0 0 0 42 0 42 0 0 0 41.3333 42 42 0 41 0 0 0 41 27.5 0 35.75 35.75 35.25 45 45 0 0 38.4 38.4 39.5 0 39 0 0 38 38 0 25 0 37 29.25 29.25 0 0 37 25.5 0 0 24 0 0 35 36 34.8333 0 0 35 35 0 32.5 32.5 32.3333 0 32.5 33 0 33 0 0 0 0 0 0 30 0 30 30 0 0 28.5 28.5 28 27.6667 27.6667 26.6667 26.6667 27.5 28 0 0 0 24.5 24.5 24 24.5 0 0 0 0 24 0 24 0 0 0 0 40 0 60 21 21 21 0 0 20 0 0 0 21 18 32.3333 20 43.5 32.3333 45.3333 23 0 21 25 0 27 25.5 25.5 24 0 26.5 26.5 0 24 28 27 0 28.5 28.5 28.5 28.5 28 0 27 27 27 0 0 25 0 26 0 0 0 26 26 0 0 0 0 27 0 0 0 0 0 25 25 0 25 26 0 25 25 25 25 25 0 0 25 0 32.6667 0 0 24 0 0 0 0 0 21 0 0 19 13.6667 0 0 0 0 0 0 0 12 0 0 0 0 8 0 0 0 6 0 0 0 6 6 0 0 4 5.33333 6 0 0 0 0 0 0 4.5 0 4 5 5 0 5 0 5 0 0 6 0 0 6 6 0 0 6 6 0 0 7.5 7.5 0 6.5 0 0 0 6 6 7 10.1 21.6667 23.5 19 0 0 0 0 0 0 0 8.75 21 -3 -3 20 0 0 19 23.5 0 0 23.8333 23.8333 22 22.5 23 0 22 0 21 0 23 0 0 0 0 22 23 0 0 0 21 0 0 0 0 0 0 19.5 0 0 20 19.5 19.5 19 0 0 0 18 0 19 19 18.3333 18 0 0 0 0 0 0 0 0 0 0 0 0 8 8 9 0 8 0 0 8.5 9 9 0 8 8 8 8 8.33333 0 0 0 9.5 10.3333 10.3333 0 12 0 0 9 9 9 0 0 12 0 0 13 0 0 0 13 10 12 11 11 13 0 0 0 0 0 13 0 0 0 0 0 0 14 14 14 0 0 13 0 13 13 0 0 14 14 9.75 11.5 0 0 0 0 15 0 0 0 0 0 0 0 0 0 0 0 7.5 0 0 0 9.66667 9.66667 4.64286 0 9.66667 0 5.75 5.75 3.5 3.5 0 8.33333 -1.45 -1.45 0 0 0 0 0 0 0 8.66667 0 -1.61905 -1.61905 0.0238095 -0.1 -0.1 0 0 0 0.7 0 0 0 0 0 0 0 0 0 0 0 0 0 0 0 0 0 0 0 0 0 0 0 0 0 0 0 0 0 0
0 10 11 10.5 10.5 10.5 11 12 11.5 11.5 0 11 10.5 10.5 10 10 10 10 10 9.5 11 11 10.6 10.6 10 10 0 9.5 9.5 9 9 10.5 10.5 10.5 0 10 10 9.5 9.5 9 10 13 0 0 8.66667 0 8 8 8 9 9 9 8.5 8.5 9 0 9 9 8.16667 8.33333 0 0 8 7.5 7.5 8.5 0 8.5 0 8 8 8 8 8 7.5 7.5 7 7 7.5 8 8.66667 8.66667 0 7 8.5 7.5 7.5 7.5 0 7 7 8 7.5 7.5 0 7 7 6 6.5 6.5 7 0 7 7 6.5 6.5 6 6 6 5 5 -8.33333 -8.33333 0 0 39 40 0 0 41 0 41 0 42 42.5 42.5 42.5 0 0 42 41.5 41.5 41.5 0 0 41 41 41 41.3333 41.3333 41.5 40.8333 43 0 44 0 0 42.6667 43 0 42.5 41.3333 41.3333 41.3333 40 40 41.5 42.5 42.5 42.5 0 41.3333 0 41 41 41 0 0 0 0 0 42.5 38 38 39 39 38.5 38.5 38 38 0 0 0 0 0 0 0 0 35.5 35 0 30.6667 58.6667 0 35.5 35.5 35 34.8333 34.8333 35 35 35 35.3333 0 0 0 0 0 31.5 33 0 33 33 0 0 0 0 30 30 28 0 30 0 0 28.5 28.5 27.5 27.5 27 0 0 28 0 27 0 26 0 0 0 24 24 24 23.5 0 24 24 0 24 20.5 20.5 0 0 55 36.5833 20 0 20 0 40 0 42 0 0 21 18 23 0 20 32.3333 45.3333 23 0 25.5 25.5 0 0 0 0 0 0 0 0 0 27.5 0 0 0 0 0 0 28 62 0 0 0 0 0 26 26.5 26.5 27 27 0 0 0 0 0 26.5 0 26 26 26 0 25.5 25.5 25 25 25 0 25 25 0 25 25 0 24.5 25.5 0 0 0 0 24 0 0 24 24 0 24 0 0 0 0 0 19 19 0 0 0 0 0 0 0 0 9 0 9 0 0 0 0 7 6 6 7 0 0 0 5 0 5.75 0 0 0 0 4 0 4 0 5.16667 5.16667 0 0 6 0 5 0 0 5.5 0 0 0 6 6 6 5 0 0 0 0 6 6.5 0 0 6.5 0 7 0 6 6.5 6.5 10.1 16.6571 23.3333 23.3333 20 20 21.6667 21.6667 14.8571 20 13.5 21.5 0 0 21 0 0 20.5 21.1667 21.1667 21 0 0 23.8333 0 22.5 23 0 0 0 0 21.5 22 21.5 21.5 0 0 23 0 22 22 0 0 0 0 0 20 0 0 19 19 19 0 19 19 18 0 0 0 0 18 0 17.5 17.5 17.5 0 0 0 0 0 0 0 0 0 0 7.5 7.5 0 8 0 0 0 0 0 7 8 0 0 8 8 0 7 8.5 0 9 0 0 11 9 9.5 9.5 0 12 0 0 0 0 0 12 13 13 13 0 0 0 13 12 12 12 13 13 0 14 0 0 13 15 13 0 0 0 13 13.5 13.5 13.5 0 0 0 0 13 13 0 0 13 18.75 0 20.5 0 0 12 13 33.3333 33.3333 0 0 6 0 21 12 0 11 0 0 0 0 0 0 9.66667 10.3333 9.66667 9.66667 10.3333 4.64286 4.64286 5.5 0 5.2 4.22353 5.21978 5.21978 9 7 8.14286 8.14286 -1.45 1 1.5 3.75 2 8.7 8.66667 2 10.3333 0 0 0 6.11111 -4.22222 0 0 0 0 0 0 0 0 0 0 0 0 0 0 0 0 0 0 0 0 0 0 0 0 0 0 0 0 0 0 0 0
11 11 12 0 0 10.5 11.5 12 11.5 11.5 11 0 11 11 10 0 10 9.5 9.5 9.5 11 11 10.6 10.6 10 11 10.5 10 10 0 9.5 10.5 10.5 10.5 10 10 10 9.5 9.5 9 10 12.3333 9.66667 9.66667 10 9 12.3333 0 0 0 9 9 9.5 9.5 9 0 8 9 8.33333 8.33333 0 9 0 7.5 7.5 8 8.5 9 9 8.5 8.5 8 9 0 7.5 7.5 8 8 7.5 8 8.66667 7.33333 8 8 8 9 0 0 8 8 8 8 7.5 7.5 7 0 7 8 7.5 7.5 7 7 7.33333 8 7 7 1 7 0 6.5 7 5 5 38 38 46.5 40 0 0 41 0 41 41 42.5 40.5 40.5 0 43 41 42 41.3333 41.3333 41.3333 41 0 41 41.5 41 41.5 41.5 40.8333 40.8333 43 44 44.5 0 0 42.6667 43 42.5 42 41.3333 41.3333 41.3333 41 0 0 42.5 43 41 41.3333 41.3333 34.2 41 0 41 0 32.5 0 0 34 38.5 40.6667 36.5 38 38 38 38 36.5 38.5 34 35.3333 0 23 34.75 25.6667 25.6667 0 35 35.5 0 35 32.5833 0 0 0 35 0 35 35 35 35.3333 35.3333 0 0 0 0 32 32 32.5 0 32.5 0 0 0 0 30 0 31 29.5 0 30 0 0 0 0 0 0 0 0 27.5 0 0 26 0 26 0 0 0 25 0 0 0 0 24 24 0 23.5 53.5 53.5 49 61 36.5833 36.5833 33 0 20 20 0 32.5 32.5 20 20 21 18 23 18.6667 0 23 23 17 22.6667 32.25 32.25 26 26 25 25 0 0 27 27 23 0 0 28 0 0 27 27.5 27.5 0 28 27.5 27.5 0 0 26 25.5 25 0 0 0 26.5 26.5 0 0 26.5 0 26 0 26 0 0 0 25 44 32.3333 0 0 47 21 0 25.5 0 0 26 0 25 0 0 25.5 0 23.5 24.5 24.5 24 0 0 0 0 0 0 0 0 0 0 0 0 0 0 0 11 0 0 9 0 8 0 0 7 0 0 6 6 0 0 5 0 0 0 0 4 4 4 4 0 3.5 4 0 4 0 0 0 5.5 5 5 5.5 6 0 5 5 6 0 5 5 6 0 6 6 6 0 0 0 0 0 6 0 0 0 -1.5 -0.333333 23.5 23.5 20 20 14.3333 9.66667 0 0 8.75 1.83333 1.83333 0 0 21 0 20.5 23 0 0 0 0 24 0 0 23 23 0 0 22.5 22.5 22 22 0 0 0 22.3333 0 22 22 0 21 0 0 0 0 20 0 0 19 19 22 18.3333 0 0 0 18 18 18 18 0 17.5 17 0 0 17 0 0 0 0 0 0 0 0 0 0 0 0 7 8.5 0 0 7 0 7 7 8.5 0 0 7 7 0 0 7 8 9.5 0 8.5 9 0 0 11 0 0 0 13 0 0 13 0 14 0 0 0 13 12 12 12 0 0 0 0 0 0 0 0 0 0 0 13.5 0 12.8333 12.8333 14.5 14.5 0 0 0 0 0 0 0 21.5 15 18.75 33.3333 0 12 12 9 9 18 15 0 0 0 14 0 0 11 0 0 0 0 17 9.66667 10.3333 9.66667 6 6 4.64286 4.5 4.5 3 3 -0.5 5.2 4.22353 5.21978 5.21978 0 0 0 8.14286 10.5 0 12.9333 12.25 8.7 8.66667 0 0 0 0 0 6.11111 -10 16 6.11111 12.3333 0 0 0 0 0 0 0 0 0 0 0 0 0 0 0 0 0 0 0 0 0 0 0 0 0 0 0 0 0
11 11 12 12 12 12 12 13 12.5 12.5 0 11 11.5 11.5 11 11 11 10.5 10.5 0 11 11 10.6 10.3333 11 11 10.5 0 0 10 10 10 10.5 10.5 0 10 11 10.5 10.5 10 10 12.3333 9.66667 9.33333 0 0 9 8.5 8.5 8.5 10 10 9.5 9.5 9 9 9 0 0 0 8 9 0 8.66667 8.66667 8 8.5 9 10 0 0 8 8 9 8.5 8.5 8 8 8.5 0 7.33333 7.33333 8 8 0 8.5 8.5 8.5 0 8 8 8 7.5 7.5 7 7 8 8 7.5 7.5 7 7 7.33333 7 8.5 8.5 0 6.5 0 7.5 7.66667 7.33333 7.33333 0 38 39 40 40.5 40.5 0 0 42 41 0 42.6667 42.6667 41 42.5 43 0 43 41.5 41.5 41 41 41 41.5 0 40.5 40.5 41.3333 41.3333 43 44 0 0 0 43 43 43 42 43 0 0 41 0 0 24 0 41 34.2 34.2 34.2 41 0 23.6 40 0 35.3333 35.3333 39.1667 39.1667 39.5 39.5 38.5 38.5 38.5 38.5 38 39 0 39.7 33.5 23 22 0 0 0 0 0 0 34.5 0 0 0 0 0 0 33.5 0 34.6667 35.5 35.5 0 0 33.3333 32.5 33 33 32.5 0 0 0 32 0 0 0 30 0 0 0 30 30 30 0 0 0 0 28 0 26.5 0 0 26 26 0 0 25 0 0 24 24 24 25 0 24 0 23 0 0 19 22 47.3333 31.75 38 0 20 0 0 20.5 36 42.5 42.5 20 18 37.25 0 18 0 37 42 0 26 0 52 30.1429 23.9524 23.9524 51 26 0 0 0 0 25 28 28 0 39.5 39 51.5 0 0 0 0 27 0 0 27 0 27 0 0 0 26.5 0 26.5 27 46 33 26 0 26 24 24 21 25.5 43 0 25 25 26 0 25.5 0 26 0 0 25 0 0 0 0 0 24 28 24 24 25 0 0 0 0 0 0 0 0 0 0 11 0 0 0 0 0 0 0 8 0 0 0 6 0 6 7 0 0 5 0 4 0 0 0 0 4.3 4 0 3.66667 0 0 0 0 0 0 0 0 5 0 6 0 0 0 0 0 5 0 5.5 0 0 0 0 0 7 7 0 6 0 0 5.5 6 0 2.5 6.5 0 0 0 0 7 0 0 0 21.5 0 0 20 0 0 21 21.5 0 0 21 21 19 21.5 0 21.6667 21.6667 21 22 20.5 21.5 0 0 0 23 22 22.3333 0 22 0 0 0 21 0 20.5 20 20 0 0 0 0 18.3333 18 0 0 0 0 0 0 18 17 0 0 0 15.5 17 0 0 0 0 0 0 0 6 0 0 0 0 0 0 7 0 0 0 7.5 0 7.5 0 0 7 0 0 0 0 7 0 0 0 0 0 0 12 0 0 0 13 0 13 0 12 13.5 13.5 11 0 0 11.1667 0 12 0 0 13 13 13 0 12 12 0 0 12 0 0 12 0 0 0 0 0 0 13.3333 13.3333 0 0 18 0 0 0 9 11.3333 12 12 9 11 7 6 0 0 23 15.5 0 0 -4 -11.2 -11.2 0 0 10.3333 0 0 0 0 0 0 0 4.5 3 3 5.2 4.22353 4.22353 5.21978 0 9 0 8.14286 8.14286 0 10.5 10.5 0 0 0 0 0 0 0 0 0 0 0 0 0 0 0 0 0 0 0 0 0 0 0 0 0 0 0 0 0 0 0 0 0 0 0 0 0 0 0 0 0
11 11 11 12 12 12 12 12 12.5 12.5 12 0 11.5 11.5 11 11 0 11 11 11 0 0 10.3333 10.3333 10.5 11 11 10.5 10.5 9.5 10 0 10 10 11 0 10 10.5 10.5 10 10 10 9.33333 9.33333 9.5 9.5 0 8.5 8.5 8.5 10 10 9.5 9.5 9 10 0 10 9 9 0 9 9 8.66667 9.33333 8 9.2 10 9 9.5 9.5 9 9 9 9 9 0 9 9 9 8.5 8.5 8 8 0 9.25 9.25 9.25 8 8 0 8 7.5 7.5 7 8 0 8 7.5 7.5 7.5 7 7.33333 7 7.5 7.5 0 6.5 0 7.5 7.66667 7.66667 7.33333 8.5 47 39 40.6667 0 0 40 0 40.5 0 0 42.6667 0 0 43 42.5 42.5 41.5 42.5 42.5 0 41 41 0 0 40.5 40.5 42 41.3333 0 44 0 42.6667 42.6667 42.5 43 43 0 0 42.5 42.5 43 41.5 42 0 0 25.5 37 37 37 42 0 29.25 41 0 0 0 39 39 39.5 39.5 38.5 38.5 38.5 38.5 38 36.5 37 39.7 0 22 22 36.6667 36.6667 0 35.5 35.5 34.5 34.5 0 35.5 0 0 0 0 35 34.6667 34.6667 0 35.5 0 33.3333 33.3333 32.5 32.5 33 32.5 33 32.5 32.5 0 0 31 0 0 30 0 0 0 0 30 0 0 26 0 0 26 26.5 0 0 26 0 25.5 25.5 25 0 24 25 0 24 55 0 24 0 37.8 34.4286 34.4286 0 47.3333 47.3333 31.75 0 0 0 20 0 21.3333 21 20.5 20.5 19 0 18 0 0 23.5 37 13.5 23.6667 23 13.6667 26.1667 26.1667 23.9524 23.9524 23.9524 26 26 26 0 33 31.6667 0 28 0 48.6667 48.6667 27.8333 27.8333 27 27 27 45 48.5 39 26.5 47 27 27 27 27 27 24 26.5 0 46 32.5 33.5 0 33 25.5 25.5 25 27.4 0 25 24.5 25 0 0 24 24 30.5 0 0 0 0 22 24.6667 24 24.25 24 0 0 24 25 0 0 0 0 0 0 0 0 0 0 0 0 0 0 0 0 6 0 9 0 0 7 0 6 6 7 0 0 0 0 4.33333 4.33333 4 0 0 3.5 0 0 0 5 0 0 0 4 4.75 4.75 0 0 5.5 0 5 5 5 0 5 5 5 5.5 6 6 6 6 6 6.5 0 0 0 0 0 4.5 6.5 5.5 7 0 6.5 0 0 0 24 19.5 0 16.5 0 0 0 0 0 19.5 19.5 20 0 0 0 0 0 0 0 21 21.6667 21.5 21.5 22 22 0 0 0 0 0 22 21.5 21.5 0 0 21 0 0 19.75 0 0 0 0 0 18 19 18.3333 19 0 0 18 0 18 18 0 0 0 0 0 0 0 0 0 0 0 0 0 6 13.6667 5 0 0 0 0 0 8 0 0 8.5 8.5 8.5 0 0 7 7 0 6.5 6.5 8 9.5 7.5 0 8 0 0 0 0 11 11.5 11.5 0 0 11.5 11 12 11.5 11 0 0 11.5 11.1667 12 0 11.5 0 12 12 12 12 0 0 12 12.5 0 0 12 14 13 13.5 14 13.5 21 0 13.3333 0 0 18 0 0 0 11.5 0 11.8333 11.8333 9 11 4.66667 0 -2 0 0 0 0.5 0 14 0 0 -11.2 1.5 0 0 0 14.3393 14.3393 14.3393 0 0 0 8.05714 9.11429 9.11429 5.2 4.22353 5.21978 5.21978 5.21978 5.21978 0 0 0 0 0 0 0 0 0 13.9167 0 0 0 6 0 0 0 0 0 0 0 0 0 0 0 0 0 0 0 0 0 0 0 0 0 0 0 0 0 0 0 0 0 0 0 0
12 0 11.5 12 12 12 12 0 12.6667 12.6667 12 12 12.5 12.5 0 0 11 0 0 11 11 12 0 0 10.5 11 0 10.6667 10.6667 0 11 0 10 10 11 11 11 10.5 10.5 10 10 10 0 0 9.5 9.5 10 10.1667 10.1667 0 10 10 9.5 9.5 10 10 0 9 10.5 10.5 0 10 10 9.33333 9.33333 8 11 11 10 9.5 9.5 10 0 9 9 9 10 0 9 9 8.5 8.5 8 9 0 9.25 9.5 9.5 9 9 9 9 8.5 8.5 8 8 8 8 0 0 7 8 8 8 7.5 7.5 8 8 8.5 0 8.5 8.5 8 8.5 8 40.6 39.5 39.5 39.5 0 40 40.5 41 42 0 0 40 40 42 0 0 42.5 42.5 42 41 41 41 41 41.5 41.5 0 0 42 42 42.5 42.6667 0 0 0 0 0 42 42 42 42.5 42.5 0 24 58.6667 50 37 37 37 0 0 29.25 34.75 33.5 39.7 39.7 39.7 36.5 36.5 39 37.5 37.5 37.5 37.5 36.5 38.5 0 27.5 0 0 0 36.6667 0 35 0 35 0 0 23.8333 34 0 0 34.6667 34 35 34.5 0 34 0 0 0 32 32.5 0 33 0 0 31.5 31.5 30.5 30.5 30 30 30 30 0 29 29.5 29 0 0 0 26 26 0 26 26.5 0 0 26 56 46.5 46.5 44.6667 0 0 0 52 0 0 24 43 24 36 36 22 0 22 21 20 0 0 20.3333 21 0 21.3333 21.3333 0 0 0 0 0 18 0 28.25 20.4286 0 23.6667 24 23 26 26 26 0 0 26 26.5 26.5 0 23.9524 23.9524 35.2 0 39.5 48.6667 28 28.5 28.5 0 0 26 0 0 32 27 0 36.5 27 27 45 0 0 0 34.5 0 26 26 0 0 0 0 25 25.5 31 0 24 24 24.5 24.5 24 25 0 30.5 0 25.5 29 22 24.6667 24.6667 22.75 22.75 0 0 23 0 0 0 0 0 0 0 0 0 0 0 0 0 0 0 0 0 0 0 0 0 0 6 0 6 0 6 6 0 0 0 0 0 0 0 3 5.45 3 0 0 0 0 5 4 4 5 0 4.5 6 5.5 0 0 4.5 5 6 42 5.5 0 5.5 6 6.5 6.5 6.5 5.5 7 0 7 0 7.5 7.5 5.75 4.5 6.5 0 0 8 0 13 19.5 19.5 19 0 20 20 0 20.5 20.5 19.5 19.5 21 20 0 21 21 20.5 21 21 22 0 22 0 0 0 0 0 0 0 0 0 0 21.5 21.5 21 0 21 0 0 0 0 0 0 0 0 0 0 0 0 0 0 0 0 0 0 0 0 14 22.5 0 0 20.5 0 0 0 0 0 0 0 6 0 11.5 14.3333 8.55556 12.75 0 8 9 9.5 0 0 8 8 0 7 7.5 0 0 0 0 15.8333 9 8 8 9 9 0 0 0 0 0 11.5 9 11 12 12 0 0 0 0 11 11 11 0 12 12 12 13 0 0 12 0 0 0 0 12 0 0 14 14.1667 0 0 14 23 6 0 0 0 12.6667 12.5 9 0 9 11.5 8 12.5 0 0 11 12 0 0 17.5 -7 11.5 11.5 24.125 24.125 0 7.5 0 21.6667 10.3333 10.3333 14.3393 14.3393 14.3393 0 0 11.5 11.5 4.22353 4.22353 4.22353 4.22353 5.21978 5.21978 5.21978 0 0 0 0 0 0 0 0 0 0 0 0 0 0 0 0 0 0 0 0 0 0 0 0 0 0 0 0 0 0 0 0 0 0 0 0 0 0 0 0 0 -10 0 0 0 0
12 12 12 12 12 12 12.5 0 12.6667 12.3333 12 12 11.5 11.5 0 11 12 12 12 0 11 11 11.5 11.5 11 12 0 10.6667 0 10 11 11.5 0 0 11 11 11 10.5 10.5 10 10 10 10.5 10.5 9.83333 9.83333 10 10.1667 9.33333 9.5 0 10.6667 10.5 10.5 0 10 10 10 10.5 10.5 0 9 9 9.5 9.5 9 11 11 10.25 0 0 10 10.5 10 9.5 9.5 9.5 10 9.5 9.5 0 0 8 9 9 9.5 9.5 9.5 10 0 9 10 9.5 9.5 8.5 0 8.5 8.5 8.5 8.5 8 8 0 8 8 8 8 7 9 9 9 9 9 9 10 40.6 39.5 0 0 38.5 38.5 41 41 0 41.5 41.5 40 40.75 40 42.5 42.5 42 42 0 41 41 41 41 40.5 40.5 41 41 41 42 43 0 0 42 42.6667 43 43 0 0 0 0 41.5 42 0 58.6667 0 40.7 40.7 40.7 0 25.6667 34.75 34.75 40 40 40 40 38.5 41.5 36.5 39.5 39.5 38.5 38.5 0 31.5 35.5 36.9 32.5 0 0 0 0 0 35 35 0 35 18.8333 18.8333 0 0 34.6667 35 34 0 0 33.5 34 0 0 32 32.5 0 0 32 0 31.5 0 30.5 30.5 30.5 30 30 30 0 30 29 0 29 0 0 26 26 53.4545 47.8333 26.5 50.5 0 26 39.6667 44.5 44.5 36.5 0 25.5 0 41.4 39.6667 0 0 28.6667 30 36 27.3333 22 0 22 0 0 0 0 21 21 0 21 21 21.3333 21.3333 0 0 0 18 0 0 0 24 0 0 20 18 33.4667 33.4667 30.6667 38.3333 26 30.25 25 38.3333 33.5 0 27 0 27 0 28 28 0 0 0 26 26 27.5 26 26 26 0 27 0 26.5 24.5 24.5 26 26 0 26 0 26 26 26 0 0 25.5 25 0 26 24.5 26 0 24 25.5 25.75 24.5 25.5 26 25.6667 22 0 0 25 21 0 0 0 16.6667 18.5 18.5 0 0 0 0 0 0 0 0 0 0 0 0 0 0 0 0 0 8 6 6 0 5.5 6 6 0 0 4.57143 4.57143 1.33333 4.5 3.5 3 5.45 3.5 5.45 5.16667 3 0 4.66667 4.66667 4 4 3.5 5 5 0 5.5 6.5 0 6 6 6 0 5.5 6 7 7.5 0 7 7 0 6.5 0 0 0 5.83333 5.83333 0 5.75 6.5 7 7 -2 20.5 20.5 0 0 0 0 20.5 20.5 0 0 18 17.5 19.5 20.5 21.5 0 0 0 21 0 0 21.5 22.5 22.5 21.5 0 0 21.5 21.6667 22.75 19.5 23 20 0 0 20 0 21 0 20 0 0 0 0 19 19 0 0 0 0 18 0 18 18 0 0 0 0 0 0 0 0 0 15 0 11 0 0 0 6 6 0 0 11.25 11.5 11 11 6 0 17.5 9.5 0 8 8 0 11.5 11.5 11.25 0 8 18 0 16.25 12.5 0 8 0 9 0 11.2 0 0 0 0 10.6667 13 0 12 0 11.5 0 0 10.5 10.5 10.5 11 10 12 13 13 0 12.5 13 0 0 0 13 11.5 12.5 0 12.3333 14.1667 14.1667 0 0 0 0 0 20.75 11 12.6667 12.6667 0 9.35714 9.35714 0 0 0 0 0 10.8333 16.875 16.875 16.875 0 0 13 0 0 0 12.5455 0 11.95 0 0 0 -2.33333 14.3393 14.3393 14.3393 14.3393 0 0 0 0 0 0 0 0 0 0 0 0 0 0 0 10.5 0 10.3333 0 0 0 0 0 0 0 0 0 0 0 0 0 0 0 0 0 0 0 0 0 0 0 0 0 0 0 0 0 0 0 0 0 0 0 0 0
0 12 12 11.5 11.5 13 13 13 12.3333 12.3333 12 0 11.6667 11.6667 12 0 11 12 12 12 0 11.5 11.5 11.5 11 11 0 0 0 10 11.5 11 11 11 0 11.5 0 10.5 10.5 11 11 11 10.5 10.5 10.5 10.5 10.5 9.33333 9.33333 9.5 11 11.25 11.25 11.25 10 10 11 0 9.5 9.5 10 10 0 9 9 10.5 11 11 10.25 0 0 9.33333 10 10 9.5 9.5 9.5 10 9.5 9.5 0 0 8 8 9 10 9.5 9.5 10 0 10.5 11 0 0 9 9 10 9.25 0 0 8.5 9 9 9.5 9 9 8 7 9 9 8.5 8.5 9 9 9 40.6 39.5 39.5 39.5 39 39 39.5 40 41.5 41.5 41.5 0 40.75 40 41.3333 40.5 40.5 0 41.1667 41 41 0 41 0 0 41 41 41 40.5 43 0 0 42 42.6667 44 0 42 0 0 42 42.3333 42.3333 42 30.6667 30.6667 40.7 40.7 40.5 40.5 40.5 40.5 0 40 49.2 49.2 49.2 35.5 0 43 39.5 37 37 37 38 39.5 0 39.8333 23 0 0 0 0 0 27.1667 35.5 0 35 18.5 18.5 0 0 34.6667 35 34 0 0 33 33.5 33.5 33.5 0 0 0 0 32 0 0 0 0 0 30 0 0 0 0 0 30.3333 0 0 0 0 0 26 53.4545 26 37.6667 26 26 26 26 25.5 25.5 25 0 24 27.3333 36.6667 0 23 0 23.5 22 27.3333 27.3333 22 0 22 0 0 0 21.3333 21 0 0 0 0 0 21.3333 0 0 0 0 17 0 0 24 15 19.8333 23.25 0 24.2 24.2 22.6667 33.4667 0 25.5 25.5 23 30.6667 30.6667 26 28 28 27 28 28 0 26.5 26.5 0 26 0 28.5 28 26 0 28.3333 0 28 27 0 0 26.5 0 0 26 0 0 0 0 0 26.3 26.3 0 0 25 25 0 0 24 24.5 25.75 24 26 25.6667 25.6667 0 0 0 0 0 0 0 16.6667 16.6667 23 0 0 0 0 0 0 0 0 0 8.5 8.5 9.5 11.1667 0 6.75 6.25 0 7.75 0 0 7 0 6.6 6.2 6.2 0 4.57143 4.33333 4.33333 3 4.5 5.45 4.3 4.3 0 5.16667 5.16667 5 4.66667 4 3.5 0 3.75 3.5 0 0 5.5 6 0 6 6 6 0 6.5 0 0 5.5 0 5.5 7 7 6.5 6 6 6.5 6.5 5.83333 0 6 7 7 0 0 0 0 0 10.3333 19 0 17.5 17.5 0 0 0 0 0 19.5 19.5 21.5 0 18.5 21.1667 0 22.1667 22.1667 21.5 21.5 21.5 0 22 22 21.6667 21.6667 22.75 19.5 0 0 0 0 0 20 0 0 20 21 20 0 19 0 0 0 0 0 18 0 0 18.5 0 0 0 14 15 0 14.5 0 0 0 0 0 0 0 0 0 0 0 4 4 6.225 5.7 0 8 7.5 10.3333 8.5 0 8.5 0 0 0 10 10.75 3 0 15.5 0 6.5 10.3333 10.3333 10.3333 9 9 0 16.4 10.5 0 0 0 0 13 0 0 0 11 11.5 11.5 26.8333 29 0 9.5 9.5 13 13 12 0 0 13 0 0 0 10.1667 10.5 12.5 0 12.3333 0 0 0 0 12 0 17.5 24 22.3 22.3 14.3091 8.21429 8.21429 9.35714 12 12.25 9.16667 9.16667 0 10.8333 6.71429 14 11 12.3333 0 0 14.2 0 0 0 11.95 11.95 0 0 0 10.3333 10.3333 14.3393 0 0 0 0 -3.5 0 0 0 4.22353 4.22353 4.22353 5.21978 0 0 0 0 8.14286 10.5 10.5 0 0 0 0 0 0 0 0 0 0 0 0 0 0 0 0 0 0 0 0 0 0 0 0 0 0 0 0 0 0 0 0 0 0 0 0 0 0
12 13 13 13 13 0 13 13 13.5 13.5 13 0 11.6667 0 12 12 0 10.5 10.5 0 12 12 12.5 12.5 0 11.5 12 11.5 11.5 10.5 11.5 11 12.5 12.5 11.5 11.5 12 11.5 11.5 0 11.5 13.1667 0 0 11 11 11 13.1667 13.1667 11 11 11.25 11 11 11 11 11.5 11 10.5 10.5 11 0 10 9.5 9.5 10.5 11 10.25 10.25 0 0 10 10 11 10.5 10.5 10 0 10 10.3333 0 0 9.33333 10.5 0 10 9.5 9.5 9 0 10.5 10 0 0 9 9 10 9.25 9.25 9.25 8.5 9 10 8.5 9 9 8 8 7 9 11.5 11.5 9.5 10.5 7 21 0 0 0 38.5 38.5 41 0 42 42 42 41.5833 40.75 40.75 41.3333 41.3333 41.3333 41.1667 41.75 41 41 41 0 41.5 41.5 42.5 0 0 41 40.5 40.5 40.5 41.5 42.5 44 0 42.5 42 42 0 41.5 42.3333 41.5 32.5833 0 0 0 0 0 0 0 0 0 49.2 49.2 36.9 39.5 39.5 39 40 40 0 0 0 0 0 36 31.5 0 30.5 25.6667 25.6667 0 27.1667 0 0 26 24.5 36 0 0 34 0 34 0 0 0 0 0 0 0 32.5 0 0 0 0 32 0 0 0 30.75 0 30 0 29 30 30.3333 54 0 0 0 0 0 0 33.1111 26 26 33.6667 26 35 29.5 29.5 29.5 0 25.5 25.5 32.75 0 23 23 23.5 0 0 0 22 0 0 0 0 20 21 19 0 0 21.6667 20.5 20.5 0 19 19 0 18 0 18 0 17 0 18 0 27.3333 16.5 16.5 15.5 28 0 26 26 28 33.4667 33.4667 26.5 0 28 28 0 27 0 0 0 26 0 26 26 26 26 26 26 26 26 26 26 27 27 0 26 26 0 0 0 24.5 21 21 25 0 25 25 0 20.5 25 0 0 25.3333 0 0 0 26 0 0 0 22 0 21 21 21 21 0 0 0 0 0 0 0 0 0 0 0 9.5 9.5 11.1667 11.1667 6.75 6.25 0 0 5.4 0 5 7 6.6 6.2 6.2 6.2 5 4.57143 4.57143 4.57143 1.33333 4.3 4.3 3.83333 4 3.83333 5.16667 5 3.5 0 0 3.5 3.5 3.5 6 6.14286 6.14286 6.5 6.5 5.5 6.5 0 0 4.66667 0 0 9 9 9 8 8 8 6 8 0 16 7 5 7 0 0 15 0 9 28 8 6.16667 6.16667 9.5 10.9429 10.9429 10.8462 0 0 0 0 17.5 19 0 25 21.6667 0 0 0 0 0 21 0 0 0 22 0 0 0 0 0 23 21 19 0 19.5 19.5 20 20 0 0 19 0 0 0 0 0 0 0 0 17 0 0 24 15 15 0 14.5 0 0 0 0 0 0 0 0 0 0 6 6 0 0 4.2 0 5 5 6 7.75 9.5 8 8 8 8 7.33333 7.33333 0 0 6.5 12.5 0 8 8 10.3333 8 9.5 0 11 8.5 12.625 12.625 10 0 0 9 9 0 7.16667 0 0 26.8333 26.8333 10.5 0 0 14.5 0 0 12.5 0 10.5 0 0 0 17 10.1667 10.1667 0 12.1667 12.1667 0 0 11 11 0 15 35 16 0 11 15.1111 14.3091 0 9.35714 9.35714 0 0 8.21429 0 0 12.1 -3.1 -3.1 12 0 0 0 0 0 0 0 17.8333 17.8333 16.8333 17 17 0 11.6667 14.3393 -3.5 -3.5 14.3393 7.66667 7.66667 -2.5 8.05714 4.22353 4.22353 7.64286 0 0 0 0 3.5 0 8.14286 8.14286 0 0 0 0 0 0 0 0 0 0 0 0 0 0 0 0 0 0 11.5 0 0 0 0 0 0 0 0 0 0 0 0 0 0 0 0 0 0 0
12.5 13 13 13 13 13.5 14 0 13.5 13.5 13 13 0 0 12 0 12 11.8333 11.8333 11.6667 12 12 11.5 11.5 0 11.5 12 0 0 11 11 12.4 12.5 12.5 12 12 13 12 12 12 12 12 16 16 11.5 11.5 11 12.5 12.5 12 12 11 11 10.8333 11 0 11 12 0 0 11 11 11 10.5 10.5 9 11 11 11 10.5 10.5 10 10 11 11.5 11.5 10.6667 11 11 11 0 0 10 9.5 9.5 11 10.5 10.5 10 10.5 10.5 10 10.5 10.5 10.5 10.5 10.5 11.5 0 0 9 10 10 0 9 9 9 9 9.5 10 11.5 11.5 9.5 41.9 24.3333 -13 0 0 0 0 39.5 38 40 0 41.5833 41.5833 41.5833 42.3333 42.3333 41.3333 41.3333 0 41.75 0 41 41 41 41 41.5 41.5 41 41 0 42 42 0 0 41 42 42.6667 0 41 42 42 41.5 0 0 0 0 41.5 32.5833 32.5833 39 40.5 0 0 0 32.5 36.9 36.9 36.9 38.6667 0 40.3333 0 0 0 0 38 0 0 37.5833 0 0 30.5 0 0 0 16 0 0 35 36 23.25 35 35 35 0 0 34 0 34 34 0 0 32 32.5 0 31 0 31 31 31 30.75 30.75 30.75 30 30 30 30 0 30.5 0 0 0 0 27 27 0 33.1111 32.75 0 26 26 0 28.8333 28.8333 24.5 0 25 25 25 0 0 0 23 0 23.5 23.5 0 0 22 0 0 20 0 21.1667 21.6667 0 21 18.3333 18.3333 0 0 19 18.5 18 0 18 23.1667 0 18 19 0 0 16.5 16.5 16 25.3333 25.3333 25.5 25.5 25.3333 22.6667 22.6667 20.75 28 0 0 0 27 28 0 0 26 0 25 25 25.5 0 0 26 26 26 26 0 27 0 0 0 25 0 25 25 0 0 21 0 0 24 0 0 25 0 20 25 25.3333 0 18.5 0 0 0 0 0 0 0 0 20 10.5 10.5 0 0 0 0 0 0 0 0 0 0 9.5 9.5 9.5 9.5 11.1667 0 6.75 6.25 6.25 7.75 5.4 0 7 7 0 0 0 7.55556 5 5 4.57143 7.55556 1.33333 4.97222 4.97222 5.45 5.16667 3.83333 2 4 4 4 3.5 6.13889 6.13889 6 6 0 0 5.5 0 0 6.5 0 0 8 0 0 8 0 9 8 0 7.5 8 0 16 7 0 6 9.5 10.5 10.5 0 5.5 7.5 6 6.16667 10.2909 0 9.5 10.9429 11.3333 10.8462 10 10.2909 10.2909 0 18.5 18.5 0 21.6667 21.6667 0 22 22 0 0 0 0 21 0 21 0 19.5 19.5 0 0 0 0 0 0 0 20 0 0 0 0 0 0 0 0 0 0 17 17.5 0 0 0 0 0 0 0 19 0 0 0 0 0 0 0 0 7.8 7.8 0 6 7.33333 6.225 6.225 4 0 0 5.5 7.5 8 8 0 8 0 7 7.33333 7.5 8 8 10 8 8 9.66667 8 8 8.5 9.5 12.1667 12.1667 11.3333 0 0 10 16 13.1667 11 0 10.5 10.5 0 10 12 10 9.33333 0 0 12.4286 11 13.6667 13.6667 12 16.5 0 0 0 0 10 0 16 0 0 0 0 0 12.1 24.6 24.5 0 11 0 0 0 11.3333 11.3333 11.3333 9.35714 8.21429 0 16.2727 12.1 12.1 -3.1 13.5 11 0 12.3333 9.87879 9.87879 13 11.95 12.5455 12.5455 0 17.8333 6.75 6.75 6.75 0 -2.33333 -2.33333 -3.5 7.66667 7.66667 14.3393 8.05714 10.3333 0 0 4.22353 4.22353 0 0 0 14 14 0 0 0 0 10.5 10.5 0 10.3333 0 13.9167 9 10.5 0 0 10.5 0 0 0 0 0 0 0 0 0 0 0 0 0 0 0 0 0 0 0 0 0 0 0 0 0
14 14 13.5 13.5 13.5 14 14 14 0 0 0 0 12.5 12.5 0 0 12 0 0 13 13 12.5 12.5 12.5 12 12 12 11.5 11.5 12 12 13.5 0 0 12 12 13 13 13 0 12.6667 13 12 12 12.1667 12.1667 13 0 0 10.8 12 0 10.8333 10.8333 11 12 12 12 11.6 11.6 11 11 12 11.5 11.5 11 11 11.5 11.6667 0 0 10.5 11 11 11.5 11.5 10.6667 11 10 11 0 0 10 11 11.5 12 11.5 11.5 11 11 12 11 10.5 10.5 11 0 11 10.5 10 10 10.5 10.5 10 10.5 10 10 9.5 10.75 0 10.6 11.5 11.5 9.5 43.2667 0 12 40.5 0 0 0 39 39.5 41 0 0 0 0 0 42.3333 42 0 0 41.75 41.75 42 42 42 40.5 40.5 41 41 41 41 41 41 40.5 40.5 40.5 0 42.6667 42.6667 41 42.5 42.5 0 42 41 23.8333 41.5 0 0 0 41 41 0 0 0 39 39.8333 39.8333 0 38.6667 40.3333 38 39.8333 39.8333 0 0 38 30 41 31 24 0 31.3333 0 0 0 27.5 13 11 35 18.6667 23.25 34.5 34.5 34.5 34 33 35 0 33 0 0 0 32 32 0 0 0 31 31 31 55.5 55.5 30 52 30 42 52 30 30 0 0 0 0 27 30 38 33.6667 32.75 26 25.5 26 26 0 0 0 0 24.5 24.5 25 0 0 0 23 0 22 22 0 0 0 0 0 20 0 21.1667 0 0 19 20.5 20.5 0 0 19 0 18.5 0 0 0 0 0 16 0 17 21 21 23.5 26 26 21 21 24.2 24.2 27.5 13.25 0 0 24 0 26.5 24.6667 24.6667 25 26 24 23 24 25 25.5 26 26 25.5 25.5 26 26 0 27 0 0 26 0 25 25 24.5 25 25 25 0 24 0 0 0 0 0 24 25.5 26 26 27 0 0 0 0 0 0 0 0 0 13.0667 0 0 0 0 0 0 0 0 0 0 0 9.5 9.5 0 11.1667 11.1667 0 6.75 10.1667 0 8.66667 5.4 8.5 0 0 0 5.75 0 0 8.07143 7.55556 7.55556 4.97222 6.8 4.97222 5.16667 5 5 2 0 7.5 7.5 0 2.86111 6.13889 9.5 8.25 8.25 6.14286 9.08333 9.08333 5.5 4 0 0 7.83333 9.2 0 9 8.5 0 8.3 7.25 9 9 7.83333 0 9.66667 8.66667 0 8.2 17.5 8 8.5 0 0 7.5 10.8 10.2909 10.2909 0 10.9429 11.3333 0 20.5 19 18.5 18 17.5 17.5 0 0 14.25 0 22 22 19 19 22 22 22 0 0 0 0 0 0 19.3333 0 19 0 0 19 19 0 18.8333 18.8333 0 0 0 0 0 17.5 17.5 17 17.5 0 0 0 0 0 0 14 14 0 0 0 0 10 8.15 8.15 8.15 0 0 0 0 7.33333 0 6.225 6.225 5.7 4 0 5.5 7.5 7.5 0 0 8 0 0 7.25 7.25 0 7.5 7.5 9.5 9.66667 9.66667 8 8 0 0 0 0 0 11 11 11.3333 10.7143 12 11 12 0 10.5 0 10 9.33333 9.33333 16 11.6 8.5 12.3333 13.6667 13 0 0 12 11.8333 11.8333 14.25 0 0 12.5 14 0 0 11 0 10.5 0 0 24.5 0 15.7273 0 28.25 13.6667 13.6667 10 0 5 5 0 5.5 9.33333 13.5 13.5 11 0 10.5 10.5 9.87879 9.87879 11.9167 12.5455 12.5455 12.5455 17.8333 17.8333 10.6 10.6 0 17.8333 0 0 -8 0 0 0 0 0 0 0 0 0 0 0 0 0 0 0 10.75 10.75 31.5 0 12.9333 12.25 10.3333 13.9167 13.9167 9 0 0 9.8 10.5 0 0 0 0 0 0 0 0 0 0 0 0 0 0 0 0 0 0 0 0 0 0 0 0
