0 0 0 -2.66667 -2.66667 -3 -4.5 0 0 -5 -5.25 0 0 0 -4 -4.33333 -4.33333 -4.66667 -5 -4.5 -4.5 -4.5 -5 0 -5.5 -5.5 0 0 0 -5.66667 -5.66667 -6 -6 -6.5 -6.5 -7 -7 -7 -6 -6 0 0 -6.5 -6.5 -7 -7 -7 -7.33333 -7.33333 -8 -8 -7.33333 -7.66667 -7.66667 -8 -8 -7.91667 -8.66667 -8.66667 0 -9 -9.5 -9.5 -9 0 0 -8.5 -8.5 0 0 -9 -9.33333 -9.33333 -9.5 -10 -9 -9 -9.5 -9.5 -10 -10 -10 -10.5 -10.5 -10 0 -10 -10.5 -10.5 -11 -11 0 0 -10.75 -10.75 -10.8571 0 0 0 0 -11.6 -12 -10 -10 -10.5 -10.5 -10.75 -11 -11 -11.3333 -11.3333 -12 -11.8 -11 -11 -11.5 -11.5 -11.6667 0 0 0 0 0 0 0 0 -13 -13.5 -13.5 -14 -13 -13 -13 -13.3333 -13.3333 -13.75 -14 -13.75 -13 -13 -13.5 -13.5 0 -14.5 -14 -13 0 0 -15 -15 -15 -15 -15.25 0 0 0 0 -15 -15 -14.3333 -14.6667 -14.6667 -15 0 -15 -15 -15.4 -15.75 -15.75 -15 -15 -15 -16 -15 -16.5 -16.5 0 0 0 0 0 -17 -17.4 -17.4 -16.75 0 -16 -17 -17 0 -17.3333 -17.3333 -17.6667 -18 -18 -17.6667 0 -17 -17.5 -17.5 0 0 0 0 0 -18 -18.3333 -18.6667 -18.6667 -18 -18 0 -19 -19 -18 -18.3333 -18.6667 -18.6667 -19 0 -20 0 0 0 -19.3333 -18.5 -18.5 0 -20 0 0 0 -19 -19 -19 -20.75 -20.75 -21 0 0 0 0 -20 -20 -20 -20.6667 0 0 0 -21 -21 0 0 0 0 0 0 0 0 0 0 -21 0 0 -21 -21 0 0 0 0 0 0 -22 0 -22 -22 -22 0 0 0 0 0 0 0 0 0 -24 -23 -23 0 0 -23 -23 -23 -23 0 0 0 -23 0 0 -24 -24 -24 0 0 0 0 0 0 0 -24 0 0 0 0 -23 0 0 -25 -25 -25 -24.75 0 -26 0 0 0 -25 -26 -25 0 -26 -25 -25 -25 0 -25 -25 0 -25 -25.3333 -25.3333 -25.6667 -26 -26 -26 -26 -26 0 -26 -26 0 -26 -26 -26 0 -26 -26 -26 -26 -26.5 -26.5 -27 -27 -27 -27 0 -27 -27 -27 -27 -27 -27 -27 -27 -27 -27 -27.3333 -27.3333 -27.3333 -27.3333 -27.3333 -27.3333 -27 -27.6667 -27.5 0 -27.5 0 0 0 0 0 -29 0 -29 0 0 -28.25 0 0 0 0 -29 0 0 0 0 -28.3333 0 0 0 0 -28 -28 -28 -28 0 0 0 0 0 -29 -29 0 0 0 0 0 -29 0 -29 -29 0 -30 -29 0 -30 0 0 -30 -31 0 -30 0 0 0 -30 -19 -31 0 0 -31 0 -31 0 0 -31 0 -31 -31 -31 0 0 0 -31 -30 -31 -31 0 -31 0 0 -32 0 -32 -32 -32 0 -32 0 -32 0 -33 0 -32 -32 0 0 0 0 -32 -32 -32 -32 -32 -32 0 0 0 0 0 -34 0 -34 0 -34 0 0 0 0 -33 0 -34 -33 0 0 0 0 0 -34 0 0 -34 -34 -34 -34 -34 0 -34 0 -35 0 -35 0 -35 0 0 0 -34 -34 0 -34 0 0 0 0 0 0 0 -35 0 0 -35 -35 -35 0 -36 0 0 0 0 -36 0 -36 -35 -35 0 0 -36 0 0 0 0 -36 -36 -35 0 0 0 0 0 -37 0 -37 -37 0 -36 -37 0 -37 0 0 -37 0 0 -37 0 -37 0 0 0 -37 -37 -37 -37 0 -38 0 0 0 -38 0 -38 -38 0 -38 0 0 0 -38 0 0 -38 0 -38 0 -38 -38 0 0 0 -38 0 0 0 -38 -38 -38 -38 0 0 0 0 0 0 0 0 0 0 0 0 0 0 0 0 4.08125 0 14.6667 0 -40 59.3333 0 0 52.5 -40 0 -40 -26.75 0 0 0 0 0 0 -40 -40 -63 -41 -40 0 -40 46 -40 -40 0 0 -40 0 0 0 0 0 0 0 0 0 0 -42 0 0 0 0 0 0 0 0 -42 0 -42 0 0 -42 -42 -42 0 0 0 -42 0 0 0 -42 0 0 0 0 0 31 0 0 0 0 -42 -42 0 0 0 0 0 52 0 0 -43 0 0 0 -43 0 -43 -43 -37.5 -44 0 0 0 0 0 0 0 0 0 0 0 0 0 0 0 0 0 0 0 0 0 0 0 0 0 0 0 0 0 0 0 0 0 0 0 0 0 0 0 0 0 0 0 0 0 0
0 0 -2.5 -2.5 -2.66667 -3 -3 0 0 -5 -5.25 0 0 -6 -3.92857 -4.25 -4.25 -5 -4 -4.5 -4.5 -4.5 -5 0 -5.5 -5.5 -4.66667 0 0 0 -5.66667 -6 -6 -6.5 -6.5 -7 -7 -7.25 -7.25 -6.66667 -7 -6 0 0 -7 -7 -7 -7.5 -7.5 -8 -8 -7 -7.5 -7.5 -8 0 0 0 -9 -9 -9 -9.5 -9.5 -9.16667 -9.16667 -8 -8.5 -8.5 0 0 -9 -9.5 -9.5 -10 -10 -9 -9.5 -9.5 0 0 -10 -10.5 -10.8 -10.8 0 0 -10 -10.5 -10.5 -11 -11 0 0 0 -10.75 -11 -10.5 -10 -10.5 -10.5 -11 -11 -10.75 -10.8 -10.8 -10.5 -10.8 -11 0 0 0 0 0 0 -11 3 3 -11.8 0 0 0 0 0 0 -13 0 -13 -13.5 -13.5 -14 -13 -13 -13 -13.3333 -13.3333 -13.75 -14 -13.75 -13 -13 -13.5 -13.5 -14 -14.5 -14 -13 0 0 -14.1667 0 -15 -15 -15.25 0 0 0 0 -15 -15 -15.3333 -15.5 -15.5 -16 -15.5 -14.5 0 -15.3333 -15.5714 -15.5714 -15 -15 -15 -15 -15 0 0 0 -15 0 0 -16 -16 -16.5 -16.5 -16 -16 -16 -16 -16.1667 -16.5 -16.5 -16.5 -17 -17 -17 -17.6667 0 0 0 0 -17.6667 0 0 0 0 -18 -18.3333 -18.3333 -18.6667 -18 -18 0 -19 -19 -19 -18.3333 -18.3333 -18.6667 -19 0 -20 0 0 -19 -19.3333 -18.5 -18.5 0 -20 -20 -20.6667 -20.6667 0 -19 0 -20.5 -20.5 -21 -21 -20 -20 -20 0 -21 -20.3333 -20.6 -20.6 -20 0 -21 -21 0 -20 -20 -20 0 0 -21.5 -21.5 -21 -21 0 0 0 -21 -21 -21 0 0 0 0 0 0 0 0 0 -22 0 0 0 0 0 0 -22.5 -22.5 0 -24 -23 0 0 0 0 0 0 0 0 -23 -23 -23.5 -23.5 -24 -24 -24 -24 -23 -24 -24 -24 -24 0 -24 -24 -24 -23 -24 -24 0 0 0 -25 -24.5 -25 -24.75 0 -26 0 0 0 0 -25.5 -25 0 0 0 0 -25 0 -25 -25 0 -26 -25.25 -25.25 -25.3333 -25.6667 0 -26 -26 0 -27 -26 -26 -26 -26 -26 -26 0 -26 -26 -26 0 -26 -26.5 -27 -27 -27 -27 -27 -27 -27 -27 -27 -27 -27 -27 -27 -27 -27 -27 -27 -27 -27 -27 -27 -27 -27.5 -27.6667 0 -27.75 -27.75 0 0 0 -28 -28.5 0 -29 -29 0 0 0 -29 0 -29 -29 -29 -29 -29 -29 -29 -29 -29 -29 -29 -29 -29 -28 -28 0 0 -30 0 0 0 -29 0 -30 -29 0 -30 -29 0 -30 -29 -29 0 -29 0 0 0 0 -30 -29 0 -30 -30 0 0 -30 0 -31 -31 0 -31 0 -31 0 -31 0 0 0 0 -30.5 0 -31 0 -31 0 0 -31 0 -31 0 -31 0 -32 -32 0 -32 0 -32 0 -32 0 0 0 -32 -32 0 0 -32 0 -32 -32 -32 -32 -32 -32 0 0 0 0 0 -34 0 -34 0 0 -34 -33 -33 0 0 0 -34 -33 0 0 0 -34 0 0 0 0 0 0 -34 0 -34 0 -34 0 -35 0 -35 0 -35 -35 0 0 0 0 0 0 0 0 0 -35 0 -35 0 -35 0 0 -35 0 -35 -36 -36 0 -36 -36 -36 -36 0 -36 -35 -35 0 0 -36 0 0 0 0 -36 -36 -36 -35 0 0 -37 -37 -37 0 -37 0 -37 0 0 0 -37 0 -37 -37 -37 0 0 0 0 0 -37 0 -37 0 0 -37 0 -37 0 0 0 -38 0 0 0 0 0 0 -38 0 -38 -38 -38 -38 0 -38 0 -38 0 -38 0 0 0 0 0 -39 -38 -38 0 -38 0 -38 0 0 0 -39 0 0 0 0 0 -40 0 -40 0 0 56.5 0 0 0 0 -40 -39 20.8 0 0 29 -40 40.8571 0 19.5 0 0 -49.0857 0 0 0 -28.675 -41 0 0 -40 10.2222 0 -11 38.5 0 -40 0 0 0 0 0 0 -41 0 -42 0 -41 0 -42 0 0 0 0 -42 -42 0 -42 19 0 0 0 0 0 0 0 0 -42 0 0 0 0 0 0 0 0 0 0 -42 0 -43 0 0 -22 0 0 0 -43 0 0 0 0 -43 0 -43 0 -43 -43 -43 -43 -38 -40 -43.25 -44 -44 0 17 0 0 0 0 0 0 0 0 0 0 0 0 0 0 0 0 0 0 0 0 0 0 0 0 0 0 0 0 0 0 0 0 0 0 0 0 0 0 0 0 0
0 0 0 0 0 0 0 0 0 0 -5.4 -5.66667 -5.66667 -6 -3.7 -3.5 -4.25 -5 -4 -4.5 -4.5 -5 -5 -5.5 -5.6 -5.6 -6 -6.2 -5.66667 -5.66667 -6 -6.25 -6.5 -6.5 -6.5 -6.33333 -7 -7.33333 -7.33333 -6.41667 -6.33333 -6 0 0 -7 -7 -7 -7.66667 -7.66667 -8 -8 -7.33333 -7.33333 -7.66667 -8 -8 -8.5 -8.5 -7.66667 0 -9 -9.5 -9.5 -8 -8 -8 -8.5 -8.5 -9 -9 -9 -9.5 -9.5 -9.66667 -9.66667 -9 -9.5 -9.5 -10 -10 -10 0 0 -10.8 -10 -10 -10 -10.6667 -10.6667 0 0 0 0 0 -10.75 -11 -10.5 -10 -10.5 -10.5 -11 -11 -10.75 -10.75 -10.75 -11 -11 -11 -11 -11.8 -11.8 -12 0 0 0 -11.2857 3 -11.8 0 0 0 -11.3333 -11.3333 0 -13 -13 -13 -13.4 -13.4 -14 -13 -13 -13 -13.5 -13.5 -14 -14 -14 -13 -13.6667 -13.6667 -13.8 -14 -14.5 -14 -14 0 0 -14.1667 0 -15 -15 -15.2 -15.6667 -15.6667 -15 -15 -15 -14.5 -14.3333 -14.3333 -14.6667 -15 -15.5 -14.5 0 -15.3333 -15.5714 -15.5714 -15 -15 -15 0 0 0 0 0 0 -15.5 0 -16 -16.5 -16.5 -17 -16 -16 -16 -16 -16.1667 -16.5 -16.5 -16.6667 -17 -17 -17 -17 0 0 0 -18 -17 0 -18 0 -17 -17 -17.5 -17.5 -18.6 -19 0 0 0 0 -18 -18.3333 -18.3333 -18.6667 -19 0 -20 0 0 0 -19.5 -19.5 -20 -20 -20 -18.6667 -19.6667 -18.6667 -19 0 -20.5 -20.5 -20.75 -21 -20 -20 -20 -20 0 -21 -20.3333 -20.6 -20.6 -20 0 0 -21 0 -21 0 -20 0 0 0 0 0 0 0 0 -21 -21 -21 -21 -21 -21 -21.5 -21.5 -22 -22 0 -22 0 0 0 0 0 0 0 0 0 0 0 0 0 0 0 0 0 0 0 0 0 -23 -23 -23.5 -23.5 -24 -24 -24 -24 -24 0 -24 -24 -24 -24 0 0 -24 -24 -24.3333 0 0 0 0 0 0 0 -24 0 -25 0 0 0 -25 0 -25 0 -26 -25 -25 -25 0 -25 -25 0 -26.5 -26.5 -26 -26 -26 0 -26 -26 -26 0 -26 -26 -26 -26 -26 -26 0 -26 0 -26 0 -26 -26.5 -27 -27 -27 -27 -27 -27 -27 -27 -27 -27 -27 -27 -27 -27 -27 -27 -27 -27 -27 -27 -27 -27 -27.5 -27.5 -27.6667 0 -27.75 -28 -28 0 -33 -28.5 0 -29 -29 -29 -29 -29 -29 -29 -29 -29 -29 -29 0 0 0 0 -29 -29 -29 0 -29 -29 0 -29 0 -29 -29 0 -30 -29 0 -30 0 0 0 -29 0 -30 -29 -29 0 -29 0 0 0 0 0 -29 0 -30 -30 -30 0 0 0 0 0 0 -31 -31 -31 0 0 0 0 0 0 0 0 -31 0 -31 0 -31 -31 0 0 0 -31 0 -32 -32 0 0 0 0 0 -32 0 -33 -32 0 0 0 -33 -48 0 -32 -32 0 0 0 0 0 -32 0 0 0 -34 0 -34 0 -34 -34 -33 -33 0 0 0 0 0 0 -34 -34 -34 0 -34 0 0 0 -34 -34 0 -34 0 -34 0 -35 -34 0 0 0 0 0 -35 -34 0 0 0 0 0 0 -35 0 -35 -35 -35 -35 0 -35 0 -35 0 0 0 -36 -36 -36 -36 0 -36 0 0 0 -36 -36 -36 0 -36 -36 -36 -36 -36 0 0 0 0 0 -37 0 -37 0 -37 0 0 0 0 0 0 -37 -37 0 -37 0 -37 0 0 -37 -37 -37 -37 0 0 0 0 0 0 -38 -38 -38 -38 0 -38 0 -38 0 -38 -38 -38 -38 0 -38 0 -38 -38 -38 0 0 0 0 0 -39 -38 -38 0 -38 0 0 -39 -39 0 0 0 0 0 -40 0 0 -40 0 0 0 0 0 0 -40 -40 0 -39 0 -40 11 0 0 0 0 0 -40 0 -47 -40 0 -35.6667 6.5 0 0 0 0 0 -40 -40 0 0 0 0 0 0 0 0 0 -17.1111 0 -42 0 -42 -42 -8.14286 0 0 0 0 0 0 -42 -42 0 0 -42 0 0 0 0 0 -17 -42 -41 0 -42 0 0 0 -42 49 0 0 0 0 -18 0 0 -22 0 0 0 -43 0 0 -43 -43 -43 0 -43 0 -38 0 -43 -43 -37.5 -44 0 0 0 0 0 0 0 0 0 0 0 0 0 0 0 0 0 0 0 0 0 0 0 0 0 0 0 0 0 0 0 0 0 0 0 0 0 0 0 0 0 0 0 0 0 0
0 0 0 0 0 0 0 0 0 0 -5.4 -5.66667 -5.66667 -6 -3.7 -3.5 -3.5 -4 -4 -4.5 -4.5 0 -5 -5.33333 -5.6 -5.6 -6 -6.2 -5.5 -5.5 -6 -6.25 -6.25 -6.66667 -6.66667 -7 -6.5 -6.6 -6.6 -6.41667 -6.33333 -6 -6.5 -6.5 -7 -7 -7.5 -7.5 -7.66667 -8 -8 -7.33333 -7.33333 -7.66667 -8 -8 -7.91667 -7.91667 -8.66667 -9 -9 -9.5 -9.5 -8 -8 -8 -8.5 -8.5 0 0 0 -9.5 -9.5 -10 -9.66667 -9 -9.5 -9.5 -10 -10 -10 -10.5 -10.5 -11 0 -10 -10.4 -10.6667 -10.6667 0 0 0 0 0 -10.5 -10 -10 -10.5 -10.5 -11 -11 -11 -11 0 0 0 0 0 0 -11.5 -11.5 -12 -12 -11 0 -11.2857 -11.2857 -11.6 -12 -12 0 0 0 0 0 0 -13 -13.5 -13.5 -14 -13 0 0 0 0 -13.6667 -14 -14 -13 -13.25 -13.6667 -13.8 0 -14.5 -14 -14 0 0 -15 0 -15 -15 -15.2 -15.2 0 -15 -15 -15 -14.5 -14.3333 -14.3333 -14.6667 -15 0 -15 -15 -15.3333 -15.3333 -15.5714 -15 -15 -15 0 0 0 0 0 0 -15.5 0 -16 -16.5 -16.5 -17 -16 -16 0 0 0 0 0 0 0 -17 -17 -17 -16 -16.5 -16.5 -17 -17 0 -17 -17 -17 -17 -17.75 -17.75 -18 0 -18 0 -18 -18 -17 -17.5 -17.5 0 -18 0 -20 -19 -19 -19 -19.3333 -19.3333 -20 0 -20 -18.6667 -19.6667 -19.6667 -19 0 -20.5 -20.5 -20.75 -21 -20 -20 0 0 0 -20 -20.6667 -20.6667 -20.6667 -20 0 0 0 0 -21 -21 -20 0 -21.6667 -21.6667 -22 -21 -21 0 -22 0 -21 0 -21 -22.4 0 0 0 -22 -22 -22 -22 0 0 0 0 0 0 0 0 0 -22 0 0 0 0 0 0 -23 0 0 0 0 0 -23.5 -23.5 -24 -24 -24 -24 -24 -24 0 -24 -24 -24 -24 0 0 0 0 -24 -24.3333 -23.6667 -23.6667 -24 0 -25 -25 0 0 0 -24 0 0 0 0 -25 0 -26 -26 -25 0 0 -25 -25.25 0 0 -27 0 0 0 0 -25.75 -26 -26 0 -26 -26 -26 -26 -26 -26 -26 -26 -26 0 0 -26.5 -26.5 -27 -27 -27 -27 0 -27 -27 -27 -27 -27 -27 0 -27 -27 -27 -27 -27 -27 0 -27.5 -27.5 -28 -28 -28 -28 0 -28 -28 -28 -28 -28 -28.5 0 -29 -29 -29 -29 -29 -29 -29 -29 -29 -29 -29 -29 -29 -29 -29 -29 -29 -29 0 -29 -29 0 -30 -29 0 0 0 -30 -29.3333 -29.5 0 0 0 0 -29 -29 -30 0 0 -30 -29 0 -30 0 0 -30 -31 0 -30 0 0 0 -30 0 0 0 0 -31 -31 -31 0 0 0 0 0 0 0 0 -31 0 -31 0 -31 -31 0 -31 0 0 -32 0 0 0 0 0 -32 0 0 0 0 0 0 -32 0 -33 0 -32 -32 0 0 -32 -32 -32 0 0 0 0 0 0 0 -34 0 -34 -34 -34 0 -33 -59.5 -33 0 -33 0 -33 0 -34 0 -34 0 -34 -60 -34 -34 0 0 0 0 0 0 0 0 -35 -35 -35 0 0 0 0 0 -35 0 -35 0 -35 0 -35 -35 -35 -35 0 -35 -36 0 -36 -36 -36 0 -36 0 -36 0 -36 -35 0 0 0 0 0 0 -36 -36 -36 -36 0 0 0 0 0 -37 -37 -37 -37 0 -37 0 -37 0 -37 0 -37 -37 -37 0 0 0 -37 0 -37 0 -37 -37 -37 -37 0 0 0 0 0 0 -38 -38 0 0 0 0 0 0 -38 -38 -38 -38 0 -38 0 0 -38 -38 0 0 -38 0 0 -39 0 -38 0 -38 0 0 -39 -39 0 0 -39 -39 0 -39 0 0 -40 -40 0 0 0 0 0 -40 -40 -40 0 9.5 0 -23.8333 -40 -40 -40 0 -40 -40 0 -47 -40 0 -35.6667 6.5 0 0 -40 0 0 -40 0 0 0 -40 0 0 0 0 0 0 0 0 -42 0 -42 0 0 0 0 -42 56 0 0 -42 0 0 0 27.4 0 28.25 0 40.5 63 -42 0 -42 0 0 0 0 0 0 0 0 0 0 0 0 0 0 0 -43 0 -43 -43 0 0 0 0 0 0 0 0 0 0 -2.66667 -43 0 0 -42 0 -44.5 0 0 0 0 0 0 0 0 0 0 0 0 0 0 0 0 0 0 0 0 0 0 0 0 0 0 0 0 0 0 0 0 0 0 0 0 0 0 0 0 0 0 0
0 0 0 0 0 -4 -4.5 -4.5 -5 -5 -4.83333 -5.4 -5.66667 -6 -3.7 -3.5 -3.5 -4 -4 -4.5 -4.5 -5 -5 -5.33333 -5.33333 -6 -6 -6.25 0 0 -6 -6 -6.16667 -6.16667 0 0 -6.5 -6.6 -6.6 -6 -6 -6 -6.5 -6.5 -7 0 0 0 -8 -8 -8 -7.5 -7.5 -8 -8 -8 -8.5 -8.5 -8.5 -8.16667 0 -9.5 -9.5 -8 -9 0 -8.5 -8.5 0 0 -9 -9.5 -9.5 -10 -10 -9 -9.5 -9.5 -10 -10 -10 -10.5 -10.5 -11 0 0 -10.4 -10.4 -10.6667 -11 -11 -11 -11.5 -11.5 0 0 -10 -10.5 -10.5 -11 -11 -11 -11.2 -11.2 -11.2 -11 -11 -11 -11.5 -11.5 -11.8 -12 -12 -11 -11.5 -11.5 0 -12 -12 -12 -12.5 -12.5 -12 0 -13 -13 -13.5 -13.5 0 0 0 -13 -13 -13.5 -13.5 -14 -14 -14 -13 -13.25 -13.25 -13.8 0 -14.5 -14 0 0 0 -15 0 -15 -15 -15.25 -15.25 0 0 0 -15 -15 -15.3333 -15.3333 0 0 -15.5 -15 -15 -15.4 -15.4 -15.75 -15 -15 -15 -15 -15.5 -15.5 -16 -16 -16 0 0 0 0 0 -17 -16 -16 -16 -16 -16.1667 -16.5 -16.5 0 0 -17 -17 -17 -16 -16.8 -16.8 0 0 0 -17 -17 -17 -17.5 -17.5 -17.75 -18 0 0 0 -18 -18.25 -17.6667 -17.6667 -18 0 -18 0 0 -18 -18 -18.5 -19.3333 -19.3333 -20 0 -20 -18.5 -19.5 -20.6667 -19 0 0 0 0 -21 0 -20 -20 -20 0 -20 -20.3333 -20.6667 -20.6667 -21 0 -21 -21 -21 0 0 0 0 0 0 0 -21 -21 0 -22 0 0 0 0 -22.3333 -21.6667 -21.6667 -22 -22 -22 -22 0 0 0 0 0 0 -22 -22.5 -22.5 -22 -22 0 -23 -23 -23 0 0 -24 -23 -23 -23 0 -23 -23.5 -23.5 -24 0 0 0 0 0 0 0 0 0 0 -24 -24 -24 -24 -24 -24.3333 -24.3333 -23.6667 -24 0 -25 -25 0 0 0 0 0 0 -25 0 0 0 -26 -26 -25 -25 0 -25 -25.25 -25.25 0 -27 -26 -26 -26 0 -26 -26 -26 0 0 0 -26 -26 -26 -26 -26 -26 -26 0 0 0 -27 0 0 0 0 -27 -27 0 0 -27 0 -27 0 -27 -27 0 -27 0 0 0 0 -28 -28 0 -27.5 -27.6667 -28 -27.75 -28 -28 0 -28 -28.5 0 -29 -29 0 -29 -29 -29 -29 -29 -29 -29 -29 -29 -29 -29 -29 0 -29 -29 0 -29 -29 0 -30 -29 0 -30 0 0 -29.3333 -29 0 -29 0 -30.3333 -29 0 -30.5 -29.5 -29 -30 -29 -29 0 -30 0 -30 0 0 -30 0 -30 0 -30 0 -31 -31 0 -31 0 -31 0 -31 -31 -31 -31 -31 -31 0 -31 0 0 0 0 0 0 -31 0 -31 0 -32 -32 0 -32 0 -32 0 -32 0 -33 0 -33 -32 -33 -33 -33 0 0 0 0 -32 -32 -32 0 -32 0 -33 0 -34 0 -34 0 -34 -34 -34 -33 -33 -33 -33 0 -33 0 -34 0 -34 0 0 0 -34 0 -34 -34 0 -34 0 -34 0 0 0 0 -35 -35 0 -35 0 0 -34 0 -35 0 -35 0 -35 -35 0 0 0 0 0 -35 0 -35 0 -36 -36 0 0 0 -36 0 0 0 -36 0 -36 -36 0 0 0 0 0 0 0 0 0 0 0 0 0 0 -37 0 0 0 0 0 0 0 0 0 -37 0 -37 0 0 0 -37 -37 -37 -37 0 0 0 0 0 0 0 0 -38 -38 -38 0 -38 0 -38 -38 0 0 0 0 0 -38 0 0 0 0 0 0 -38 0 0 -39 0 -38 0 -38 0 0 -39 0 0 0 0 0 0 -39 0 0 0 0 0 0 0 -40 0 0 0 0 0 0 0 0 0 -40 -40 0 -40 0 0 0 0 -51 0 0 -40.5 0 0 0 0 -40 52 0 0 0 0 0 0 0 0 28.5 0 0 0 0 0 0 0 0 0 -41.5 0 -42 0 -42 -42 -42 0 -42 0 -42 -42 -42 0 10.5 0 0 0 0 0 0 0 0 0 0 -42 0 -43 -43 0 -42 -42 0 -43 -43 0 0 0 -43 0 0 0 0 0 0 0 -2.66667 -43 -41 0 21.25 -43.6667 0 0 21.25 0 0 0 0 0 0 0 0 0 0 0 0 0 0 0 0 0 0 0 0 0 0 0 0 0 0 0 0 0 0 0 0 0 0 0 0 0 0 0 0 0
0 0 0 0 0 -4 -4.5 -4.5 -5 -5 -4.83333 -4.83333 -6 -6 -3.92857 -3.92857 0 -5 0 0 0 -5 -5.2 -5.5 -5.5 -6 -6 -6.2 -5.66667 -5.66667 -6 0 -6.25 -6.16667 0 0 0 -6.66667 -6.66667 -6.5 -6 -6.5 -6.5 -7 0 0 -7.5 -7.5 -8 -8 -8 -7.5 -7.5 -8 -8 -8.5 -8.8 -8.8 -8.5 -8.16667 0 -8.83333 -8.83333 -9 -9 0 -8.83333 -8.83333 0 -9 -9.33333 -9.5 -9.5 0 -10 -9 -9.5 -9.5 -10 -10 -10 -10.5 -10.5 -10.8 0 0 -10.4 -10.4 -11 -11 -11 -11 -11.5 -11.5 0 -10 -10 -10.5 -10.5 -11 -11 -11 0 -11.2 -11.2 -11 -11 -11 -11.5 -11.5 -11.8 -12 -12 -11 -11.6667 -11.6667 -12 -12 -12 -12 -12.6667 -12.6667 0 -13 0 0 0 0 0 0 0 -13 -13.5714 -13.5714 -14 -14 -14 -14 -13 -13.5 -13.5 -14 0 -14.5 0 -15.5 -15.5 0 -14.1667 -15 -15 -15 -15.5 -15.5 -15.6667 0 0 -15 -14.5 -14.5 -14.5 -15 -16 -15.5 -14.5 0 -15.4 -15.4 -15.75 0 0 -15 -15 -15.5 -15.5 -16 -16 -16 0 0 0 0 0 -17 -16 -16 -16 -16 -16.1667 -16.5 -16.5 0 0 -17 -17 -17 -16 -16.6667 -16.6667 0 -17.5 0 -18 -17 -17.3333 -17.6667 -17.6667 -18 -18 0 0 0 0 -18.4286 -17.7143 -17.7143 -18 0 0 0 0 0 -18 0 0 -20 -19 0 -20.2857 -19 -18.8333 -19.6 -19 0 0 -20 -21 -21 0 -20 -20 -20 0 -21.3333 -20.3333 -20.3333 -20.6 -21 0 0 0 0 0 0 0 0 0 0 0 -21 -21 0 -22 -21 -21 -21 0 -22.4 -22.4 -22 -22 -22 -22 -22 -22 -22 -22 -22 0 -22 -22.3333 0 0 0 0 0 -23 -23 0 -22 0 -24 -23 -23 -23 0 0 0 -24 -24 0 0 0 -24 0 0 0 0 0 0 -24 -24 -24 -24 -24.3333 -24.3333 0 0 0 0 0 0 -24 0 0 -24 -24 0 -25 0 0 0 -26 -26 -25 -25 0 0 0 0 0 0 0 0 0 0 -26 0 -26 0 0 0 0 0 0 -26 0 0 0 0 0 0 -27 -27 -27 -27 -27 -27 -27 -27 0 0 0 0 0 -27 -27 0 -27.5 -27.5 -28 -28 0 -28 -28 0 -28 -28 0 -28 -28 -28 -28 -28 -28.5 0 -29 -29 -29 -29 -29 -29 -29 -29 -29 -29 -29 -29 -29 -29 -29 0 -29 -29 -30 -29 -29 -29 0 -29 0 -30 -29 0 -30.5 -30 -30 -29 0 -30 -29 0 -30 -29 -29 0 -29 0 0 0 0 -30 -29 0 -30 -30 -30 -30 0 0 -31 -31 0 0 -31 -31 0 0 0 0 0 0 -31 0 -31 0 0 0 0 0 0 -31 0 -31 0 -32 -32 0 -32 0 0 0 -32 0 -33 -32 0 0 0 0 0 -32 -32 -32 0 0 0 0 0 -32 0 -33 0 -57.5 0 0 0 -34 -34 -34 0 0 0 0 0 -33 0 -34 0 -34 0 -34 -34 -34 -34 -34 0 0 0 0 0 0 0 0 -35 0 -35 0 0 0 0 0 0 -34 0 -35 0 -35 -35 0 0 0 0 0 -35 0 -35 0 -36 -36 -36 0 -36 -36 0 0 0 0 0 0 0 0 0 -36 -36 -36 0 -36 0 -36 0 0 -37 -37 0 0 0 0 0 -37 0 -37 0 0 0 0 0 0 -38 0 0 -37 -37 -37 -37 0 -37 0 0 0 -37 0 -38 0 -38 0 0 0 0 0 0 -38 0 0 0 0 -38 0 -39 -38 -38 -38 0 -38 0 0 -39 0 -38 -38 0 0 0 0 -39 0 0 0 0 0 0 0 0 -40 -40 0 0 0 -40 16 -40 -40 0 -40 0 0 0 0 0 0 -40 0 -40 -40 -40 0 0 0 -40 0 0 -40 -40 -40 -40 -15 -15 0 0 0 -41 0 0 0 -41 -42 -41 0 -41 0 -42 51.5 -42 0 -41 0 -42 0 -42 55 0 0 -42 0 -42 -42 0 0 0 0 0 0 0 -60.5 0 0 0 0 0 0 -42 63.5 -43 0 0 39 0 0 30.3333 0 0 -21.5 0 0 0 0 0 -18 0 0 -43 -43 -36 -42 0 -43.6667 0 0 0 0 0 0 0 0 0 0 0 0 0 0 0 0 0 0 0 0 0 0 0 0 0 0 0 0 0 0 0 0 0 0 0 0 0 0 0 0 0 0 0 0
0 0 0 0 0 -4 -4.5 -4.5 0 0 -5 -5 0 -6 0 0 -5 -5 -4 -4.83333 -4.83333 -5 -5 -5.5 -5.5 -6 -6 -6.5 -6.66667 -6.66667 0 0 -6.25 -6.25 -6.66667 0 -6.33333 -6.66667 -6.66667 -7 -6 -6.5 -6.5 -7 -7 -7.5 -7.75 -7.75 -8 -8 -8.33333 -7.5 -7.5 -8 -8 -8.42857 -8.5 -8.8 -8.5 -8.16667 0 0 -8.83333 -9 -9 -8.5 -8.5 -9 -9 -9 -9.33333 -9.33333 -10 -10 -10.1667 -9.5 -9.5 -10 -10 -10 -10.5 -10.5 -10.5 -10.8 -11 -10 -10.5 -10.5 -10.6667 0 -11 -11 -11 0 0 -10 -10 -10.5 -10.5 -11 -11 -11 -11.1429 -11.1429 -11.1429 0 0 0 -11.5 -11.5 -11.8 -12 -12 -11 -11.5 -11.5 -12 0 0 0 -12.5 -12.5 0 -12.5 0 -13.3333 -13.5 -13.5 -14 0 0 -13 -13.5714 -13.5714 -14 -14 -14 -14 -13.5 -13.5 -14 -14 -13.5 -13 0 -15 -15 0 0 0 0 0 -14.5 -14.5 -15 -14 -14 -14 -14.6667 -14.6667 -15 -15 -16 -15.5 -14.5 0 -15.3333 -15.3333 -16 -15.5 -15.5 0 0 0 0 0 0 0 0 0 0 0 -17 -17 -16 -16 0 0 -16.1667 -16.1667 -16.5 0 -17 -17 -17 -17 -16.5 -16.5 -16.8 0 0 0 0 -17 -17.3333 -17.6667 -17.6667 -18 -18 0 0 0 0 -18.4286 -17.7143 -17.7143 -18 -18 -18 0 -19 -19 -18.25 -18.8 -18.8 -19 -19 0 -20.2857 -19 -18.8333 -18.8333 -19.3333 0 0 0 0 0 -21 -20 -20 -20 0 -21.3333 -21.3333 -20.3333 -21 -21 -21 -21 0 0 -21 -21 -20 0 0 -21.6667 -22 -21 -21 0 -22 -21 -21 -21 0 -22.4 -22.4 -22 -22 -22 -22 0 0 0 0 -22 0 -22 -22.5 -22.5 -23 -22 -22 0 0 -23 -22 0 0 -24 -23 -23 -23.3333 0 -23.5 -23.5 -24 -24 0 -24 -24 -24 -24 -24 -24 0 0 0 0 -24 -24 0 -24.5 -24.5 -25 -24 0 0 -25 0 -24 0 -25 0 0 0 0 0 0 0 -26 -26 -25 -25 0 0 0 0 0 0 0 0 0 0 -26 0 -26 0 -26 -26 0 -27 -26 -26 0 -26 -26 0 0 -27 -26.5 0 -27 -27 -27 -27 -27 -27 0 -27 0 -27 0 -27 -27.3333 -27.3333 0 -27.3333 -27.3333 -27.3333 -27.3333 -27.3333 -27.3333 0 -27.6667 -27.5 -28 -27.5 0 -28 -28 -29 -29 0 -29 -29 0 -29 -29 -29 -29 -29 -29 -29 -29 -29 -29 -29 -29 -29 -29 -29 -30 -29 -29 -29 0 -29 0 -30 -29 0 -30.5 -30 0 0 0 -30.5 0 0 -30 -29 -29 -30 -29 -29 0 -30 0 -28 -29 -27 -30 -30 0 -30 -29 0 -31 -31 0 -31 -31 0 -31 0 -31 -31 0 -31 0 0 0 0 0 -31 0 -31 0 -31 0 0 -32 0 0 0 0 0 -32 0 -32 0 -33 0 -33 0 0 0 0 0 -32 -32 0 0 0 0 0 -32 0 -33 0 -57.5 0 -34 0 -44.5 0 0 0 0 0 -33 0 -33 0 -34 0 -34 0 0 0 -34 -34 -34 -34 0 0 0 0 0 0 0 -35 -35 -35 0 0 0 -35 -34 0 -35 0 0 0 0 0 -35 -35 -35 -35 -35 0 0 0 -36 0 -36 0 0 0 -36 0 -36 0 -36 0 -36 -36 -36 -36 -36 -36 -36 0 -36 0 -36 0 0 -37 -37 0 -37 0 0 0 0 0 -37 0 -37 0 -37 0 0 0 0 0 -37 -37 -37 -37 0 0 0 0 0 -37 0 -38 -38 0 -38 0 0 0 -38 -38 -38 -38 0 -38 0 -38 0 0 0 0 0 0 -38 0 0 -39 -39 -38 0 -38 -38 0 -39 0 0 0 0 -39 0 0 0 0 -40 -40 0 -40 0 0 0 0 -40 -40 0 0 0 0 -40 0 0 -40 0 -40 -40 -40 -40 0 0 -40 0 0 -40 0 0 0 0 0 0 0 0 -41 -41 0 -42 0 -42 -41 0 0 -42 -42 -42 -42 0 0 -42 0 -42 0 0 0 0 0 0 0 -42 -42 0 0 -42 -42 0 -42 0 -43 0 0 -43 0 0 -43 -43 0 0 -42 0 -43 -43 0 -43 -43 -21.5 0 -43 0 -43 -43 -43 0 0 -30.5556 -43 -36 0 0 0 0 0 0 0 0 0 0 0 0 0 0 0 0 0 0 0 0 0 0 0 0 0 0 0 0 0 0 0 0 0 0 0 0 0 0 0 0 0 0 0 0 0 0 0
0 0 0 0 0 0 0 0 0 0 -5.4 -5.4 -5.66667 -6 -3.7 -3.7 -3.5 0 0 -5.5 -5.5 0 -5 -5.5 -5.5 -6 -6 -6.25 -6.5 -6.66667 0 -6 0 0 -6 -6 -6.5 -6.5 -6.66667 -7 -7 -7 -7 -7 0 -7 -7.5 -7.5 0 -8 -8.66667 -8.66667 -9 -8 -8 -8.42857 -8.42857 -9 0 0 0 0 0 0 0 -8.66667 -8.66667 -9 -9 -9.25 -9.6 -9.6 -10 -10 -10.1667 -9.57143 -9.57143 -10 -10 -10 -10.5 -10.5 -10.5 -11 -11.2 -9.5 -9.6 -9.6 -11 -11 -11 -11.5 -11.5 -12 -10.5 0 -10 -10.5 -10.5 -11 -11 -11 -11.1429 -11.1429 -11.1429 0 0 0 0 0 0 -12 -12 -11 -11.5 -11.5 -12 0 -12 -12 -12.5 -12.5 0 -12.5 -13 -13 -13.5 -13.5 -14 0 0 -13 -13.5714 -13.5714 -14 -14 -14 -14 -13.5 -13.5 -14 -14 -13.5 -13 0 -14.6667 -14.6667 -14 -14 -14 0 0 0 0 -15 -14 -14 -14 -14.3333 -14.6667 -15 -15 0 0 -15 -15.5 -15.5 -16 -16 -15.3333 -15.3333 -15 -15 -15.5 -15.5 -16 -15 -16 0 0 0 0 0 -17 -16 -16 0 0 0 0 0 0 -17 -17 -17 -17 -16.5 -16.5 -16.8 0 0 0 0 -17 -17 -17.5 -17.5 -17.75 -18 0 -18 -18 -18 -18.25 -18.4286 -17.7143 -18 -18 -18 0 -19 -19 -18.25 -18.5 -18.5 -19 -19 0 -21.5 0 0 0 0 0 0 -21 -21 -21 -21 -20 -20 -20 0 0 0 0 -21 -21 0 -21 -21 -21 -21 -21 0 0 -22 -22 -22 -21 -21 0 0 -21 -21 0 -21 -22.3333 -22.3333 -21.6667 -22 -22 -22 0 0 0 0 -22 0 -22 -22.5 -22.5 -23 -22 -22 0 -23 -23 -22 -22 0 0 0 0 0 0 0 -24 -24 -24 0 0 0 0 0 0 -24 -24 -24 0 -24 -24.25 -24.5 0 0 -25 -25 -24 0 -25 -25 -25 -24 0 -25 -25 0 0 0 0 0 0 -26 -26 0 -25 0 0 -26 0 0 0 0 0 0 0 0 0 0 0 -26 -26 0 -26 -26 -26 -26 -26 -26 0 0 -26 0 -26 0 0 -27 -27 0 0 0 -27 0 -27 0 0 -27.5 -28 -28 -28 -28 -28 0 -28 -28 0 -27.6667 -27.5 -28 -27.5 0 0 0 -29 -29 -29 -29 -29 -29 0 0 0 0 -29 0 -29 -29 -29 0 -29 -29 -29 -29 0 0 0 0 0 -30 -29 0 -30 -29 0 -30.5 -30 0 -31 -30 -30.3333 -29 -30 -30 -29 -29 -30 0 -29 0 -30 0 -28 -29 -27 -30 -30 -29 -30 0 -30 -30 -31 0 -31 -31 -31 -31 0 -31 -31 -31 -31 -31 0 -31 0 0 -32 0 0 -30.5 -31 0 -31 -31 -31 -32 0 0 0 -32 0 -32 0 -33 -32 0 -32 0 -33 0 -33 -32 -32 0 -32 -32 -32 0 0 0 0 0 0 0 -34 -34 -34 -34 -34 -34 -33 0 -33 0 -33 0 -34 0 -34 0 -34 0 -34 -34 0 0 0 0 0 0 0 0 0 0 -35 -35 0 -35 0 -35 0 0 0 0 -35 0 -35 -35 -35 0 -35 -35 -35 0 0 0 0 0 -36 0 0 0 -36 0 -36 0 0 0 -36 -36 -36 0 -36 -36 -36 0 -36 0 -36 0 0 0 0 0 -37 0 -37 0 -38 0 -37 0 0 0 0 -37 0 -38 0 0 -37 -37 -37 -37 0 0 0 0 0 0 0 0 -38 0 -38 0 -38 0 0 0 -38 -38 -38 -38 0 -38 0 -39 0 -38 0 0 -38 0 0 -39 -39 -38 0 -38 0 0 -39 0 0 0 0 0 0 0 0 0 -40 -40 0 -40 0 0 0 0 0 0 0 -39 0 -39 0 0 -40 -40 -40 -39 0 0 -40 -40 0 0 0 0 0 0 0 0 -62.3333 0 -37 -40 0 -41 0 0 0 0 -42 0 0 0 0 0 -42 -42 0 0 0 0 0 0 0 0 0 -42 0 -42 -42 -42 0 -42 0 0 -43 0 -43 0 -43 0 0 0 0 0 0 0 0 0 0 0 0 0 0 -26 0 0 0 0 -43 0 0 20 0 0 0 0 39.5 -44 0 0 0 -17 0 0 0 0 0 0 0 0 0 0 0 0 0 0 0 0 0 0 0 0 0 0 0 0 0 0 0 0 0 0 0 0 0 0 0 0 0 0 0 0 0
0 0 0 0 0 -4.5 -4.5 -4.5 -5 -5 -5.16667 -5.16667 -6 -6 -3.92857 -3.92857 -4.25 0 0 0 0 -5 -5.2 -5.5 -5.5 -6 -6 -6.25 -6.25 -7 -6 -6 0 0 -6 -6 -6.5 -6.5 -7 -7 -7 -7 -7 -7 -7 -7 -7.5 -7.5 -8 0 0 -8.66667 -9 -8 -8 -8.5 -8.5 -8.8 -8.5 -8.16667 -8.6 -8.6 -8.83333 -9 0 0 0 -8.83333 -9 -9.33333 -9.6 -9.6 -10 -10 -10.3333 0 0 -10 -10 -10 -10.5 -10.5 -11 -11 -11.2 -9.5 -9.6 -9.6 0 -10 -10 -10.5 -10.5 -11 -11 -11 -10.6667 -10.6667 -11 0 0 -11.4 -11 -11 -11.1429 0 0 0 0 0 -12 -12 -12 -11.5 -11.5 -11.6667 -12 -12 -12 -13 -13 -12.6667 -13 -13 -13 -13.3333 -13.3333 -14 -14 0 0 -13 -13.6667 -13.6667 -14 -14 -14 -14 -14.5 -14.5 0 0 0 -13 0 0 -14.5 -14 -14 -14 -14 -14.5 -14.5 -15 -15 0 -14 -14.25 -14.3333 -14.3333 0 0 0 0 -15 -15.5 -15.5 -16 -15 -15.3333 0 0 0 0 -16 -16 -16 -15 -15 0 -16.5 -16.5 0 0 0 -16 -16 -16 -16.5 -16.5 -17 -17 -17 -17 -17 -17 -16.5 -16.5 -16.6667 0 -17.5 0 0 -17 -17.3333 -17.3333 -17.6667 -18 -18 -18 0 0 0 -18.25 -18.25 -17.6667 -18 -18 -18 0 0 0 -18.5 -18.5 -18.8 -19 -19 0 -20.2857 -19 0 0 0 0 0 -21 -21 0 -21 -20 0 -20 0 0 0 -21 -21 -21 0 -21 -21 -21 -21 -21 0 0 -22 0 -22 -21 -21 0 0 -21 -21.3333 -21.5 -21.7143 -21.7143 0 -22 -22 -22 -22 0 -22 -22 -22 -21 0 -22 -22.3333 -22.3333 0 0 0 0 0 -23 -22 -22 0 0 0 0 0 0 0 -24 -24 -24 0 0 0 0 0 -24 -24 -24 -24 0 -24 -24.25 -24.5 -24.6667 -24.6667 0 0 0 -24 0 -25 -25 -24 0 -25 -25 -25 -25 0 0 0 0 0 -26 0 -25.6667 -25.6667 0 -26 -26 0 -27 -26 -26 -26 0 0 -26 -26 0 0 0 0 -26 -26 0 0 0 0 0 -27 0 0 -26 -27 0 -27 0 -27 -27 -27 -27 0 0 0 0 0 -28 -28 0 -28 0 0 0 0 0 0 0 0 -28 -28 0 0 0 -29 -29 -29 -29 -29 -29 -29 -29 -29 -29 -29 -29 -29 -29 -30 -29 -29 0 0 0 0 -29 -29 -29 -30 -29 0 0 -30 0 -30.5 -30 -30 0 -31 0 -30.3333 -30 -30 -29 0 0 0 0 0 -30 0 -30 -29 0 0 -30 0 -30 -29 -30 0 -31 0 -31 -31 0 -31 -31 -31 -31 -31 -31 -31 0 -31 0 -31 0 -32 -31 0 -31 0 -31 -31 -31 0 0 -32 0 -32 0 -18.5 0 -33 -32 0 0 0 -33 0 -33 -33 -32 0 0 0 0 0 -32 0 -33 0 -57.5 0 -34 -34 -44.5 0 0 -34 -33 0 -33 0 -33 0 -34 0 0 0 0 0 -34 0 -34 0 0 -34 0 -34 0 0 0 -35 0 0 0 -35 0 -35 0 0 -35 0 -35 0 -35 -35 -35 0 -35 -35 -35 0 -36 0 -36 0 -36 -36 -36 0 0 0 0 0 0 0 -36 -36 -36 0 -36 -36 -36 0 -36 0 -36 0 0 0 0 0 -37 -37 -37 0 0 0 -37 0 0 0 -37 -37 0 -38 0 0 0 0 0 0 0 -37 0 0 0 0 0 0 -38 0 -38 0 -38 0 0 0 -38 -38 0 -38 0 0 0 0 -38 0 -38 0 0 -39 0 -39 0 -38 0 -38 0 0 0 0 0 0 -39 -39 0 0 -40 -40 0 0 0 -40 0 0 -40 -40 -40 -40 0 0 -40 0 0 0 0 0 0 -39 0 -40 0 0 0 -42.3333 0 0 -40 0 -44.5 0 -15 0 0 0 0 0 -41 0 0 0 -42 -41 0 0 0 0 0 0 0 -41 0 -42 0 -42 -42 0 0 -42 0 -42 -42 -42 0 -42 0 0 0 0 0 0 -43 -42 -42 -42 -42 0 0 -43 0 0 0 0 0 0 -43 -26 0 0 0 0 -43 0 -34 0 -43 0 0 36 -39 -42 -44.6667 -47 0 -52 0 0 0 0 0 0 0 0 0 0 0 0 0 0 0 0 0 0 0 0 0 0 0 0 0 0 0 0 0 0 0 0 0 0 0 0 0 0 0 0 0
0 0 0 0 0 -4.5 -4.5 -5 -5 -5 -5.25 -5.25 -6 -6 -3.92857 -3.92857 0 -5 -5.5 -5.5 -6 -5 -5.2 -5.5 -5.5 -6 -6 -6.5 -6.5 -5.66667 -6 -6 -6.5 -6.5 0 0 0 0 -6.66667 -7 -6.5 -6.5 -6.5 -7 -7 -7.5 -7.5 -7.75 -8 0 0 0 0 -8 -8 -8.5 -8.5 -8.8 -8 -8 -8.6 -8.6 -8.83333 -9 -9 0 0 -8.83333 -9 -9 -9.5 -9.5 -10 -10 -10.1667 0 0 0 0 -10 -10 -10 -11 -11 -11 -10.5 -10.5 -10.5 -10 -10 -10.3333 -10.5 -10.5 -11 -10.6667 -10.6667 -10.6 -10.6 -11 0 0 0 -11 -11 -12 -11 -11 -11.5 -11.5 -12 -12 -12 -12 -11.5 -11.5 -12 0 -12 -12 -12.5 -12.5 0 -13.5 -13 0 -13.6667 -13.6667 -14 -14 0 0 -13.5 -13.5 -13.6667 -14 -14 -14 -14 -14.5 -14.5 0 0 0 -13 0 0 -14.5 0 -14 -14 -14 -14.5 -14.5 -15 -15 0 -14 -14.25 -14.5 -14.5 -15 -15 0 0 -15.3333 0 0 0 -16 -15 -15 -15.25 -15.6667 -15.6667 -16 -16 0 -16.5 0 -16.6 -16.8333 -16.8333 -17 0 0 0 -16 -16.5 -16.5 -17 -17 -17 -17 -17 -17 -17 -16.5 -16.5 -16.8 0 -17 0 -17 -17 -17.3333 -17.3333 -17.6667 -18 -18 0 0 0 0 -18.4286 -18.4286 -17.7143 -18 -18 -18 0 0 0 -18.5 -18.5 -18.8 -19 -19 0 -20.2857 -19 -19.6 -19.6 -19.3333 -19.3333 0 0 -21 -21 -21 -20 0 0 0 0 0 -21 -21 -21 0 -21 -21 -21 -21 -21.4 -21.8 -21.8 -22 -22 -22 -21 0 0 0 -21 -21.3333 -21.5 -21.7143 -21.7143 0 -22 -22 -22 0 0 -22 -22 -22 -22.3333 0 0 0 -23 -23 -22 0 0 0 -23 -22 0 0 -24 -24 -23 -23.3333 -23.3333 0 -24 -24 -24 0 -24 -24 -24 -24 0 0 0 0 -24 -24 -24.3333 -24.5 -24.5 -25 -25 -25 0 0 -25 -25 -25 -24 0 -25 -25 -25 -25 0 0 0 0 0 -26 -25.5 -25.5 -25.6667 0 0 0 0 0 -26 -26 -26 0 -26 -26 -26 0 -26 -26 0 -26 -26 -26 -26 -26 -26 0 -27 -26 -26 -26 0 0 0 0 0 0 0 0 0 0 0 0 0 -28 -28 0 -28 -28 0 -28 -28 0 0 -28 0 0 0 -28 -28 -28 -28 0 0 -29 -29 -29 -29 -29 -29 -29 -29 -29 -29 0 0 -29 0 0 -29 -29 0 -29 -29 0 -30 -29 0 0 0 0 -31 -30 0 -31 -31 0 -30.5 0 -30 -30 -29 -30 -29 -29 0 -30 0 -30 -29 0 -30 -30 0 -30 -30 -30 0 -31 0 -31 -31 -31 -31 0 -31 -31 -31 -31 -31 0 -31 0 -31 -32 -31 -32 -31 -31 0 -31 -31 0 -32 -32 -32 0 0 -32 -32 0 -33 -32 0 -33 -33 -33 -33 -33 -33 -32 -38 0 0 0 0 -32 0 -33 0 -34 0 0 0 0 -34 0 0 0 0 -33 0 -33 0 -34 0 -34 0 -34 0 -34 0 -34 -34 0 -34 0 -34 0 -35 0 -35 0 -35 -35 -35 0 0 0 0 -35 0 0 0 0 0 0 0 -35 -35 -35 0 0 0 -36 0 0 0 -36 -36 -36 0 -36 0 -36 0 -36 -36 -36 0 -36 0 -36 0 0 0 0 0 -36 0 -37 0 0 0 0 0 0 0 -37 0 0 0 -37 -37 0 -37 0 -37 0 -37 -37 0 0 -37 0 0 0 -37 0 0 0 0 0 0 0 0 0 -38 -38 -38 0 -38 0 0 -39 -39 -38 -38 -38 0 0 -39 0 -39 0 -38 0 0 -39 0 -39 -39 -39 0 0 0 0 0 -40 0 -40 -40 0 -40 0 -40 -40 -40 -40 0 0 0 0 0 -43.5 0 0 0 0 -39 0 -40 -40 -40 0 0 0 0 -40 0 0 -40 -40 0 0 -40 0 0 0 0 0 0 0 -41 0 0 -42 -42 -42 -42 0 0 -42 -42 0 -42 -42 0 0 0 0 0 -42 -42 0 0 -42 0 -42 0 0 -43 -43 -42 0 0 0 0 0 -43 0 -42 0 0 0 0 0 0 0 0 0 0 0 0 0 -43 0 -40.5 -41 0 0 -44 -43 0 0 0 0 0 0 0 0 0 0 0 0 0 0 0 0 0 0 0 0 0 0 0 0 0 0 0 0 0 0 0 0 0 0 0 0 0 0 0 0 0 0 0 0
0 0 0 0 0 -4.5 -4.5 -5 -5 -5.5 -5.5 -5 0 -5 -5.5 -5.5 -4 0 -5.5 -5.5 -6 -5 -5.2 -5.2 -5.5 -5.6 -6 -6.2 -6.2 -5.66667 -6 -6.25 -6.25 -6.5 -6.66667 -6.33333 -6.33333 -6.33333 -6.6 -7 -7 -6.5 -6.5 -7 0 0 -7.5 -7.75 -8 -8 -8.33333 -8.33333 -9 -8 -8 -8.42857 -8.42857 -8 -8 -8 -8.66667 -8.66667 0 0 0 -8.5 -8.5 -9 -9 -9.5 -9.66667 -9.66667 -10 -10 -10.1667 -9.57143 -9.57143 0 0 -10 -10.5 -10.5 -11 -11 -11.2 -9.71429 -9.71429 -10 -10 -10 -10.3333 -10.5 -10.5 -11 -11 -10.6667 -10.6 -10.6 -11 0 0 0 0 0 0 -11 -11 -11.5 -11.5 -12 -12 0 0 0 0 0 -12 -12 -12.3333 -12.75 -12.75 0 -13.5 0 -12 0 -13.6667 -14 0 0 -14 -14 -14 -13.5714 -14 -14 -14 -14 -13.5 -13.5 -13 -13 -13.5 -13 0 0 -14.6667 -15 -14 -14 0 0 0 -15 -15 0 -14 -14.3333 0 0 -15.5 -15 0 0 -15.3333 -15.5 -15.5 -16 -16 -15 -15 -15.25 -15.5 -15.5 -16 -16 0 -16.5 -16 -16.6 -16.6 -16.8333 -17 -17 -17 0 0 0 0 -17 -17 0 -17 -17 -17 -17.5 -17.5 -17 -17 -17 -17 0 -18 -17.3333 -17.5 -17.5 -18 -18 0 -18 0 0 0 -18.4286 -18.4286 -17.7143 -18 -18 0 0 -19 -19 -18.25 -18.25 -18.5 -19 -19 0 0 0 -19.6 -19.6 -20.2857 -20.2857 0 0 -21 -21 -21 -20 -20 -20 0 0 -22 -21 -21 -21 0 -21 -21 -21 -21 -21.4 -21.4 -21.8 -22 -22 -22 -21 0 0 0 0 0 -21.6667 -21.6667 -22 0 -22 -22 -22 0 -23 -22 -22 0 0 0 0 0 -23 0 -22 -22 0 -23 0 -22 -22 0 -23.4 -23.1667 -22.75 0 0 0 -24 -24 -24 0 -24 -24 -24 -24 0 0 0 0 -24 -24 -24.3333 -24.3333 -24.5 0 -25 -25 -25 0 -25 -25 -25 -24 0 0 0 0 0 -25 -25 -24 0 -25.25 0 0 0 -26 0 -26 -26 0 -27 -26 -26 -26 0 -26 0 0 0 -26 0 0 -26 -26 0 -26 0 0 0 0 -26 -26 -26 -26 0 0 -27 -27 0 0 0 0 0 0 0 0 0 0 0 0 0 0 0 0 0 0 -28 0 0 0 0 0 0 0 0 0 -29 0 -29 -29 -29 0 -29 0 -29 -29 -29 0 0 0 0 -29 -29 0 -29 -29 -29 -30 -29 0 -30 0 0 0 -29.3333 -29.5 0 -30 0 -31 -30 0 -30.5 -29 0 0 -29 0 -30 0 -30 0 0 -30 0 0 0 -30 0 0 0 0 -31 -31 0 -31 0 -31 -31 -31 -31 -31 0 -31 0 0 -32 -32 -32 -31 -31 -31 -31 -31 0 -32 0 -32 0 0 0 -32 0 -33 0 -33 -60.3333 -33 -33 -33 -33 -33 -32 0 -32 -32 -32 0 -32 0 -33 0 -34 0 -34 0 0 -34 -34 0 0 0 0 0 -33 0 -34 0 -34 -34 -34 0 -34 -34 -34 0 0 -34.5 0 -34 0 0 0 -35 0 -35 -35 0 0 0 0 0 -35 0 -35 0 -35 0 -35 0 0 0 0 0 0 0 -36 -36 0 -36 0 0 -36 0 -36 0 -36 -36 -36 -36 -36 0 -36 0 0 0 0 -37 -36 0 -36 0 0 0 0 0 0 -38 0 0 0 -37 -37 0 0 -37 0 -38 0 -37 0 -37 0 -37 0 -37 0 0 0 -37.5 0 0 0 0 0 0 -38 -39 0 0 0 0 0 -38 0 0 -39 0 -38 0 0 0 -38 0 0 -38.5 0 -38 0 0 0 0 0 -39 -39 0 -39 -39 0 0 0 0 0 0 0 0 0 0 0 0 0 0 0 0 -40 0 0 -40 -40 -40 -40 0 -40 -40 -40 -40 0 0 0 0 0 -40 0 0 0 0 -41 0 0 -41 0 0 0 0 0 0 0 0 -42 -42 -42 -42 0 0 -42 -42 0 -42 -42 0 -42 0 0 0 0 0 0 0 -42 0 0 0 0 -43 -43 -42 -42 -43 0 0 0 0 0 0 0 -43 0 0 -43 0 0 0 0 0 0 0 0 -43 0 0 -40 -41 -40 0 -44.6667 0 0 0 0 0 0 0 0 0 0 0 0 0 0 0 0 0 0 0 0 0 0 0 0 0 0 0 0 0 0 0 0 0 0 0 0 0 0 0 0 0 0 0 0
0 0 0 0 -4 -4.5 -4.5 -5 0 -5 -5 -5 0 0 -5.66667 -5.66667 -5.4 0 -5.5 -5.5 -6 -6 -6 -6 0 0 0 0 0 0 -5 -6 -6 -6 -6 -6 -6.5 -6.5 -7 -7 -7.66667 -7.66667 -8 -7 0 0 0 0 -8 -8 -8.5 -8.5 -8 -8 -8 -8.42857 -8.42857 -9 0 0 0 -8.66667 0 0 0 0 -8.66667 -9 -9 -9.25 -9.5 -9.66667 -10 -10 -10 -9.57143 -9.57143 -10 -10 0 -10.5 -10.5 -11 -11 -11 -9.71429 -9.71429 -9.6 0 -10 -10.5 -10.5 -11 -11 -11 -11 -10.3333 -10.6 -11 0 0 0 0 0 0 -11 -11 0 0 -12 -12 -12 -12.3333 -12.25 -12.25 -12 -12 -12 -12.25 -12.6667 -12.6667 0 0 -13 -12 0 0 -14 -14 -14 -14 -14.5 -14.5 -13.3333 -13 -13 -13 0 0 -14 -13.5 -13.5 0 -13.5 -13.6667 -13.6667 -14 -14 -14 -14.3333 0 0 0 -15 0 -14 -14 -14.3333 -14.3333 -15 -15 -15 0 0 -15.3333 -15.3333 0 -16 0 -15.5 -15.5 -15 -15.5 -15.5 -16 0 -16.5 -16.1667 -16.1667 -16.3333 -16.6 -16.8333 -17 -17 -17 0 0 0 0 0 -17 0 -17 -17 -17.3333 -17.5 -17.5 -18 -17 -17 0 0 -18 -17.3333 -17.3333 0 0 0 0 -18 -18 -18 -18.5 -18.5 -19 -18.5 -18 -18 0 -19 -19 0 -18.5 -18.5 -18.8 -19 -19 0 -20.2857 0 0 -20 -20 -21.5 0 -20 -21 -21 -21 -20 -20 -20 0 0 -22 -21 -21 -21 -21 -21 -21 -21 -21 0 0 0 0 0 -22 -21 -21 0 -22 0 -21.3333 -21.5 -21.5 -22 0 -22 -22 -22 -22 -22.5 -22 -22 -22 -22 -22.5 -22.5 -23 -23 -23 0 0 0 -23 0 -22 -22 0 -23 -22 -22.5 -22.5 0 -24 0 -23 -24 -24 -24 -24 -24 -24 0 0 -24 -24 -24 -24 -24.25 -24.25 -24.5 -24.6667 0 0 0 -24 0 -25 -25 -24 0 0 0 0 0 0 -25 -24 0 -25.25 0 0 0 -26 0 -26 -26 0 -27 -26 -26 -26 0 -26 -26 -26 0 -26 -26 0 0 0 0 -26 0 -26 0 0 -26 -26 -26 -26 -26 0 -27 -27.5 -27.5 -28 0 -28 0 -28 0 -28 -28 0 0 -28 -28 -28 -28 -28 0 0 0 -28 0 -28 0 0 0 0 0 0 -29 0 -29 -29 -29 -29 -29 -29 -29 -29 0 0 0 0 0 0 0 0 0 0 0 -30 -29 0 -30 0 0 0 -30 -30 -31 0 0 -31 -30 -30 0 -29.5 0 0 0 0 0 0 -30 -31 0 -30 -30 -30 -30 -30 0 0 0 0 -31 -31 -31 -31 0 0 0 -31 -31 -31 0 -31 0 0 -32 -31 -32 -32 -31 -31 -31 -31 -31 -31 -32 -32 0 -32 -32 -33 0 -33 -32 0 0 0 0 0 -33 -33 -33 -32 -32 0 -32 0 -32 0 -33 -33 0 0 -34 0 -34 -34 -34 -34 -34 0 0 -34 -33 0 0 -34 0 0 0 0 -34 0 -34 -34 -34 -34.5 0 -34 0 -35 0 -35 -35 -35 -35 -35 -35 0 0 -35 -34 0 0 0 0 0 -35 0 0 0 0 0 0 0 -36 0 -36 -36 -36 0 -36 0 -36 0 -36 -36 -36 0 0 0 0 0 0 0 -36 0 0 0 -36 0 0 0 0 0 0 -38 0 -37 -37 -37 -37 0 0 0 0 0 0 0 0 -37 0 -37 0 -37 0 0 -35.6667 0 0 0 0 0 -38 0 0 -39 0 -38 -38 -38 0 0 -39 0 0 0 0 -38 0 0 0 0 0 0 0 -38 0 0 0 0 0 0 0 0 0 0 0 0 -40 0 0 0 0 0 0 0 0 0 0 0 0 0 0 -40 -40 -40 -40 0 0 0 0 0 -40 -40 0 0 -41 -40 -40 0 0 -40 0 -40.6667 0 -40 0 0 -41 0 0 0 -42 -41 -41 -41 0 0 0 0 0 0 0 -42 0 -42 -42 0 -42 0 -42 0 -42 -42 0 0 -42 0 -43 0 -43 0 0 0 0 0 0 0 0 -43 0 0 -42 0 0 -43 -43 0 0 -43 0 0 0 0 0 0 0 -40 0 0 -39 -44.6667 -41.5 0 0 0 0 0 0 0 0 0 0 0 0 0 0 0 0 0 0 0 0 0 0 0 0 0 0 0 0 0 0 0 0 0 0 0 0 0 0 0 0 0 0 0 0
0 0 0 0 0 0 0 -5 -5 -5 -5 -5 0 0 0 -5.66667 -5.4 -5.4 -5.66667 -5.66667 -6 -6 -6.5 -6.5 0 0 0 -7 -7 0 -5 -5.5 -5.5 -6 -6 -6 -6.66667 -6.66667 -7 -7.2 -7.5 -7.66667 -8 -7 0 -7.5 -7.5 -8 -8 -8.33333 -8.66667 -8.66667 -9 0 0 0 0 0 -8 -8.16667 -8.16667 -8.6 -8.83333 -9 -9 -9 0 -8.83333 -9 -9.25 -9.25 -9.6 -10 -10 -10.3333 -10.3333 0 -10 -10 -10 -10.5 -10.5 0 -11 -10.5 -9.71429 -9.71429 -9.71429 -10 -10 0 0 0 -11 -11 -11 -10.3333 -10.3333 -11 -11 -11 -11.4 -11.4 -12 -11 -11 -12 -11.5 -11.5 -12 -12 0 0 0 0 0 -12 -12 -12.25 -12.6667 -12.6667 -13 0 -13 -12.3333 0 0 0 0 0 0 0 0 -13.3333 -13 -13 -13.4286 -13.5 -13.5 -14 -13.3333 0 -13 -13.5 -13.6667 -13.6667 -14 -14 -14 -14 0 0 -15 -15 -15 0 -14 -14.25 -14.25 -15 -15 -15 0 0 -15.3333 -15.3333 -16 0 -16 -16 -16 -15.25 -15.25 -16 -16 -16 -17 0 -16.1667 -16.3333 -16.3333 -17 -17 -17 -17 -16 -16 -16.6667 -16.6667 0 -17.6667 0 -17 -17 -17.3333 -17.75 -17.75 -18 0 -17 0 -18 -18.25 0 0 -18 -18 0 0 -18 -18 -18 -18.5 -18.5 -19 -19 0 -18 0 -19 -19 -19.5 -19.5 -19 30 0 -19 0 -19 -19 -19.25 -19.25 -19.25 -22.3333 0 -20 -21 -21 -21 -20 0 0 0 0 0 0 -21 -21 -21 0 -21 -21 -21 -21.4 -21.4 -21.8 -22 -22 -22 -21 0 0 -22 -22 -21.3333 -21.5 -21.5 -21.7143 0 -22 -22 -22 -22 -22 -22.5 -22 -22 -22 -22.5 -22.5 -23 -23 -23 0 0 0 0 -23 -22 -22 0 -23.3333 -23.6667 -22.75 -22.75 0 -24 0 0 0 0 -24 -24 -24 0 -24 -24 -24 -24 0 -24.6667 -24.6667 -25 -25 0 -25 -25 -25 0 -25 0 -25 0 0 0 0 0 0 0 -25 -24 0 -25.5 -25.5 -26 -26 -26 0 -26 -26 0 -27 -26 -26 0 0 0 0 0 -27 -26 -26 0 -26 -26 -26 -26 -26 -26 0 -26 -26 -26 -26 -26 -26 0 0 0 0 -28 0 -28 -28 -28 0 -28 0 0 0 0 0 -28 0 -28 0 -28 -28 0 -28 0 -28 0 0 0 0 0 0 0 0 0 0 0 0 -29 0 0 0 0 0 0 0 0 0 0 0 -29 0 -30 -29 0 0 0 0 0 0 -30 -31 -30 -30 -31 -30 0 -31 -30 -30 0 -29 0 -30 0 -30 -31 0 -30 -30 -30 -30 -30 0 -31 -31 0 0 0 0 0 0 -31 -31 -31 -31 0 0 0 0 0 0 0 0 0 0 -31 -31 -31 -31 -31.5 -32 -32 0 0 0 -33 0 -33 0 -33 -60.3333 0 0 0 -33 -33 -33 -32 -32 0 -32 0 -32 0 -33 -33 -33.5 0 -34 -34 -34 -34 -34 -34 -34 -34 0 0 0 -34 0 0 -34 -34 -34 0 -34 0 -34 0 -34 0 0 -34 0 -35 -35 -35 -35 -35 -35 -35 -35 -35 0 -35 0 0 0 0 -35 0 0 0 -35 0 -35 0 -36 0 -36 0 0 0 0 0 -36 0 -36 0 -36 -36 -36 0 0 0 0 0 0 0 -36 0 0 0 0 0 -37 0 -37 0 0 0 0 0 -37 0 0 -38 0 -38 0 -37 0 0 0 -37 0 -37 0 -37 0 0 -35.6667 -37.5 -35.6667 0 -38 0 0 0 0 0 0 -38 0 -38 0 0 -39 0 -39 -39 -38 -38 0 0 -38 0 0 0 0 0 0 0 0 0 0 0 0 0 0 -39 0 0 -40 0 0 0 0 0 0 0 0 0 -40 -40 0 0 -40 0 0 -40 0 0 -40 0 0 0 0 0 0 -45 -41 0 -40 0 0 -40 -40.6667 -40.6667 -5.5 -40 0 0 0 0 0 -42 -42 0 0 0 0 0 0 0 0 0 -42 -42 0 0 0 0 0 0 -42 -42 -42 -42 0 0 -42 0 0 0 0 0 0 -42 0 0 -42 0 0 -43 0 0 0 0 0 0 -43 0 0 -43 -43 0 0 0 0 0 -43 -40.5 -40 -41 -40 -42 0 0 0 0 0 0 0 0 0 0 0 0 0 0 0 0 0 0 0 0 0 0 0 0 0 0 0 0 0 0 0 0 0 0 0 0 0 0 0 0 0 0 0 0 0
0 0 0 0 0 -4.6 -4.6 -5 -5 -5 -5 -5 0 0 0 0 -6 -5.4 -5.5 -5.5 -6 -6 -6.5 -6.5 -6.5 -6 -7 -7 0 0 -5 -5.5 -5.5 -6 -6 -6.5 -6.5 -7 -7 -7.2 -7.5 -7.5 0 0 0 0 0 0 -8 -8.5 -8.5 -9 0 -7.5 -7.66667 -7.66667 -8 0 -8 -8.5 -8.5 -9 -9 -8.8 -8.8 -9 0 -8.83333 -9 -9.33333 -9.33333 -10 -10 -10 -10.1667 -10.1667 -9.57143 -10 0 0 0 -10.5 0 -11 -11 -10.5 -10.5 -10 0 0 -10.3333 -10.3333 -11 -11 -11 -11.5 -11.5 -11 -11 0 0 0 0 -12 -12 -11 -11 -11.5 -11.5 -12 -12 -12 -12.5 -12.5 0 0 -12 -12 -12.5 -12.5 -12.6667 -13 -12 0 0 0 0 -14 -14 -13.5 -13.3333 -13.6667 -13.6667 -14 -13 -13 -13.3333 0 0 0 0 0 -13.25 -13.7143 -13.7143 -14 -14 -14 -14 -14 -14.5 -14.5 0 -15 -15 0 -14 -14.75 -14.75 -15 -15 0 0 0 -15.5 -15.5 -16 0 -16 -16 -16.4 -15.5 -15.5 -15.6667 -16 -16 0 0 0 -16.5 -16.5 -16.8333 -17 -17 -17 0 0 0 -16.6667 0 -17.6667 0 -17 -17 -17.3333 -17.3333 -17.75 0 0 -17 -17 0 -18.3333 -17.6667 -17.6667 -18 -18 0 0 -18 -18 0 -18.6667 -18.6667 -19 -19 -18 -18 0 -19 0 0 0 0 -19 -19 -19 -19 -22.3333 -20.5 -19.25 -20 -20 -22.3333 0 -20 -21 -21 -21 -20 0 0 0 0 -22 0 -21 -21 -21 0 -21 -21 -21.5 -21.5 -22 -21.8 -22 -22 -22 -21 0 0 0 0 0 -21.3333 -21.5 -21.7143 0 -22 -22 -22 0 -23 0 0 -22 -22.3333 -22.6667 -22.6667 -23 -23 -23 -22 -22 0 -23 0 0 -22 0 -23.1667 -23.1667 -23.1667 -22.75 0 -24 -23 0 0 0 -24 -24 -24 0 -24 -24 -24 -24 -24 -24.5 -24.5 -25 -25 -25 -25 -25 -25 0 -25 -25 -25 0 -25 -25 0 0 -25 -25 -25 0 0 -25.25 -25.25 0 0 0 0 -26 -26 0 -27 -26 -26 -26 0 -26 -26 -26 0 -26 -26 0 -26 -26 -26 0 0 -26 0 -26 -26 -26 -26 -26 0 0 0 0 0 -28 -28 -28 -28 -28 0 -28 -28 0 0 0 0 -28 0 0 0 0 0 0 0 -28 0 0 0 -28 0 -28 0 0 0 -29 -29 -29 -29 -29 -29 0 0 0 0 0 0 0 0 0 0 0 0 0 -29 0 0 0 0 0 0 0 -31 -30 0 0 0 0 0 -30 0 -31 0 0 0 0 0 -31 0 -30 0 0 0 0 0 0 0 0 -31 -31 -31 -31 0 -31 -31 0 0 -31 0 -31 -31 0 -32 -32 -32 0 0 0 -31 0 0 0 0 0 0 -32 -32 -33 0 -33 -32 0 -33 0 -33 0 0 0 0 -33 0 0 -32 0 -32 0 -33 0 -33 0 -34 -34 -34 -34 -34 -34 -34 0 0 -34 -33 -34 -34 -34 0 0 -34 0 -34 -34 -34 -34 38.5 -35 -34 -34 0 -35 0 0 0 -35 -35 -35 0 0 0 0 -35.5 0 -35 0 -35 -35 -35 0 0 0 0 0 0 0 -36 0 -36 -36 -36 0 -36 0 0 0 0 -36 -36 -36 -36 -36 -36 0 -36 0 -36 0 0 0 0 0 0 0 -37 0 0 -38 0 -38 0 0 0 -37 -37 0 0 -37 0 0 0 0 0 -37 -37 -37 0 0 0 0 0 0 -38 0 -38 0 0 -39 0 -38 0 -38 0 0 -39 0 -39 -39 -39 0 -38 0 0 0 0 0 -39 -39 0 0 0 0 0 -39 -39 0 0 -39 -39 0 -40 0 -41 -40 -40 0 0 0 -40 0 0 0 0 0 -40 0 0 0 0 0 0 -39 0 -40 -40 -40 0 0 -41 -40 -40 -40 0 0 0 0 0 0 0 0 0 0 0 0 0 0 0 -41 0 0 0 0 0 0 -42 0 -42 -42 0 0 0 0 0 0 0 0 0 0 0 0 0 0 -43 0 0 -42 -42 0 -42 0 -43 -43 0 0 0 0 0 0 0 -43 -43 0 -43 -49 -43 0 0 0 -43 0 0 -41 -40 -42 0 0 0 0 0 0 0 0 0 0 0 0 0 0 0 0 0 0 0 0 0 0 0 0 0 0 0 0 0 0 0 0 0 0 0 0 0 0 0 0 0 0 0 0 0
0 0 0 0 0 -4.6 -4.6 -5 -5 -5 -5 -5 -5 -5.5 -5.5 -6 -5.4 -6 -6 -6 -6 -6 -6.5 -6.5 -7 -7 -7 -7 -7.5 -6.33333 -5.5 -5.5 -5.5 -6 -6 -6.5 -6.5 -7 -7 -7.2 -7.5 -7.5 0 0 0 0 0 -8 -8 -8.5 -8.5 -9 0 -7.66667 0 0 -8 -8 -8 -8.66667 -8.66667 -9 -9 -8.8 -8.8 -8.8 -9 0 0 0 0 0 -10 -10 -10.5 -10.5 -10 -10 -10 -10.5 -10.5 -11 -11 -10.3333 -11.2 -11.2 -11 -11 -10 -10.25 -10.3333 -10.3333 -11 -11 -11 -11.5 -11.5 -11 -11 0 -11 -11.5 -11.5 0 15 0 0 0 0 -12 -12 -12 -12.3333 -12.3333 -13 -13 -12 0 -12.5 -12.5 -12.75 0 -12.5 -12.5 -12.3333 -12.3333 0 0 0 0 0 0 0 -14 -13 -13 -13.3333 0 0 0 0 0 -13.25 -13.7143 -13.7143 -14 -14 -14 -14 -14.25 -14.6 -14.6 -15 0 -15 0 -14 -14.75 -14.75 -15 -15 -15 -15 0 -15.1667 -15.1667 0 -16 -16 -16 -16 0 0 -16 0 -16 0 -16.5 0 0 -16.6 -16.8333 -17 -17 -17 -16 -16.5 -16.5 0 0 0 -18 -17 -17 -17.3333 -17.3333 -17.75 0 -17 -17 -17 0 -18.3333 -18.5 -17.6667 -18 -18 -18 -18 -18 0 0 0 0 0 -19 -18 0 -19 -19 -19.3333 -19.6667 -19.6667 -19 -19 -19 -19 0 -19 -20.8571 -19.6667 -19.6667 -19.6667 -20.8571 0 -20 -20 -20 -20 0 0 0 0 0 -22 -21 -21 -21 -21 0 0 0 -21.5 -21.5 -22 0 -22 -22 -22 -21 0 0 -22 0 0 0 -21.6667 -22 0 -22 -22 -22 -22 -23 0 0 -22 -22.3333 -22.3333 -22.6667 -23 -23 -23 -22 -22 0 -23 0 0 -22 0 -23.4 -23.1667 -23.1667 -22.75 0 0 0 0 -24 -24 -24 -24 -24 0 -25 -24 -24.25 -24.4 -24.6 -24.6 -25 -25 -25 0 0 0 -25 0 -25 -25 -25 0 -25 -25 -24.3333 0 0 0 0 -24.5 0 0 -26 -26 0 -26 -26 -25 0 -26 0 -26 -26 -26 0 -26 -26 -26 0 -26 -26 0 0 0 0 -26 -26 0 0 0 -26 -26.3333 -26.5 -26.6667 -26.6667 -27 -27 0 0 -28 -28 -28 -28 -28 0 0 0 0 -28 -28 0 -28 -28 0 0 0 0 0 -28 -28 0 -28 -28 -28 0 -28 -28 0 -29 -29 -29 -29 -29 0 -29 -29 -29 0 0 -29 0 -29 -29 -30 -29 0 -30 0 0 0 -30 -29 0 0 0 0 -31 -30 0 -31 0 0 0 -30 0 -31 -30 0 -30 0 0 0 0 0 -30 -30 -30 -29 0 0 0 0 0 -31 -31 0 0 -31 -31 0 0 -31 0 -31 0 0 -32 0 0 0 -30.5 0 -31 -31 0 -32 0 -32 0 -32 0 -32 0 -33 -32 0 0 0 -33 0 -33 0 -33 -33 0 0 0 -33 -32 0 -33 0 -33 0 -34 -34 -34 -34 -34 -34 -34 0 0 -34 -33 -34 -34 -34 0 0 12.5 -34 -34 -34 -34 0 -34 0 0 -34 -35 -35 0 0 0 -35 -35 -35 0 -35 -36 -35 -35 -35 -35 -35 -35 -35 -35 -35 0 -35 0 -36 0 0 -36 -36 -36 -36 -36 0 -36 0 -36 0 0 -36.5 -36 -36 0 -36 0 0 -36 0 -36 0 0 0 -36 0 0 -37 -37 0 0 -38 0 -38 0 0 0 0 0 -38 0 -37 0 0 0 -37 -37 0 0 0 0 0 -36.3333 -37.5 -36.3333 0 -38 0 -38 -39 -38 0 0 -38 -38 -38 0 0 -39 0 -39 -39 -39 0 0 0 -38 0 0 -39 -39 0 0 0 0 0 -39 0 0 0 0 0 0 0 -40 0 -41 0 0 -40 0 0 -40 -40 -40 -40 0 0 -40 36 0 0 0 0 -40 0 0 0 0 0 0 0 -40 0 -40 -40 0 0 0 0 0 0 0 0 0 0 0 0 -42 0 -41 -41 0 0 -42 -42 0 0 -42 -42 0 0 0 0 0 -42 0 -42 -42 -42 0 0 -42 -42 0 0 -43 -43 0 0 -43 0 0 0 0 0 0 0 0 0 0 0 0 -24 -43 0 0 0 0 0 0 -43 -43 20 -43 0 -41 -44 -40.6667 0 0 0 0 0 0 0 0 0 0 0 0 0 0 0 0 0 0 0 0 0 0 0 0 0 0 0 0 0 0 0 0 0 0 0 0 0 0 0 0 0 0 0 0
0 0 0 0 0 0 -4.6 -5 -5 -5.5 -5.5 -5 -5 -5.5 -5.5 -6 -6 -6 -6 -5.66667 -6 -6 -6.5 -6.5 -7 -7 -7.5 -7.5 0 -5 0 0 0 -6 -6 -6.5 -6.5 -7 -7 -7 0 0 0 0 0 0 -8 -8 -8 -8.5 -8.5 -8.66667 -8 -7 -7.6 -7.6 0 -8 0 -8.5 -8.66667 -9 -9 -9.33333 -9.5 -9.5 -9 -9 -9 0 0 0 0 -10 -10.5 -10.5 -10.5 -10.5 -9.33333 0 0 -10 -11 -10.3333 -10.6667 -10.6667 -11 -11 -10 -10.25 -10.6667 -10.6667 0 -11 -11 -11 -11 -10.6667 -11 -11 -11 -11.4 -11.4 -12 -11 -12 -12 -12 -12 -12 -12 -12 -12.5 -12.5 -13 -12.25 -12 0 -12.3333 -12.3333 -13 -13 -13 -13 -12.5 -12.5 0 -13.3333 -13 0 0 0 0 -13.3333 -13.3333 -13 -13.4286 -13.4286 -14 -14 -13.3333 0 -13 -13.3333 -13.7143 -14 -14 -14 -14 -14.25 -14.6 -14.6 -15 -15 -15 -15 -14.5 -14.5 0 0 0 0 0 0 0 0 0 -16 -16 -16 -16.4 0 0 -16 0 -16 -16 -16 0 0 -17 -17 0 -17 -17 0 -16.8 -16.8 -17 -17 -17 0 0 0 -17.75 -17.75 -18 0 -18 -17 0 -18 -18.25 -18.3333 -18.5 -18 -18 -18 -18 0 0 0 0 0 0 -19 -18.5 0 -19 -19 -19.3333 -19.3333 -19.6667 -19 -19 -19 0 0 -19 -20.5 -20 -20 -19.6667 -20.8571 0 -20 -20 -20 -20 0 0 0 0 0 0 -20 -20 0 -21 0 -21.25 -21.6 -21.6 -22 -22 -22 -22 -22 0 -22 0 0 -22 0 0 -21.3333 -21.5 -21.7143 0 -22 0 -22 -22 0 -22 -22 -22 -22.3333 -22.3333 -23 -23 -23 -23 0 0 0 0 -23 -22 -22 0 -23.3333 -23.3333 -23.6667 -22.75 0 -24 -23 -23 0 0 -24 -24 -24 -24 0 0 0 -24.4 -24.6 -24.6 -25 -25 -25 -25 -25 0 0 0 -25 -25 -25 -24 0 -25 -24.3333 -24.3333 -25 -25 -25 0 0 0 0 0 0 -26 -26 -25 0 0 -27 -26 -26 0 -27 -26 -26 0 -27 -26 -26 0 -27 -26 -26.2 -26 -26.4 -26 0 -26 -26 -26.3333 -26.3333 -26.5 -26.6667 -27 -27 0 0 -28 -28 -28 -28 -28 0 0 0 0 0 -28 0 -28 -28 -28 0 -28 -28 0 -28 -28 0 -28 -28 -28 -28 -28 -28 0 0 -29 -29 -29 0 0 -30 -29 -29 0 -29 0 -30 -29 0 -30 -29 -29 0 0 0 0 -30 -29 0 -30 0 0 0 0 0 0 0 0 0 0 0 0 0 0 0 0 0 0 0 0 -30 -30 -30 -29 0 -30 0 0 -31 0 -31 -31 0 0 0 0 0 0 -31 -31 -32 0 -32 -31 0 0 0 -32 -31 0 0 -32 -65.5 -32 0 -32 0 -32 0 -33 -32 0 0 0 0 0 -33 0 -33 -33 -33 -32 -32 0 -32 0 -33 0 -34 0 -34 0 0 0 -34 -34 -34 -34 -34 -34 -33 0 -34 -34 -34 -34 -34 -34 -34 -34 -34 0 -34 0 0 -34 -35 -35 -35 -35 -35 -35 -35 -35 0 0 0 0 -36 0 -35 0 0 0 0 0 -35 -35 0 -36 0 -36 -36 0 -36 -36 -36 0 -36 0 -36 0 0 -37 -36 -36 -36 -36 0 0 -36 0 0 0 0 0 -36 0 -37 0 0 0 0 -38 0 -38 -37 0 -37 0 -37 0 0 0 0 0 0 0 0 -37 0 -37 0 0 0 -37.5 -36.3333 0 -38 0 -38 -39 -38 0 0 -39 -38 -38 0 0 0 0 0 0 -39 -38 -38 0 -38 0 0 -39 0 0 0 0 -39 0 0 -39 -39 0 0 -39 0 0 0 0 0 0 0 0 -40 0 -40 -40 -40 -40 0 0 -40 0 -40 -40 -40 0 -41 0 -40 -40 -40 -40 0 0 -41 -40 -40 -40 0 -40 0 -41 0 0 0 -41 -41 0 0 0 0 0 0 0 0 0 0 0 -42 0 0 0 -41 0 0 0 0 0 -42 0 0 0 0 0 -42 -42 0 0 -43 -43 -43 0 0 0 0 0 0 0 0 0 0 0 0 -43 0 -24 -43 0 0 0 -43 0 -43 -43 -43 0 0 0 0 -44 -51 0 0 0 0 0 0 0 0 0 0 0 0 0 0 0 0 0 0 0 0 0 0 0 0 0 0 0 0 0 0 0 0 0 0 0 0 0 0 0 0 0 0 0 0
0 0 0 0 0 0 -4 -4.5 -4.5 -4.5 -5 -5.16667 0 0 0 -6 0 0 0 -6 0 0 0 -7 -6.5 0 -7.16667 -7.16667 0 -6 0 0 0 0 -6 -6.5 -6.5 -6.66667 -7 -7 0 0 -8 -7 0 0 -8 -8 -8 -8.33333 -8.33333 -8.5 -8 -7 -7.6 -7.6 -8 -8 0 -8.5 -8.5 -9 -9 -9 -9.5 -9.5 -9 -9 -9 0 0 -10 -10 -10.3333 -10.6667 -10.6667 -10.5 -10.5 -10 -10.5 -10.5 -10.5 -10 -10 -10.3333 -10.6667 -11 -11 -10 -10.25 -10.25 -10.6667 0 -11 -11 -11.5 -11.5 -11 -11 -11 -11.5 -11.5 -12 -12 -12 -12 -11.5 -11.5 -12 -12 -12 0 0 0 -13 -12.25 -12 -12 -12.25 -12.25 -12.6667 0 -14 0 -13 -13 -13 0 -14 -13.5 -13.3333 -13.3333 0 -13 -13 -13 -13.3333 -13.3333 0 0 0 0 -13 -13.3333 -13.3333 -13.6667 -14 0 0 0 0 -15 -15 0 -15 0 -15.6667 -15.6667 -14.75 -15 0 -15 -15 0 0 0 0 -16 -16 -16.3333 -16.4 -16.4 0 0 -16 -16 -16 0 0 0 -17 -17 0 0 -17 -16 -16.5 -16.5 -17 -17 -18 0 0 -17.5 -17.8333 -17.8333 -18 -18 -18 0 -17.5 -18 -18.25 -18.25 -19 -19 -18 -18 -18 -18 -18 -18.5 -18.5 -18.6667 -19 -19 -19 -18 0 -19 0 0 0 0 0 -19 -19 -19.5 -19 -20.5 -20 -20 -20 -20.5 0 0 -20 -20 -20 0 0 0 0 0 0 -20 -20 0 -21 0 -21.25 -21.6 -21.6 -22 -22 -22 -22 -22 -22 -22 0 0 -22 -22.5 -22.5 -22 -22 -22 0 0 -22 -22 -22 -22 -22 0 -22.5 -22.5 -23 0 -23 0 0 0 -22 0 -23 -23 0 0 0 -23.4 -23.4 -23.6667 -22.75 0 -24 -23 -23 0 0 -24 -24 -24 -24 0 0 0 0 0 0 -24.6667 -25 -25 0 -25 -25 -25 0 0 0 -25 0 -25 -25 -24.5 -24.5 -24.3333 0 -17.1667 -17.1667 -25 0 -26 -26 0 -26 -26 -25 0 0 -27 -26 -26 0 -27 -26 -26 0 -27 0 0 0 0 -26 -26 -26 -26.3333 -26.5 0 -27.6667 -26.75 -26.75 0 0 -27 -27 -27 0 0 -28 0 -28 -28 -28 0 -28 -28 0 -28 -28 0 -28 0 0 0 -28 -28 0 -28 -28 0 -28 -28 -28 -28 -28 -28 0 0 0 -29 -29 0 0 0 0 0 0 -29 0 -30 -29 0 -30 0 0 -30 -30 0 0 0 0 -30 -30 0 0 0 0 -31 0 0 -31 0 0 -31 -31 -30 0 0 0 -30 0 -30 -30 -30 -30 -30 0 0 0 0 0 0 0 0 0 0 0 0 0 -31 0 0 0 0 0 0 0 0 0 0 0 0 -31 -31 -31.5 0 0 -33 -32 -32 0 0 -33 -32 0 -33 -33 0 -33 -33 -33 -33 0 -44.75 0 0 0 -32 0 -33 0 -34 0 -34 0 -34 -34 0 0 -34 -34 -34 0 0 0 0 0 -72 0 -34 -34 -34 0 0 0 -34 0 -34.5 -34 -35 -35 0 0 0 -35 -35 -35 0 -35 0 0 0 -35 -35 -35 -35 -35 -35 -36 -35 0 -35 0 0 0 -36 -36 -36 -36 -36 0 -36 -37 -36 0 0 0 0 0 0 -36 -36 0 -36 0 -36 -37 0 0 -36 0 0 0 -37 -38 0 -38 -38 -38 -37 -37 0 0 0 -38 0 0 0 0 0 -37 -38 -37 -37 0 -38 0 0 0 0 0 0 0 0 0 0 -39 -39 -39 -38 -38 0 0 0 0 0 0 -39 -38 -38 0 -38 0 0 -39 -39 0 0 0 -39 0 0 0 0 0 -40 -39 0 0 -40 0 -41 0 -40 -40 -40 -40 -40 -40 -40 0 0 0 0 0 0 -40 -40 0 -41 0 0 0 0 -40 0 0 -41 -41 -40 -40 0 0 -40 0 0 -40 0 0 -41 0 0 0 0 0 0 0 -42 0 0 0 -42 0 -42 -42 -41 0 -42 0 -42 0 -42 -42 0 0 0 0 0 0 0 0 0 0 0 -42 0 -42 0 -42 0 0 0 -42 0 -43 0 0 0 0 0 -43 -36.5 0 -43 0 0 0 0 -2 0 0 -41 -41.5 0 0 0 0 0 0 0 0 0 0 0 0 0 0 0 0 0 0 0 0 0 0 0 0 0 0 0 0 0 0 0 0 0 0 0 0 0 0 0 0 0 0 0 0 0
0 0 0 0 -4.66667 -4.66667 -4.5 -4 -4.57143 -4.57143 -5 -5.16667 -5.5 -5.8 -5.8 -6 0 0 0 0 -6.2 -6.5 -6.5 -7 -6.5 -5.75 0 -7.16667 0 -6 -6.5 -6.5 -7 0 -6 0 0 0 -7 -7.2 -7.2 -7.5 -8 -7 0 0 0 0 -8 -8.5 -8.5 -9 -9 -7.66667 -7.5 -7.6 -8 -8 0 0 -8.5 -9 -9 -9.5 -9.5 -10 -10 -9 -9.5 -9.5 -10 -10 -10 -10.3333 -10.3333 -10.6667 -10.5 -10.5 -9.9 -9.75 -9.75 -10 0 -10 -10.3333 -10.3333 -10.5 -11 -10.25 -10.5 -10.5 -11 -11 0 0 0 0 -11 -11 -11.4 -11.625 -11.625 -12 -12 -12 -12 -12.3333 -12.3333 -12.2 -12 0 0 0 0 0 0 -12 0 -12.5 -12.5 -12.75 -13 -13 -13 -13.5 -13.5 0 0 0 -13 0 0 -13.6667 -13 -13 -13 -13.3333 -13.3333 -14 -14 0 0 -13.25 -13.25 -13.7143 -14 -14 0 0 -14.5 -14.5 -15 0 0 -15 -15.3333 -15.6667 -15.6667 -14.75 -15 -15 0 0 0 0 -16 0 -16 -16 -16 -16.4 -16.4 -16 -16 -16 -16 -16 -16 -16.5 -16.5 -17 0 0 -17 -17 -16.5 -16.5 0 0 -17 -17 0 -17 -17.6 -17.6 -18 0 -18 -18 -17 -17.5 0 -18.5 -18.5 0 -18 -18 -18 0 -18 0 0 0 0 -19 -19 -19 -18 0 -19 0 0 0 0 0 -19 -19 -19 -19 -20.8571 -20.5 -20 -20 -20.5 0 0 -20 -20 -20 -19.3333 -19.6667 -19.6667 0 -21 -21 -20 -20 0 -20 0 -21.3333 -21.6667 -21.6667 0 0 0 0 -22 -22 -22 -21 0 0 0 0 0 -22 -22 0 -22 0 0 0 -22 -22 -22 -22.5 -22.5 -23 -23 -23 -23 -23 -22 -22 0 -23 -23 0 0 0 -23.5 -23.4 -24 -22.75 0 -24 -23 -23 0 -24 0 -24 -24 0 -25 -24 -24.25 -24.4 -24.4 -24.6 -25 -25 -25 0 0 0 0 0 -25 -25 -25 0 -25 -25 -25 0 0 0 0 0 0 0 -26 -26 0 0 0 0 0 -27 -27 -26 -26 0 -27 -26 0 0 0 0 0 0 -27 -26 0 -27 -26 -26 0 -27.5 -27.5 0 0 0 -27 -27 -27 0 -27 -27 0 0 0 0 0 0 0 0 0 -28 -28 -28 -28 -28 0 0 0 0 -28 -28 0 -28 -28 -28 0 0 0 0 0 -29 -29 -29 -29 0 -29 -29 0 -30 0 0 0 -29 0 -30 0 0 0 0 0 0 0 0 -30 -30 0 -30 -30 0 -31 0 0 -31 -31 0 -31 -31 -30 0 -31 0 0 -33.6667 0 -30 -30 -30 0 -30 0 0 0 0 -31 -31 -31 0 -32 0 -31 -31 -31 0 0 0 0 0 0 0 0 0 0 0 0 0 0 0 0 0 0 0 0 -32 0 0 0 -33 -33 -33 -33 -33 0 -33 0 0 0 0 0 0 0 0 0 0 0 0 -34 0 0 0 0 0 0 -34 -34 -34 -33 0 -34 -34 0 0 0 0 -34 0 -34 -34 -34 0 -35 -34 0 0 0 0 -35 -35 0 -35 0 -35 0 -35 0 0 -35 0 -35 -35 -35 -36 -35 -35 -35 0 0 0 -36 -36 -36 0 -36 -36 -36 0 -36 0 0 -37 -36 0 0 -36 -36 0 -36 0 -36 -37 0 0 -36 -36 0 -37 -37 -38 0 -38 -38 -38 -37 -37 0 -38 0 -38 -38 0 -38 0 -37 0 -38 0 -37 0 0 0 0 -37 0 0 0 0 0 0 0 -39 -39 -39 0 -38 0 0 0 0 0 -39 -39 0 0 0 -39 -39 -39 -39 -39 0 0 0 -39 0 0 -39 -39 0 -40 0 0 0 0 0 -40 -40 0 0 0 0 -40 -40 -40 0 0 0 0 0 0 -40 0 0 -40 0 -40 -40 0 0 0 0 -41 -41 -40 -40 0 0 -40 0 0 -40 0 0 -41 0 0 0 0 0 0 0 -42 0 -42 -42 -42 0 0 0 0 -42 -42 0 0 0 0 0 -42 -42 0 0 0 0 -42 0 -43 -43 -43 -42 0 -42 0 52 -43 -43 0 0 0 -43 -43 0 0 0 0 0 0 0 0 0 0 -43 -43 0 0 0 -41 -44 -43.5 0 0 0 0 0 0 0 0 0 0 0 0 0 0 0 0 0 0 0 0 0 0 0 0 0 0 0 0 0 0 0 0 0 0 0 0 0 0 0 0 0 0 0 0
0 0 0 0 0 0 -4.5 -4 -4.5 -4.5 -5 0 0 0 -6 -6 -6 -6.5 -6.5 -6 -6 -6.16667 -6.16667 0 -6.5 -5.75 0 0 -6.5 0 -6 -6 0 -7 0 0 0 -7 -7.2 -7.25 -7.25 -7.25 -8 -7 -7.5 -7.5 -8 -7.66667 0 -7.75 -7.75 -8 -9 -7.66667 -7.66667 -7.5 -8 0 -8.5 -8.5 0 -9 -9 -9.33333 -9.33333 -10 -10 -9 -9.5 -9.5 -10 -10 0 -10.5 -10.5 0 0 -11 -9.9 -9.9 -9.75 -10 0 0 0 0 -10.5 -10.5 -10 -10.5 -10.5 -11 -11 0 0 0 0 -11 -11 0 -11.625 -11.625 -12 -12 -12 -12 -12.2 -12.2 -12.3333 -12 0 -12.5 -12.5 -13 -13 -13 0 -12.5 -12.5 0 -12 -12 -12 -12.5 -12.5 0 0 -13 -13 -13.5 -13.5 -14 -14 0 0 0 -13.4286 -13.4286 -14 -14 -14 -14 -13.5 -13.5 -13.7143 -14 -14 -14 0 -14.25 -14.25 -14.6 -15 -15 -15 -15 -15.5 -15.5 0 0 0 0 -15 0 0 -15.1667 0 -16 -16 -16 -16.4 -16.4 0 0 0 -16 -16 0 0 0 -17 -17 -17 -17 -17 0 0 -16.8 -17 -17 -17 0 -17 -17.6 -17.6 -17.75 -18 -18 -18 -17 0 -18.4 -18.75 -18.75 -19 -19 -18 -18 -18 0 -18.5 -18.5 -19 -19 -19 0 0 -18 -18.25 0 0 0 0 -19 -19 -19 -19 -19 -19 -20.8571 -20.8571 -19.6667 -19.6667 -20.8571 0 -20 -20 -20 -20 -19.3333 -19.3333 -19.6667 0 -21 -21 -20 -20 -20 -20 0 -21.3333 -21.3333 -21.6667 0 0 0 0 -22 -22 -22 -21 0 0 0 -23 0 -22 0 0 -23 -22 -22 -22 -22 -22 0 0 -23 0 0 0 -23 -23 -22.3333 -22 0 -23 -23 -22.2 -22 0 0 -23.5 0 -23 0 -24 -23 -23 -23 0 -23 0 -24 0 0 -24 -24.25 -24.25 -24.4 -25 0 -25 -25 0 -25 -25 0 0 -25 -25 -25 -24 0 -25 -25 0 0 0 0 0 -24.5 0 -26 -26 -25 0 -26 0 0 0 0 0 -26 0 -27 -26 -26 0 -27 -26 -26 0 -27 -26 -26.2 0 -26.4 -26.5 0 0 -27.6667 -27 -27 0 -27 -27 -27 0 -27 -27 0 0 0 -28 0 -28 -28 0 -28 -28 0 -28 -28 0 0 -28 -28 -28 -28 -28 0 -28 -28 -28 -28 0 0 0 0 -29 -29 -29 -29 0 -29 -29 0 -30 0 0 0 -29 0 -30 -29 0 -30 -30 0 -30 -30 0 -30 -30 0 -30 -30 0 -31 -31 0 -31 -31 0 0 0 -31 -31 -31 0 0 -31.5 -30 -30 0 -30 -30 -30 -30 -30 -30 0 -31 0 -31 0 -32 -31 0 0 0 -31 0 -32 -32 0 0 0 0 0 0 0 0 0 0 0 0 0 0 0 0 -32 0 0 0 -33 -33 -33 -33 -33 0 0 0 0 0 0 0 0 -32 0 0 0 0 0 0 0 0 0 -34 0 0 0 -34 0 -33 0 -34 0 -72 -34 -34 -34 -34 -34 -34 0 -34 -35 -34.5 -34 0 -35 0 -35 -35 -35 0 -35 0 0 0 0 0 0 -35 0 -35 -35 -35 0 -35 -35 -35 0 0 0 -36 -36 -36 -36 -36 -36 -36 0 -36 0 0 -37 -36 -36 -36 -36 -36 0 -36 0 0 0 0 -37 -36 0 0 0 -37 -38 0 -38 -38 -38 -37 -37 0 0 0 0 -38 0 -38 0 -38 0 -37 0 0 0 0 0 -37 -37.3333 -37 0 0 0 -38 -38 0 -39 -39 -39 -38 -38 0 0 0 0 0 0 0 0 0 -39 0 -39 -39 -39 -39 0 0 0 -39 0 0 0 -39 -39 0 -39 0 -40 -40 0 0 0 -40 -40 0 0 0 0 0 0 -40 -40 -40 0 -40 -40 0 0 0 0 -40 -40 -40 -40 0 0 0 -41 -40 -40 0 -40 0 -41 0 0 0 0 0 0 0 -42 -42 -41 0 0 0 0 0 0 0 0 -42 -42 0 0 0 0 0 0 -42 0 -42 -42 0 0 -42 -42 -42 0 -43 -43 -43 0 0 -42 0 0 0 0 -43 -42 0 0 -43 0 0 0 0 0 0 0 0 0 0 0 0 0 0 -38.5 -42.5 -42 -44.3333 0 0 0 0 0 0 0 0 0 0 0 0 0 0 0 0 0 0 0 0 0 0 0 0 0 0 0 0 0 0 0 0 0 0 0 0 0 0 0 0 0 0 0 0
0 0 0 0 0 0 -4 -4 -4.57143 -4.57143 -5 -5.16667 -5.5 -5.5 -5.8 -6 -6.42857 0 0 -6 -6.2 -6.16667 -6.16667 0 0 0 0 -6 0 -7.25 -6.5 -6.5 -6 -6.5 0 0 -7.33333 -7 -7.2 -7.5 -7.5 -7.25 -8 -7 -7.5 -7.5 -8 -7 -7.66667 0 -7.75 -8 -8 -8 -8 -8.5 -8 -8 -8.5 -8.5 0 0 0 0 0 -10 -10 0 -9.5 -9.5 -10 -10 0 -10.5 -10.5 0 0 0 -9.9 -9.9 -9.75 -10 -10 -10 -10.5 -10.5 -11 0 -10 -10.5 -10.5 -11 0 -11 -11.5 -11.5 -12 0 0 0 0 0 -12 -12 -12 -12.5 -12.5 -12.2 -12.3333 -12 -12 0 0 0 -13 -13 -11 -12 -12 -12 -12 0 -12.5 0 0 -13 -13 -13 -13 -13.5 -13.5 -14 -14 -14 0 0 -13.4286 -13.4286 -14 -14 -14 -13.3333 -13.5 -13.5 -14.3333 -13.6667 -14 -14 0 -14.3333 -14.3333 0 -15 -15 -15 0 0 -15.6667 -14.75 -15 0 0 0 0 0 0 0 -16 -16 -16 -16.4 -16.4 0 0 0 -16 -16 -16.5 -16.5 0 -17 -17 -17 -17 -17.3333 0 0 -16.8 -17 -17 -17 0 -17 -17.5 -17.5 -17.8333 -18 -18 0 -17 -17 -18.5 -18.5 -19 -19 -18 -18 -18 -18 -18 -18.5 -18.5 -19 -19 -19 -19 -19 -18 0 0 0 -20 -20 -19 -19 -19 -19 -19 -19 -19.5 -19.5 -19.75 0 0 0 -20 -20 -20 -20.5 -20.6667 -20.6667 -20 0 -21 -21 -20 -20 0 0 0 -21.25 -21.25 -21.6 0 -22 -22 -22 -22 -22 -22 -21 -21 0 0 -23 -23 0 0 0 0 0 -22 -22 -22 -22 -22.5 -22.5 -23 -23 0 0 -23 -23 -22.3333 -22 0 -23 -23 -22.2 -22.6667 0 0 -24 -24 0 0 -24 -23 -23 -23 0 0 -24 0 0 0 0 -24.5 -24.5 -25 -25 0 0 -25 0 0 -25 -25 0 -25 -25 0 0 -25 -25 -25 -24 -24.3333 -24.3333 0 -17.1667 -25 0 -26 -26 -26 0 -26 -26 0 0 0 0 -26 0 -27 -26 -26 0 -27 -26 -26 0 -27 -26 -26 0 -26.4 -26.5 -26.5 0 -27.6667 -26.75 -27 0 -27 -27 -27 0 0 0 0 0 -28 -28 0 -28 -28 0 -28 -28 0 -28 -28 -28 0 0 -28 0 -28 -28 0 -28 -28 0 -29 0 0 0 -28 0 -29 0 -29 -30 -29 -29 0 -30 -29 0 -30 0 0 -30 0 0 0 0 0 -30 -30 0 -30 -30 0 -30 0 0 -31 -31 0 -31 -31 0 0 0 0 0 0 0 0 -31.5 -34 -30.5 0 -30 -30 -30 -30 -30 0 -30 0 0 0 -32 -32 -31 -31 0 0 0 0 -32 -32 -32 -32 0 -32 -32 -32 0 0 -32 0 0 -31 0 0 0 -33 0 0 -32 0 -33 -33 -33 0 -33 -33 -33 -33 0 0 0 0 0 0 0 0 0 0 0 0 -34 -34 0 0 0 0 0 0 0 0 -34 -34 0 -34 0 0 0 0 0 0 0 0 0 0 -35 -35 -35 0 -35 -35 -35 0 0 -35 -35 0 0 0 -35.5 -35 -35 -35 -35 -35 0 -35 -35 -35 0 0 0 -36 0 0 0 0 -36 -36 0 0 0 0 0 0 0 -36 -36 -36 0 -36 -37 0 0 0 0 -36 -36 0 0 -37 -38 0 0 -38 -38 -38 -37 0 0 0 0 0 0 0 0 -38 0 0 0 0 -38 -37 -38 -36 -37.8333 -37.8333 0 -38 0 0 -38 0 -39 -39 0 0 -38 0 0 -39 0 0 -39 0 0 0 -39 0 -39 -39 -39 -39 0 0 0 -39 0 0 -39 -39 0 0 0 0 0 -40 -39.5 -40 -40 0 -39 0 0 -40 0 -40 0 -40 -40 -40 0 -40 -40 0 0 -40 0 -40 -40 -40 -40 0 0 0 0 0 -40 0 0 -40 0 0 0 0 0 -41 0 0 -42 0 -41 0 0 -42 0 0 0 0 0 -42 -42 -42 -42 0 -42 -41 0 -42 0 -42 0 0 0 0 0 0 0 -43 -43 -43 0 0 0 0 0 0 0 0 -42 -42 0 -43 0 0 -43 0 0 -43 0 0 -43 0 0 -43 0 0 -44 -44.8 -42.6667 -46 0 0 0 0 0 0 0 0 0 0 0 0 0 0 0 0 0 0 0 0 0 0 0 0 0 0 0 0 0 0 0 0 0 0 0 0 0 0 0 0 0 0 0 0
0 0 0 0 0 0 0 0 0 0 -5 -5.16667 -5.5 -5.5 -5.8 -6 -6.42857 -6.42857 0 -6 -6.2 -6.66667 -6.66667 0 -6.5 -7 -7 -7 -7 -7.33333 -6.5 -6.5 -6 -6.25 -7.5 -7.5 0 0 0 0 0 -8 -7 -7.5 -6.75 -6.75 -7 -7 -7.66667 -7.66667 -7.75 -8 -8 -8.66667 -8.66667 -8.5 -8 -8 -8.5 -8.5 0 0 0 0 0 0 -10 -9 0 0 -10 -10 -10 -10.5 -10.5 0 0 0 -9.33333 -9.33333 -10 -10 -10 -10.5 -10.5 -11 -11 -11 -10.25 -10.6667 -10.6667 -11 -11 0 0 0 0 -12 -11 -11.4 -11.625 -11.625 0 -12 0 -12.5 -12.5 -12.5 -12.5 -12 -12 0 0 0 -13 -13 -11.75 -11.5 -11.5 -12 -12 -12 -12 0 0 -13 0 -13 -13 -13.6667 -13.6667 -14 -14 0 0 0 0 -14 -14 -14 -14 -14 -13.5 -13.5 -14.3333 0 0 -14.5 0 0 0 -15 -15 0 0 -15.3333 -15.3333 -15.6667 -14.75 -15 -15 -15 -16 -16 0 0 0 -16 -16 -16.3333 -16.3333 0 -16 -16 -16 -16 -16 -16.5 -16.5 0 -17 0 -17 0 0 0 0 0 0 -17 -17 0 -17.5 -17.5 -17.5 -17.8333 0 -18 -18 -17 0 -18.4 -18.4 -18.75 -19 -18 -18 -18 -18 -18 0 0 -19 -19 -19 -19 -19 -18 0 0 0 0 -20 -19 -19 -19 -19 -19.2 -19 -19.5 -19.5 -19.75 -19.75 0 0 0 0 -20.25 0 -20.5 -20.5 -20 0 -21 -21 -20 -20 -20 -20 0 -20.6667 -20.6667 -21 -21 -21 -21 0 0 -22 -22 0 0 0 0 0 -22 0 0 0 0 0 -22 -22 -22 0 -22.5 -22.5 -23 -23 -23 -23 -23 -23 -23 -23 0 0 0 0 0 -22.6667 0 -24 -24 0 0 0 0 -24 0 -23 -23 -23 -23 0 0 -24.6667 -24.6667 -25 -25 0 0 -25 -25 0 -25 -25 -25 0 0 -25 -25 0 -25 -25 -25 0 -25.5 -25.5 -26 -26 0 0 0 -26 0 -26 -26 -27 0 -26 0 0 0 0 -27 -26 0 0 0 0 0 0 -27 -26 -26.2 0 -26.3333 -26.3333 -27 0 0 0 0 0 -27 -27 -27 0 0 0 0 0 -28 -28 0 -28 -28 0 -28 -28 -28 -28 -28 -28 0 -28 -28 0 0 0 0 -28 -28 0 -29 -28 -28 0 0 0 0 0 -29 0 -29 0 0 -30 -29 0 -30 0 0 0 0 0 0 0 0 0 -30 -30 -30 -30 -30 -30 0 0 0 0 0 -31 -31 0 -31 -31 0 -31 -31 0 0 -31.5 -33.6667 -31 0 0 0 0 -30 -30 0 -30 0 0 0 0 0 -31 -31 0 -31 0 -32 -32 -32 -32 -32 -32 -32 -32 -32 -32 -32 -32 0 0 -31 -31 0 0 -33 -32 -33 0 0 -33 0 -33 -33 -33 0 0 0 0 -33 0 -33 -33 0 0 0 0 0 0 0 0 -34 0 0 0 0 0 -34 0 0 0 0 0 -34 -34 0 -34 0 -34 -34 0 0 -35 0 0 0 0 -35 -35 -35 -35 0 0 0 0 0 0 -36 -36 0 -35 -35 -35 0 -35 0 -35 -35 0 0 0 0 0 0 0 0 0 -36 0 0 0 0 -37 -36.5 0 0 0 0 0 0 0 -36 0 0 -37 0 0 0 0 -37 -37 -38 -37 -38 -37 -38 0 -37 -37 0 -37 -38 0 -38 0 -38 0 -38 0 -37 -38 -37 0 -35 -37.5 -37.5 0 0 0 0 -39 -39 -39 0 0 -38 -38 0 0 0 0 0 0 0 0 -38 0 -39 -39 -39 -39 -39 -40 -38 0 -39 -39 0 -39 -39 -39 0 0 0 -40 -40 0 -40 -40 0 -40 -40 0 -40 -40 0 0 0 -41 -40 0 0 0 0 0 0 -41 0 -40 0 0 -41 0 -41 -41 0 0 0 -40 0 -41 0 0 0 0 -41 0 0 -42 -42 0 0 0 -42 0 0 0 0 0 0 0 0 -42 0 0 -41 0 -42 -42 0 0 0 0 -42 -42 0 0 0 0 0 0 -43 -42 0 0 -43 -43 -43 0 -42 0 -43 0 0 0 0 0 0 0 0 -43 0 0 0 0 0 0 0 -44 0 0 0 0 0 0 0 0 0 0 0 0 0 0 0 0 0 0 0 0 0 0 0 0 0 0 0 0 0 0 0 0 0 0 0 0 0 0 0 0 0 0 0 0 0
0 0 0 0 0 -4.66667 -4 -4 -4.5 -4.5 -5 -5 -5.5 -5.5 -6 -6 -6.42857 -6.42857 -7 0 0 0 0 -7 -6.5 -6 -6 0 -7 -7.25 -7.16667 -7.16667 -7 -6.5 -7.5 -7.5 -7.33333 -7 -7.2 -7.5 -7.5 -8 -7 -6.83333 -7.5 -6.75 -7 -7.2 -7.66667 -7.66667 -8 -8 -8.25 -8.66667 -8.66667 -9 -9 -8.33333 -8.66667 -8.66667 0 0 0 0 0 0 0 -9.4 0 0 0 -9.5 -9.33333 -10.5 -10.5 -10.6667 -10.3333 -10 -10.75 -10.75 -10 -10 -10 -10.5 -10.5 0 -11 -10.5 -10.25 -10.25 -10.6667 -11 -11 -11 -11.5 -11.5 0 0 0 -11.4 -11.4 -11.625 0 -12 0 -12.5 -12.5 -12.3333 -12.3333 -12 -12 -12.5 -12.5 0 -12.5 0 -11.75 -11.75 -11.75 -12 -12 -12 -12 -12.5 -12.5 0 -13.5 -12.5 0 -13.6 -13.6 -14 -14 0 0 0 0 0 0 -14 -14 -14 -13.5 -13.5 -14 -14 0 -14.75 0 0 0 -15 -15 -15 -15.3333 0 0 0 0 -15 -15 -15 -16 -16 -16 0 0 -16 -16 -16.5 -16.5 -17 0 -16 -16 -16 -16 -16.5 -16.5 0 -17 0 0 0 0 0 -18 -17 -17 0 0 0 -18.3333 -17.5 -17.5 -17.8333 -18 -18 -18 -17 0 -18.4 -18.4 -18.75 -19 -18 -18 -18 0 0 0 0 0 -19 -19 -19 0 -18 -18.25 0 0 -20 -20 -20 -19 -19 -19 -19 -19.5 -19.5 -21.2 -20.0714 -20.0714 -20 0 -20 -20 -20.3333 -20.6 -20.6 -21 -20 0 -21 -21 -20 -20 -20 -20 0 0 -21 -21 -21 -21 -21 0 0 -21 -21 -20 0 0 -23 0 -23 -22.5 0 0 -23 0 0 0 0 -22.5 -22.5 0 0 -23 -23 0 -23 -23 -23 -22.3333 0 -23 -23 -22.2 0 0 0 -24 -24 -23 0 -24 -23 -23 -23 -23 0 -23 -23 0 0 0 -24.6667 -25 -25 0 -25 -25 -25 0 -25 -25 0 0 0 -25 -25 -25 -25 0 0 0 0 0 -26 -26 0 -26 -26 -26 -26 0 -26 -26 -25 0 0 0 -26 0 -27 -27 -26 0 0 0 -26 0 -27 -26 -26.2 -26.2 0 -26.4 -26.5 0 0 0 0 0 -27 -27 -27 -27 -27 -27 0 -28 0 -28 0 -28 -28 0 0 0 0 0 0 -28 0 -28 -28 0 -28 -28 0 -28 -28 0 -29 -28 -28 0 0 0 0 0 -29 0 0 0 0 -30 -29 0 -30 -29 0 -29 -29 0 -30 -30 0 -30 0 -30 -30 -30 0 -30 -29 0 0 0 0 -31 -31 0 0 0 0 0 0 0 0 -31.5 -33.6667 -31 -31 0 0 0 0 -30 -30 -30 0 -31 -31 0 -31 0 -31 0 0 0 0 0 0 -32 -32 -32 0 0 0 0 -32 -32 0 -32 -31 0 -32 0 0 0 -33 -33 -33 -33 0 -33 0 -33 -33 0 0 0 0 0 0 0 0 0 0 -33 -33 -33 -33 -34 0 0 0 0 0 0 0 0 0 -34 -34 0 -34 -34 0 -34 0 -34 -34 -34 0 -35 0 0 0 0 -35 -35 -35 -35 -35 0 -35 0 -36 0 -36 0 -35 -35 0 0 0 -35 0 -35 0 -36 0 -36 0 -36 0 -36 0 -36 0 0 0 0 0 -37 0 0 0 0 0 0 0 0 0 0 0 -37 -36 0 -37 0 -37 -37 0 -38 0 -37 0 0 0 0 0 -37 0 -37 0 0 0 0 -37 -37 -37 -37 -37 0 -35 -37.5 -37.5 0 0 0 0 0 -39 -39 -39 28.5 -38 -38 0 0 -39 0 0 -39 0 2.66667 -38 0 0 -39 -39 -39 -39 0 -38 0 0 -39 -39 -39 0 0 0 0 0 -40 -40 -40 0 -40 -40 0 -40 -40 0 -40 0 0 -40 0 -40 0 0 -40 0 0 -41 -41 -40 -40 0 -40 0 0 -41 -41 -40 -40 -69 0 -40 0 -41 0 0 0 -41.5 -42 0 -42 -42 -42 -41 -41 0 0 -42 -42 -42 -42 -42 -42 0 -42 -42 0 0 0 -42 -42 0 0 0 0 0 0 0 0 -43 -43 -43 -42 0 -43 0 0 -43 -43 -43 -42 0 0 0 0 0 -43 0 -43 0 0 0 0 0 -43 0 -43 0 0 -44.8 0 -44.8 0 0 0 0 0 0 0 0 0 0 0 0 0 0 0 0 0 0 0 0 0 0 0 0 0 0 0 0 0 0 0 0 0 0 0 0 0 0 0 0 0 0 0 0
0 0 0 0 0 0 -4 -4 -4.57143 -4.57143 -5 -5 -5.5 -5.5 -6 -6 -6.5 -6.5 -6 0 -6.2 -6.2 -6.66667 0 0 -6 -6 -6 0 -7.5 -7.5 -7.16667 -7 -6.5 -7.5 -7.5 -8 0 0 -7.66667 -7.66667 -8 -7 -6.83333 -6.83333 -6.75 -7.5 -7.2 -7.5 -7.5 -8 -8 -8.25 -8.66667 -8.66667 -9 -9 -8.33333 -8.66667 -8.66667 -9 -9 0 0 0 0 0 -9.4 -9.4 0 0 -9.5 -9.33333 -9.75 -9.75 -10 0 -10.4 -9.5 -9.5 -10 -10 -10 -10.5 -10.5 -11 -11 -11.25 0 0 0 -11 -11 -11 0 0 0 -12 -11 -11.4 -11.4 -11.625 -12 -12 -12 -12.5 -12.5 -13 -12.2 -12 -12 -12.5 -12.5 -12.6667 -13 -13 -13 -13 -13 -12 -12 0 -12 -12.5 -12.5 0 -14 -12.5 0 -13.6 -13.6 -14 -14 -14 0 0 0 -14 -14 -14 -14 -14.5 -14.5 -14 -14 0 0 0 0 0 -15 -15 -15 -15 -15 -15.6667 -15.6667 -16 0 0 -15 -15 -15.5 -15.5 -16 0 -16 -16 -16 -16.5 -16.5 -17 -16 -16 -16 -16 -16.5 -16.5 -17 0 0 -17 -17 -17 -17.3333 -17.3333 -18 -16.8 -17 -17 -17 0 -18.3333 -18.3333 -17.6 -17.75 -18 -18 0 0 0 0 -19 -19 -19 -19 -18 -18 0 0 0 0 -19 -19 -19 -19 0 -19.5 -18.25 -18.25 0 -20 -20 -20 -19 -19 -19 -19.2 0 0 0 0 -20.0714 -20 0 -20 -20 -20.3333 -20.5 -20.5 -21 0 0 0 -21 -20 -20 -20 -20.4286 0 0 -21 -21 -21 -21 -21 0 0 0 0 -21.5 0 0 0 -23 -23 0 0 -23 -23 -22 -22 -22 0 -23.6667 -23.6667 -23 -23 -23 -23 -23 0 0 0 -23 0 -23 -23 -22.2 -22.2 -22.6667 0 -24 -24 -23 0 -24 -23 -23 -23 -23 0 -23 -23 0 0 0 0 0 0 0 -25 -25 -25 0 -25 -25 -25 0 0 -25 0 -25 -25.3333 -25.5 -25.6667 -25.6667 0 -26 -26 -26 0 0 0 0 0 0 -26 -26 -25 0 -26 -25 -25 0 -27 -26 -26 0 -27 -26 -26 0 -27 -26.5 -26.5 0 0 -26.4 -26.5 0 0 -26.75 -27 0 -27 -27 -27 0 0 -27 0 -28 0 -28 0 -28 -28 0 0 0 0 0 0 -28 0 -28 -28 0 -28 -28 0 0 -28 0 -29 -28 -28 0 -28 -28 0 0 0 0 0 -29 0 -30 0 -30 -30 -29 0 -30 -29 0 0 0 0 -30 0 -30 -30 -30 0 0 0 -30 -30 0 0 0 -31 -31 -31 -31 -31 -31 -31 0 0 -31.5 0 0 -30.5 -31 -30 -30 -30 -30 -30 -30 0 -31 -31 0 -31 0 0 0 0 0 0 0 0 -32 -32 -32 -32 -32 -32 -32 -32 -32 0 -32 -31 -31 0 0 -33 0 -33 -33 -33 -33 0 -33 0 0 0 0 0 0 -33 0 -33 0 0 0 0 0 -33 -33 -33 0 0 0 0 0 0 0 -34 0 0 -34 0 -34 -34 -34 0 -34 0 0 0 0 0 -35 0 -35 0 0 0 0 0 0 0 0 0 0 0 0 -36 0 0 -35 -35 0 0 0 0 0 0 0 0 -36 0 0 0 0 0 -36 -36 -37 0 -37 0 -37 0 0 0 0 -36 0 -36 0 0 -37 0 0 -36 0 -37 -37 -37 -37 0 -37 0 -37 0 0 0 0 0 -37 0 -37 0 0 -38 -37 -37 -37 -37 -37 -37 0 0 -37.5 0 0 0 0 0 -39 0 -39 -39 -39 -38 0 0 0 0 0 0 0 0 -39 -38 0 0 -39 0 0 0 -40 -39 -39 -39 -39 -39 -39 -39 -39 0 -39 -40 -40 -40 0 0 0 0 -41 -40 -40 -40 -40 0 0 -41 -41 -40 -40 0 -40 0 0 -40 -41 -40 -40 0 0 0 0 -41 -41 -40 -40 -40 0 0 -41 -41 0 0 0 -42 0 0 0 -42 -41 0 0 0 0 -42 -42 -42 -42 -42 -42 -42 0 -42 0 0 0 0 0 -42 -42 0 -43 0 -42 0 0 0 -43 0 0 0 -42 0 0 -43 -43 -43 -42 0 0 0 0 0 0 0 0 0 0 0 -43 0 0 -43 0 0 -37 -44.8 -43.5 0 0 0 0 0 0 0 0 0 0 0 0 0 0 0 0 0 0 0 0 0 0 0 0 0 0 0 0 0 0 0 0 0 0 0 0 0 0 0 0 0 0 0 0 0
0 0 0 0 0 -5 -4.6 -4.5 -4.5 -4.57143 -5 -5 -5.5 -5.5 -6 -6 -6.5 -6.5 0 -6 0 0 0 0 -7 -7 -7 -7 -7 -7.33333 -7.33333 -7.33333 0 -7 -6.66667 -6.66667 0 0 0 0 -7.66667 -8 -7 -7.5 -7.5 -8 -7 -7 -7.5 -7.5 0 -8 -8 0 0 -8 -8 -8.5 -8.5 -9 -9 -9 -9.5 -9.5 -10 -10 -10 -9.4 -9.4 0 -10 -10 -10.5 -10.5 -10.5 -10 -10 0 0 0 0 0 0 -10.6 -10.6 -11 -11 -11.25 -10.5 -10.5 -11 0 0 0 -11.75 -11.75 0 -12 -11 -11.4 -11.4 -12 -12 -12 -12.3333 0 0 -12.5 -12 -11.5 -11.5 -11.5 -12 -12 -12 -12 -11.5 -11.5 -13 -12.5 -12 -12 -12.5 -12.5 -13 -13 0 -13.5 0 0 -13.6 -14 -14 -14 0 -13.5 -13.5 -14 -14 -14 -14 -14.5 -14.5 -15 -14 0 -14 0 0 0 -15 0 -15 -15 -15.4 -15.5 -15.5 -16 0 0 0 0 -15.6667 -15.6667 -16 0 -16 -16 -16 -16.5 -16.5 0 0 0 0 0 -16.6667 -16.6667 -17 0 0 -17 -17 -17 -17.5 -17.5 -18 -17 -17 -17 -17 0 0 0 -18 -17.8333 0 0 0 -17 0 0 -19 -19 -19 -19 -18 -18 33 0 0 0 -19 -19 -19 -19 -19 -18 -18.5 -18.5 0 0 -20 -20 -19 -19 -19 -19.2 0 0 0 0 0 0 0 -20 -20 -20.25 -20.6 -20.6 -21 -20 0 -21 0 -20 -20 -20 -20.4286 0 0 -21 -21 -21 -21 0 0 0 -21 0 -21.6667 -21.6667 0 -23 0 -23 -22.5 0 -23 -23 -22 -22 -22 0 0 -23.6667 -23 -23 0 0 0 -23 -23 -23 -23 0 -23 -23 -22.5 -22.5 0 0 -24 -24 0 0 0 0 0 0 -23 0 -23 -23 0 0 0 0 0 0 0 -25 -25 -25 0 -25 -25 -25 0 0 -25 0 -25 -25 0 -25.6667 -25.6667 -26 -26 -26 -26 0 0 0 0 0 -26 -26 -26 -25 0 -26 -26 0 0 -27 -26 -26 0 -27 0 0 0 -27.5 -27.5 -27 0 0 0 -27 0 -28 -27 -27 0 0 0 0 0 -27 -27 0 -28 0 0 0 0 0 0 0 -28 -28 -28 -28 -28 0 -29 -28 0 0 0 0 -28 0 0 0 -29 -28 0 -28 0 0 0 0 0 0 -29 0 -30 0 -30 -30 -29 0 -29 -29 0 -30 -30 0 -30 0 0 0 0 0 -30 -30 0 0 0 0 -31 -31 -31 -31 -31 0 0 0 0 0 -31.5 -31 -31 0 0 0 0 -30 -30.3333 0 -30 0 0 0 -31 -31 -31 -31 0 -31 0 0 -32 -32 -32 -32 0 -32 -32 -32 -32 -32 -32 0 -32 0 0 -32 0 0 0 0 0 -33 -33 0 -33 0 -33 0 0 0 0 -33 0 -33 0 0 0 0 -33 -33 -33 -33 0 -34 -34 -34 -34 0 -35 0 -35 0 -34 -34 -34 -34 -34 0 -34 0 -34 -34 -34 0 -35 0 0 0 -35 -35 -35 -35 0 -35 0 0 0 0 0 -36 0 0 0 0 0 -35 -35 0 0 -36 0 -36 -36 -36 0 0 -36 -36 -36 0 -37 0 -37 0 -37 0 0 0 0 0 0 0 -37 0 0 0 0 -37 0 0 0 0 0 0 0 0 0 0 0 0 0 0 -37 0 -37 0 0 0 0 0 -37 -37 -37 -37 0 0 -38.3333 -38.3333 0 0 0 0 -38 0 -39 -39 0 0 -38 0 0 -39 -39 0 -39 -39 0 0 0 -39 -39 -39 -39 -39 -39 -39 0 0 -39 -39 -39 -39 -39 0 -39 -40 -40 -40 0 0 0 0 0 -40 -40 -40 -40 0 0 -41 -41 -40 -40 0 -40 0 0 0 0 0 -40 0 0 -41 -41 -41 -41 -40 -40 0 0 0 -41 -41 0 0 0 0 -42 -42 0 -42 -42 -41 -41 0 0 0 0 0 0 0 -42 -42 -42 -42 0 0 -42 -42 -42 -42 0 0 0 0 0 0 0 0 -43 0 0 0 0 0 0 -43 0 0 0 0 -43 -43 -43 0 -43 -43 -43 -43 0 -44 0 0 0 0 0 -39 -37 0 -43.5 -48 0 0 0 0 0 0 0 0 0 0 0 0 0 0 0 0 0 0 0 0 0 0 0 0 0 0 0 0 0 0 0 0 0 0 0 0 0 0 0 0 0 0 0 0
0 0 0 0 0 -5 -4.6 -4.5 -4.5 -5 -5 -5.16667 -5.16667 -5.5 -5.8 -6 -6.42857 -6.42857 0 0 0 0 0 0 -6.5 -5.75 -5.75 0 -7 -7.25 -7.25 -7.5 -7 -6.25 0 -6.66667 0 0 0 0 0 -8 -7 -7.5 -7.5 -8 -7.5 -7.2 -7.5 -7.5 -8 -8 -8.5 -8.5 -8.66667 -9 -9 -8.33333 -8.33333 -9 -9 -9 -9.5 -9.5 -10 -10 -10 0 0 -10 -10 -9.5 -9.33333 -9.33333 -9.75 -10 -10 -10.4 -10.4 -10.75 -10 0 0 -10.6 -10.6 -11 -11 -11.3333 -11 -11 0 0 0 -11.5 -11.5 -11.75 0 0 -11 -11.4 -11.4 -12 0 0 0 -12.5 -12.5 -12.3333 -12.5 -11.5 -11.5 -11.5 -12 -12 -12 -12 -12.5 -12.5 -13 -12.5 -12 -12 -12.6667 -12.6667 -13 -13 0 -13.5 0 0 -13.6667 -14 -14 0 0 0 0 -14 -14 -14 0 -14.5 -14.5 -15 -14 -14 0 -14.75 0 0 -15.5 -15 -15 -15 -15.4 -15.4 -16 -16 -16 -15 -15 0 0 0 -16 0 0 -16 -16.5 -16.5 0 0 0 0 -16 -16 -16.5 -16.5 -17 0 0 -17 -17 -17 -17.5 -17.5 -18 -18 -17 -17 -17 0 -18.5 -18.5 -18 0 -18 0 -18 -18 -17.5 -17.5 0 -19 -19 0 0 -18 -18.3333 -18.5 -18.5 -20 -19 -19 -19 0 -19 -19 -18.6667 -18.6667 0 0 -20 -19 -19 -19 -19 0 0 0 -21.2 -20.0714 -20.0714 -21.2 -20 -20 -20 -20.25 -20.25 -20.6 -21 -20 0 -21 0 0 0 -20 -20.5 -20.5 0 -20.6667 -21 -21 -21 0 0 0 -21 0 -20.5 -20.5 0 -23 -23 -23 -22 -22.3333 0 -23 -22 -22 0 -23.75 -23.75 -24 0 -23 0 0 -23 -23 -23 -23 -23 0 -23 0 0 -23 0 0 0 -24 0 0 0 -23 -23 0 0 -24 -23.25 -23.6667 0 0 0 -25 -24 0 -25 -24 0 0 0 -25 -25 0 0 -25 -25 0 0 0 0 0 -25.6667 -26 -26 -26 -26 -25 0 -26 -26 -25 0 -26 -26 -25 0 -26 -26 -26 0 -27 -27 -26 0 -27 0 0 0 0 0 -27 0 -28 0 -27 0 -28 -27 0 0 -27 -27 -27 0 0 -27 0 -27 -27 0 0 -28 -28 0 0 0 0 -28 0 0 -28.5 -28 -28 0 -28 0 0 0 -28 0 0 -28 -28 0 -28 -28 0 0 0 0 -29 -29 0 -30 0 -30 -30 0 0 0 0 0 -30 -30 0 -30 -30 -30 -30 -29 0 -30 0 0 -30 0 -31 -31 -31 -31 -31 -31 0 0 0 0 0 -31.5 -31 -31 0 -31 -31 0 -30 -30 0 -30 0 -30 0 -31 0 0 0 0 -31 0 0 -32 0 -32 -32 0 0 0 0 0 -32 -32 0 -32 0 -31 0 0 0 0 0 0 -33 -33 -33 -33 0 -33 -33 -33 -33 0 -33 0 0 0 0 -33 0 0 0 0 0 0 0 -34 0 -34 0 -35 0 -35 0 -35 -34 -34 0 0 0 -34 0 -34 0 -34 0 -35 0 0 0 0 0 -35 -35 0 0 0 0 0 -36 0 -36 0 0 -35 -35 -35 -35 0 0 0 0 0 -36 0 -36 0 0 0 0 0 0 -37 0 0 0 -37 0 0 0 0 0 0 0 -36 0 -37 -37 0 -37 -36 0 0 0 0 0 0 0 0 -38 -37 0 0 -38 0 -37 0 -38 -38 0 -38 0 0 0 -38 0 -38 -37 -38 -37 0 0 0 0 0 0 0 -39 0 -39 -38 0 -38 0 0 0 0 0 0 0 -38 0 -39 0 0 -39 0 0 0 -39 0 0 0 -39 -39 0 -39 -39 0 -40 -40 0 0 0 -41 0 0 -40 33.5 0 0 0 0 -40 -40 0 -40 0 0 0 0 0 -40 0 0 -41 -41 0 -41 -40 -40 -41 0 0 -41 -41 0 0 38 0 -42 -42 0 -42 -42 0 0 -42 0 0 -42 0 0 -42 -42 -42 -42 -42 0 0 -42 -42 -42 -42 -42 -43 -43 -42 -42 0 0 0 0 0 0 0 -43 -43 0 -43 0 -43 0 0 0 0 -43 0 0 -43 -43 -43 0 -44 0 0 0 0 0 0 -38 -40.6667 -43.3333 -44.3333 0 0 0 0 0 0 0 0 0 0 0 0 0 0 0 0 0 0 0 0 0 0 0 0 0 0 0 0 0 0 0 0 0 0 0 0 0 0 0 0 0 0 0 0
0 0 0 0 0 -5 -4 -4.5 -4.5 -5 0 0 0 0 -6 -6.33333 -6.66667 -6.66667 -7 -5.5 -5.5 -5.5 -6 -6.33333 -6.5 -6.5 0 0 0 0 0 -8 -7 -6.25 -6.25 0 -7.33333 0 -7.2 -7.2 0 -8 -8 0 0 0 -7.5 -7.2 -7.2 -7.66667 0 -8 -8.25 -8.25 -8.66667 -9 -9 -8.33333 -8.33333 -8.66667 0 0 -9.5 -9.5 -10 -10 -10 -10.5 -10.5 -10 -10 -9.5 -9.33333 -9.33333 -10 -10 0 -10.5 -10.5 0 0 0 -10.5 -10.5 -11 -11 -11 -11.25 -10.5 -10.5 -11 0 0 -11.5 -11.5 -12 -12 -12 -12.3333 -11.5 -11.5 -12 -12 -12 -12.5 -12.5 0 0 0 -11 -11.5 -11.5 -12 -12 -12 -12 -12.5 -12.5 -12.25 -12 -12 -12.25 -12.5 -12.6667 -13 -13 -13 0 0 0 0 -14 -14 0 -14.5 -14.5 -15 -14 -14 0 0 -14.5 -14.5 -15 -14 -14 -14 -14.75 -14.75 0 0 -15 -15 -15 -15.4 -15.4 -16 -16 -16 -16 -15 0 0 0 -16 0 0 -16 -16.5 -16.5 -17 -17 -17 -17 -16 -16 -16.6667 -16.6667 -17 0 -17 -17 -17 0 0 0 -18 -18 -17 -17 -17 0 0 -18 -18 -18 0 0 -18 0 -18.1667 -18.1667 0 -19 -19 -19 0 -18 -18.3333 -18.3333 0 -20 -19 0 -19 -19 0 -19.5 -19.5 -18.6667 -20 -20 0 -20 -19 -19 -19 -19.2 -19.2 0 -21.2 -20.0714 -20.0714 -21.2 -20 -20 -20 -20.3333 -20.3333 -20.5 -20.6667 -20 0 0 -21 -21 0 -20 -20.4286 -20.4286 0 -22 -21 -21 -21 -21 -21 -21 -21 -21 -21.5 -21.5 0 -23 -23 -23 0 0 0 -23 -22 -22 -22.3333 0 0 -24 0 0 0 0 -23 -23 -23 -23 -23 0 -23 -23.5 -23.5 -23 0 0 0 0 0 0 0 -24 -23 -23 0 -24 -23 -23.5 -23.5 0 -25 -25 -24 -24 0 0 0 -25 0 -25 -25 -25 -25 -25 -25 -25 -25 -25.3333 -25.3333 -25.5 -25.6667 -26 -26 -26 -26 -25 0 -26 -26 -26 0 -26 -26 -25 0 -26 0 0 0 -27 -27 -26 0 -27 -26 -26.6667 -26.6667 0 -28 -27 0 -28 -27 -27 0 -28 -27 -27 0 -27 -27 -27 0 -27 -27 0 -27 -27 0 -28 -28 -28 0 -28 -28 0 -28 -28 -28 0 -28.5 0 -29 -28 -28 0 -28 -28 0 -29 0 0 0 -28 0 -29 0 -29 0 0 0 0 -30 0 0 -30 -29 0 -30 -29 0 -30 -30 0 -30 -30 -30 -30 -30 0 -30 -29 0 -30 0 -31 -31 -31 -31 -31 -31 -31 -31 -31 0 0 -31.5 -31 0 0 -31 -31 -31 -31 -30.3333 0 -30 0 -30 0 -31 0 0 0 0 0 -32 -32 -32 0 -32 -31 0 -32 -32 -32 0 0 0 0 -32 0 0 0 0 -32 0 -33 -33 -33 -33 -33 -33 0 0 0 0 0 0 -33 0 0 0 0 -33 0 0 0 0 0 0 0 -34 0 -34 0 -35 0 -35 0 -35 -34 -34 -34 -34 0 -34 0 -34 0 0 0 0 0 -35 0 0 -35 -35 -35 0 -35 0 -35 0 -36 0 0 0 0 0 -35 -35 -35 0 0 0 0 0 0 -36 -36 0 0 -36 0 -36 0 -37 -37 -37 -37 -37 0 -37 -36 0 -36 0 0 0 0 0 0 0 0 -36 0 0 0 0 0 0 0 0 -38 -38 0 0 -37 0 -37 0 -38 -38 0 -38 0 0 0 0 0 0 -37 -38.3333 -37 -37 0 -38 0 0 -39 0 0 -39 -39 0 -39 0 0 0 0 0 0 0 -38 0 -39 0 0 0 -39 -39 0 -39 -39 0 0 -39 -39 0 0 0 0 0 -39.5 0 0 -40 -40 0 0 0 -40 -40 -40 -40 -40 0 -40 -40 -40 -40 0 0 0 -41 -40 -40 0 0 -40 0 0 -41 0 0 0 0 0 -41 -41 0 0 0 -41.5 0 -42 -42 0 0 0 0 -42 -42 -42 -42 0 -42 -42 0 0 0 -42 0 0 -42 -42 0 -42 -42.5 -42.5 -43 -42 -42 0 0 -43 -43 -43 0 0 0 -43 -43 -43 0 -44 -43 0 -43 0 -43 0 0 -43 -43 0 0 0 -33 0 0 -43 0 0 0 0 -44 -45 0 -53 0 0 0 0 0 0 0 0 0 0 0 0 0 0 0 0 0 0 0 0 0 0 0 0 0 0 0 0 0 0 0 0 0 0 0 0 0 0 0 0 0 0
0 0 0 0 0 -5 -4.33333 -4.66667 -4.66667 0 0 0 0 0 -6 -6.6 -6.6 -7 -7 -7 -6.5 -6.5 -6 0 0 0 -7 0 0 0 0 -8 0 -7 -7 -7 -7 -7.33333 -7.5 -7.5 -8.5 -8 -7.83333 -6.5 -6.5 -7 -7 -7.5 -7.5 -8 -8 -8 0 0 -8.66667 0 -8.5 -8.5 -8.5 -8.66667 0 0 0 0 0 0 0 -10.5 -10.5 0 -10 -10 -10.5 -10.5 -10.5 -10 -10 -10.5 -10.5 0 0 0 -10.5 -10.5 -11 -11 -11 -11.25 -10.6667 -10.6667 -11 0 0 0 0 -11.75 -12 -12 -12.5 -12.5 -12 -12 -12 0 -12.3333 -12.3333 -12.6667 -12.3333 -12 -11 -11.5 -11.5 -12 -12 -12 -12.3333 -12.25 -12.25 -12.25 -12 -12 -12.25 -12.5 -12.5 -13 -13 0 -13 -13.5 -13.5 -14 -14 -14 0 0 0 -15 -14 -14 -14 -14.5 -14.5 -15 -15 -14 -14 0 -14.5 -14.5 0 -15.5 0 -15 -15 -15.3333 -15.3333 -15.6667 0 0 0 0 0 0 -15.6667 0 0 -16 -16 -16.5 -16.5 -17 -17 -17 0 -16 0 0 -16.6667 -17 0 -17 -17 -17 0 0 0 0 -17 -17 -17 -17 0 0 -18 -18 -18 -18 -18 0 0 0 -18.1667 0 -19 -19 -19 -19 -18.3333 -18.6667 -18.6667 -19 0 -19 -19 -19 -19 -19.2 -19.5 -19.5 -20 -20 -20 -20 -20 -19 -19 0 0 0 0 -21.5 -19.75 -20.5 -21.5 0 0 -20 -20.3333 -20.3333 0 -21 0 0 -21 -21 -20 -20 -20 -20.4286 -20.4286 0 -22 -21 -21 -21 0 0 0 -21 0 0 -21.5 0 -23 -23 -23 0 0 0 0 -22 -22 -22.3333 -22.3333 0 -24 -24 -23 -23 -23 0 -23 -23 -23 -23 0 -23.5 -23.5 -24 -23.6667 -23.6667 0 -24 -24 -23 0 -24 0 0 0 0 0 -23.25 -23.5 -23.5 0 -25 -25 -24 -24 0 0 0 0 0 0 0 -25 0 -26 -25.5 -25.5 -25.5 0 0 -26 0 0 -26 -26 -26 0 0 0 0 0 -26 -26 -26 -25 0 -26 -26 -26 0 0 -27 -26 0 -27 -27.5 -27.5 -26.6667 0 -28 -27 0 -28 -28 -27 0 -28 -27 0 0 0 0 -27 0 -27 0 0 0 0 0 -28 0 -28 0 -28 -28 0 -28 -28 0 0 0 0 0 -28 -28 0 -29 -28 0 -28 -28 0 -29 -28 0 -29 0 0 -29 -29 0 0 0 0 0 -30 -29 0 -30 0 0 0 0 0 0 0 0 -30 0 0 -30 -30 0 -30 0 -31 -31 0 0 0 0 -31 -31 -31 0 0 -31.5 -31 -31 0 0 0 0 0 0 0 -30 0 0 0 0 0 -31 -31 0 0 -32 0 -32 0 -32 -32 0 -32 -32 -32 0 -32 0 -33 -32 0 -32 0 0 0 0 0 0 0 0 -33 -33 0 -33 0 -33 -33 0 -33.3333 0 0 0 0 -33 -33 -33 0 -33.5 -33 0 0 -34 0 -35 0 0 0 0 0 0 -34 -34 0 0 0 -34 0 -34 0 -34 0 -35 0 -35 0 0 -35 -35 -35 0 -35 0 0 -36 -36 -36 -36 -36 -36 0 0 0 0 0 0 0 -36 0 -36 0 0 0 0 0 -36 -36 0 -37 -37 0 0 0 -37 0 0 -36 0 0 -37 0 0 -37 -37 0 -37 -36 0 0 0 -37 -38 -38 -38 0 -38 -38 0 0 0 0 0 0 -38 -38 0 -38 -37 -37 0 -38 0 -38 -37 -38 -37 -38 0 0 0 0 -39 0 0 0 0 0 -39 0 0 0 0 -39 0 -39 0 0 0 0 -39 -39 0 0 -40 -38 0 -39 -39 0 -39 0 0 0 0 -40 -40 0 0 -40 -40 -40 -39 0 -40 -40 0 -40 -40 -40 -40 -40 -40 0 0 0 0 0 0 0 0 -40 0 0 0 0 -40 -40 -69 0 -40 -40 0 -41 0 0 -41.5 -42 -42 -42 -42 -42 -41 -41 -42 -42 0 0 -42 0 -42 -42 -42 -42 0 -43 0 0 0 0 -42 0 -43 -43 0 -42 0 0 0 -43 -43 0 -42 0 0 -43 0 0 -44 -43 0 -43 -43 0 -43 43.25 0 -43 0 0 0 0 -44 -43 0 0 -37 -41 -40.6667 0 0 0 0 0 0 0 0 0 0 0 0 0 0 0 0 0 0 0 0 0 0 0 0 0 0 0 0 0 0 0 0 0 0 0 0 0 0 0 0 0 0 0 0 0 0
0 0 0 0 0 -5 -4 -4.5 -4.5 -5 -5 -5.5 -5.5 -6 -6 -6.33333 -6.33333 -6.66667 -7 -7 -5.6 -5.6 -6 -6.25 -6.5 -6.5 -7 0 0 0 0 -8 0 -7 -7 0 -7 -7.5 0 0 -8.5 -8 -7.83333 -7.83333 -8 -7 -7 -7.66667 -7.66667 -8 -8 -8 -8.75 -8.75 -9 -9 -8.5 -8.5 -8.5 -9 -9 -9 -9.5 -9.5 -10 -10 -10 -9.5 -9.5 0 -10 -10 -10 -10 -10.5 -10 -10 0 0 0 -10 0 0 0 -10.6 -11 -11 -11.25 -11.25 -10.6667 -11 -11 -11 -11.5 -11.5 0 0 -12 -12.5 -12.5 -12 -12 -12 0 0 0 0 0 -12 -11 -11.5 -11.5 -12 -12 -12 -12.5 0 0 0 -12 -12 -12.5 -12.5 -13 -13 0 -13.5 -13 -13.6667 -13.6667 -14 -14 0 -14.25 -14.6667 -14.6667 -15 -14 -14 -14.3333 -14.5 -14.5 -15 0 0 0 0 0 0 0 -15.5 0 -15.5 -15.4286 -15.6667 -15.6667 -16 -16 -16 -16 -15 -15.75 -15.75 -16 -16 -16 0 -16 -16.5 -16.5 0 -17 0 -17 0 0 0 -16.6667 -17 0 -18 -17 -17 0 0 0 0 -17 -17 -17 -17 0 0 -18 -18 -18 -18 -18 -18 -18.5 -18.5 -18 0 -19 -19 -19 -19 0 0 0 0 0 -19 -19 -19 -19 -19.2 -19.6667 -19.6667 0 0 -20 0 -20 -19 -19.3333 -19.6 -19.6 -20.3333 0 -21 0 -20.1 -23 -20 -20 0 0 -21 -21 -21 -20 0 -21 -21 -20 0 0 0 -20.4286 0 -22 -21 -21 -21 0 -21 -22 -21 0 0 -21.6667 0 -23 -23 -23 -22 -22.3333 0 -23 -22 -22 0 0 -23.75 -24 -23 -23 -23 -23 -23 -23 -23 -23 -23 0 -23.5 -23.5 0 0 0 0 -24 -24 -23 -23 0 -24 -23 0 -24 0 -23.25 -23.25 -23.6667 -24 0 -24 -24 -24 0 0 0 -25 -25 -25 -25 -25 -25 -26 -25.3333 -25 -25.5 -25.5 0 -26 -26 -26 0 -26 -26 -25 0 -26 -26 -26 0 0 -26 -25 0 0 0 0 0 0 -26 0 -26.5 0 0 -28 -27 -28 0 0 0 -28 -28 -27 0 -28 0 0 -28 0 0 0 0 -27 -27 0 -27 -27 0 -28 0 0 0 0 -28 0 -28 -28 0 0 0 0 0 0 -28 0 -29 -28 0 -28 -28 0 -29 -28 0 -29 -28 0 0 -30 -29 0 -30 0 -30 0 0 0 0 -30 0 -30 -30 0 0 0 0 0 0 0 -30 0 0 -30 -30 0 0 -31 -31 0 0 -31 -31 -31 0 0 -31.5 -31 -31 0 0 0 0 0 0 0 -30 0 -30 0 0 -31 -31 0 0 0 -32 0 -32 0 -32 -32 0 -32 -32 -32 0 -32 0 0 -32 0 -32 0 0 0 0 0 0 -33 -33 -33 -33 0 -33 0 -33 0 0 0 0 -33 0 -34 -34 0 -33 0 -33 0 0 0 -34 0 -34 0 -35 -35 -35 0 -35 0 0 -34 -34 0 -34 -34 -34 0 -34 0 -35 0 -35 0 -35 -35 -35 -35 0 0 0 0 0 0 0 0 -36 -36 -36 -35 -35 -35 -35 0 0 -36 0 -36 0 -36 0 0 0 0 -36 0 -37 -37 0 -37 0 0 0 0 -36 0 0 -37 0 -37 0 -37 -37 -37 0 -36.5 -36.5 0 0 0 0 0 0 0 0 -38 0 0 0 -37 0 -38 -38 0 -38 -37 -37 0 -38 -38 -34 -37 -38.5 -38.5 0 0 0 0 0 0 0 -39 -39 -39 0 -39 0 0 -39 0 0 0 0 -39 0 0 0 -39 -39 -39 -39 0 -38 0 0 0 0 -39 0 0 0 0 0 0 0 0 0 0 0 0 -40 -40 33.5 -40 0 -40 -40 0 -40 0 -40 0 -41 -41 0 -39 0 0 -41 -40 0 0 -41 0 0 0 0 0 0 0 0 0 0 -41 0 0 0 -42 -42 0 -41 0 0 -42 -42 0 0 -42 0 0 0 -42 0 -42 0 0 0 -42 0 -43 -43 0 -42 -42 0 0 -43 -43 -43 -42 -42 0 -43 0 0 -44 0 0 -43 -43 -43 -43 -35 -43 -43 -43 0 0 0 0 -43 0 0 -37 -41 -44.75 -43.3333 -18.25 0 0 0 0 0 0 0 0 0 0 0 0 0 0 0 0 0 0 0 0 0 0 0 0 0 0 0 0 0 0 0 0 0 0 0 0 0 0 0 0 0 0 0 0
0 0 0 0 0 -5 -4 -4.5 -4.5 -5 -5 -5.5 -5.5 -6 0 0 0 0 0 -5.33333 -5.6 -5.6 -6 -6.25 -6.5 -6.5 -7 -7 -7.5 -7.5 -8 0 0 -7.5 -7.5 -7.5 -7.5 -7 0 0 -8.5 -7.5 -7.5 -7.5 0 0 0 0 0 -8 -8 -8.25 -8.5 -8.75 -9 -9 -9.33333 0 0 -9 -9 -9.5 -9.5 -10 -10 -10 -10.5 -10.5 -9.5 -9 -9 0 0 0 -9.75 -10 -10.3333 -10.4 -10.4 -10.75 -10 -10 -10.5 -10.5 -11 -11 -11 -11.3333 -11.3333 -11 -11 -11 -11 -11.5 -11.5 -12 -12 -12 -12.3333 -12.3333 -13 -12 -12 -12 -12.5 -12.5 0 0 0 0 0 0 -12 -12 -12 -12.3333 -12.5 0 0 -12 -12 -12.25 -12.25 0 -13 -13 -13 0 0 0 0 0 0 -14.25 0 0 0 -14 -14 -14.3333 -14.5 -14.5 -15 0 0 0 0 0 0 0 -15.5 -16 -15.5 -15.4286 -15.4286 -16 0 0 -16 -16.3333 0 0 -16 -16 -16 -16 -17.25 -16 -16.5 -16.5 -17 -17 -17 -17 -17 -16.5 -16.5 -17 -17 -17 0 -17 -17 -17.5 -17.5 0 0 0 0 0 -17 0 0 0 0 0 0 0 0 0 0 -18 0 -19 -19 -19 0 0 0 0 0 0 0 0 -19 -19 -19.2 0 0 0 0 0 -20 -20 -19 0 -19.6 -19.6 -20 0 -21 0 0 -23 0 -19 0 0 -21 -21 -21 -20 -20 -20 0 0 -20 -20.6 0 0 0 0 -21 -21 -21 0 -21 -21 0 0 0 -22 0 -22 0 0 -22 0 -23 0 -22 -22.5 -22.5 0 -23.75 -24 -23 -23 -23 -23 0 0 0 -23 -23 0 -23.5 -23.5 0 0 0 0 -24 -24 -23 -23 0 -24 -23 0 -24 -24.3333 0 0 0 0 0 -25 -24 -24 0 0 -25 -25 0 -25 -25 -25 -25 0 -25 -25.5 -25.5 -26 0 -26 -26 -26 -26 -26 -26 -26 0 -26 -26 0 0 0 -26 -25 0 -26 -25 -25 -25 0 -26 0 0 0 0 0 0 0 -28 -27 0 -28 -28 -27 0 -28 -27 -27 0 -27 -27 -27 0 -27 0 0 -28 -27 0 -28 0 0 0 0 -28 0 -28 -28 0 0 0 -28 0 -28 -28 0 -28 -28 0 -29 -28 0 -29 -28 0 -29 -28 0 -29 -29 -28.5 0 0 0 0 0 -29 0 0 -30.5 0 -30 -30 0 -30 -30 0 0 0 0 -30 -30 0 -30 -30 0 0 -31 -31 0 -32 -31 -31 -31 0 0 -31.5 -31 0 0 -31 -31 -31 0 0 -30.3333 0 0 0 0 0 -31 -31 -31 0 0 -32 0 -32 0 0 0 0 0 0 0 0 -32 0 -33 -32 0 0 0 0 -32 0 -33 -33 0 0 0 -33 0 0 0 -33 -33 0 -33.3333 0 -33 0 -34 -34 0 -33 -33 -33 -33 0 0 0 0 -34 0 -35 -35 -35 0 -35 0 0 0 0 0 0 -34 0 -35 -34 0 -35 -35 0 0 -35 0 0 0 0 0 0 0 -36 0 -36 -36 0 0 0 0 0 -35 -35 0 0 -36 0 -36 0 -36 0 0 0 0 0 0 0 0 0 -37 -37 -37 -37 0 -36 0 0 -37 0 -37 0 -37 0 0 0 0 0 -37 0 -38 0 0 0 0 0 -37 0 0 -38 -38 -38 0 -38 0 0 0 -37 0 -38 -38 0 -38 0 0 0 0 0 0 0 0 0 0 -39 0 0 -39 -39 -39 -39 -39 -39 -39 0 -39 0 -39 0 -39 -39 -39 -39 0 -38 0 0 0 0 0 0 0 0 0 -40 -40 -40 -40 0 0 -41 -40 -40 -40 0 0 0 0 0 -40 0 0 0 0 0 0 0 0 0 0 0 0 0 -41 0 0 0 0 0 0 -40 0 0 0 0 -41 0 0 0 -42 -42 0 -41 0 0 -42 -42 0 0 0 0 0 0 0 0 0 0 -42 0 0 -42 -43 -43 0 0 0 0 0 -43 0 0 -42 0 0 -43 -56.5 0 0 -43 0 -43 -43 -43 -43 -43 -43 -43 -43 0 0 -43 0 0 0 0 0 -44 -45.5 -44 -37 -45.5 -47 0 0 0 0 0 0 0 0 0 0 0 0 0 0 0 0 0 0 0 0 0 0 0 0 0 0 0 0 0 0 0 0 0 0 0 0 0 0 0 0 0 0
0 0 0 0 0 -5 -4.33333 -4.33333 -4.66667 0 0 0 0 -6 -6 -6.6 -6.6 -7 -7 -5.33333 -5.33333 -5.6 -6 -6 -6.5 -6.5 -7 -7 -7.5 -7.5 0 0 0 -7.5 -7.5 -8 -7.5 -7.33333 -7.33333 -8 -8 -7.5 0 0 0 0 -7 0 0 -8 -8 -8.25 -8.5 -8.5 -9 -9 -9.5 -9.5 -9 -9 -9 -9.5 -9.5 -10 -9.5 -10 -9.5 -9.5 -9 0 -9 -9.5 -9.5 -10 -10 -10 -10.5 -10.5 -11 -11 -10 -10.3333 -10.5 -10.5 -11 -11 -11 -11.25 -11.25 -12 -12 -11 0 0 0 -12 -12 -12 -12.5 -12.5 -13 -12 -12 -12 -12.5 -12.5 0 0 0 -12.5 -12.5 -12 -12 -12 -12 -12.3333 -12.3333 0 -13 0 0 0 0 -12.5 -13 -13 -13 0 0 -13 0 -14 -14 0 0 0 0 -14 -14 -14 -14.5 -14.5 -15 -15 -15 -14 0 0 0 0 0 -15 -15 -15.5 -15.5 -16 -16 -16 0 -16.3333 -15.6667 -15.6667 -16 -16 -16 -16 0 -16.5 -16.5 -17 -17 -17 -17 -17 -17.3333 -16.6667 -16.6667 -17 -17 -17 0 0 -17.6 -17.6 0 -18 0 0 0 -17 -17.5 -17.5 0 -19 -18 -18 -18 -18 -18 -18.5 -18.5 -18 0 -19 -19 -19 -19 -18.3333 -18.3333 -18.6667 -19 0 -20 0 -19 -19 -19.5 -19.5 -20 -19 0 -20 0 0 0 -19 -19.5 -19.5 -20 -21 -21 -20.1 -20.1 -23 -20 -20 0 0 -21 -21 -21 -20 -20 0 0 -21 0 -20.6 -20.6 -21 0 -22 0 -21 -21 0 -21 -21 -21.5 -21.5 -22 -22 -21 0 -22 -22 -22 0 -23 -23 -22 -22.5 -22.5 -23 0 -24 -23 -23 -23 -23 -23 -23 0 0 0 0 0 -24 -24 -24 -23.6667 0 -24 -24 -23 -23 -24 0 0 0 0 -24.3333 -24.3333 0 0 0 0 -25 -24 -24 0 0 -25 -25 0 -25 -25 -25 -25 0 -25 -25.5 -25.5 -26 -26 -26 -26 -26 -26 -26 -26 -26 0 0 0 -26 0 -26 0 -25 0 0 -26 -25 0 0 -26 0 0 0 0 0 0 0 -28 -27 -27 0 0 0 0 -28 -27 -27 0 -27 -27 -27 0 0 0 0 -28 -27 0 -28 -27 -27 0 -28 0 0 0 -28 -28 0 0 0 0 0 -28 0 -28 -28 0 -29 0 0 0 0 0 0 -28 0 -29 0 0 0 0 -29 0 -30 -29 -29 0 -30 0 -30 -30 0 -30 -30 0 -30 -30 0 0 0 0 -30 0 0 0 0 0 -31 0 -31 -31 -31 0 0 0 0 -31 -31.5 -31 -31 0 -31 -31 0 0 0 0 0 0 0 -31 -31 0 0 0 0 -32 0 -32 -32 0 -32 -32 0 0 -32 0 -33 -32 0 -32 0 -33 -32 0 -33 -33 0 0 0 0 0 -33 0 0 -33 -33 -33 0 -33 0 0 0 -33 -33 -33 -33 0 -33 0 -34 0 0 0 0 0 0 0 -35 -35 -34 -34 -34 -34 0 -35 0 0 -34 0 0 0 -35 -35 -35 0 0 -35 -35 0 -36 0 -36 0 -36 -36 -36 0 0 -35 0 0 0 0 0 -36 -36 -36 -36 -36 -36 -36 0 0 -36 -37 0 0 0 -37 -37 -37 -37 -37 -36 0 0 0 0 0 0 0 0 -37 -37 -37 0 -37 0 -38 0 0 -38 0 -38 -37 0 -37 0 -38 -38 -38 -38 0 -38 0 0 0 0 -38 -34 -39 0 -39 0 0 0 0 0 -39 -39 0 -39 0 -39 0 -39 -39 0 0 0 0 0 0 0 -39 -39 -39 -39 0 0 0 0 0 -39 -39 0 0 0 -39 0 0 0 0 0 0 0 0 0 -40 -40 -40 0 -40 0 0 -41 0 0 0 0 0 0 -41 -41 -41 -40 -40 0 0 -41 0 0 -40 0 0 -41 -41 0 0 0 0 -41 0 0 0 0 0 0 0 0 0 0 0 0 0 0 -42 0 0 0 0 -42 0 0 0 0 0 -42 0 -43 0 0 0 0 0 0 -43 -43 0 0 -43 0 -44 0 -43 -43 0 -43 -43 0 -43 -43 0 0 0 0 0 -67 0 -43 0 0 0 -44 0 -44 -44.8 -44.75 0 0 0 0 0 0 0 0 0 0 0 0 0 0 0 0 0 0 0 0 0 0 0 0 0 0 0 0 0 0 0 0 0 0 0 0 0 0 0 0 0 0 0
0 0 0 0 0 -5 -4.6 -4.6 -4.6 -5 -5 -5.5 -5.5 -6 -6 -6.33333 -6.6 -7 -7 -5.5 -5.5 -6 -6 0 -6.5 -6.5 -7 -7 -7.5 -7.5 -8 -8 -7 -7.5 -7.5 -8 -7.5 -7.5 -7.5 -8 -7.5 -7 0 0 0 0 0 0 0 -8 -8 -8.5 -8.5 -9 -9 -9 -9.33333 -9.33333 0 0 0 0 0 -10 -10 -10 -10 -10 -9 0 0 0 0 0 0 0 -10.5 -10.5 -11 -11 -10 -10.3333 -10.75 -10.75 -11 -11 0 -11.5 -11.5 -11.5 -11.5 -11 -11.5 -11.5 -12 -12 -12 0 0 0 0 -11 -11 -11.5 -11.5 -12 -12 -12.3333 -12 -12.5 -12.5 -12 -12 -12 -12 -12.3333 -12.3333 -13 -13 -13 -12 0 0 -13 -13 -13 -13 0 0 0 0 0 -14 0 0 0 0 0 -14 -14 -14.5 -14.5 -15 -15 -15 -14 0 0 -15 0 -15 -15 -15 -15.4286 -15.4286 -15.6667 0 0 -16 -16.3333 -15.6667 -15.6667 -16 -16 -16 0 0 -16.5 -16.5 0 0 0 0 0 -16.6667 -16.6667 -17 -17 -17 -17 0 0 -17.6 -17.6 -18 -18 0 -18 -17 -17 -17.5 -17.5 0 -18.5 -18.5 -18 0 -18 -18.75 -18.75 -19 0 0 0 -19 -19 -19.5 0 0 -19 -19 0 -20 -19 -19 -19 -19.2 -19.2 0 0 0 0 -20 -20 -19 -19.3333 -19.3333 -19.6 -20 0 -21 -20.1 -20.1 -23 -20 -20 0 0 -21 -21 -21 -21 0 0 0 -21 0 0 -21 -21 0 -22 -21 -21 0 -21 0 -21.3333 0 0 -22 -22 0 0 0 -22 -22 -21 0 -22.25 0 0 0 -23 -23 0 -23 -23 -23 0 -23.5 -23 0 0 0 0 0 0 -24 -24 -24 0 -24 -24 -23 -23 0 0 -24 -23 0 -24.5 -24.5 -24 -23.6667 -24 0 -25 -24 -24 0 0 0 -25 0 -25 -25 -25 -25 0 -25.3333 -25.3333 -26 0 0 0 0 0 0 -26 -26 -26 0 -26 -26 0 0 0 -26 -25 0 -26 -26 0 0 0 -26 0 0 -26.5 0 -27 -27 0 -28 -27 -27 0 -28 -27 0 -28 -27 -27 0 -27 -27 -27 0 -28 0 0 -28 -27 0 -28 -27 -27 0 -28 -28 0 0 0 -28 0 0 0 -29 -28 -28 -28.3333 0 0 0 -29 -28 0 0 0 0 0 -28 0 -29 -29 -29 0 -30 -29 0 -30 -29 -29 0 0 0 0 0 0 0 0 0 0 0 -29 0 0 0 -30 -30 -30 0 0 0 0 -32 -31 -31 0 -31 0 -31.5 0 -31 0 0 0 0 -31 -31 0 0 0 0 0 -31 0 -31 0 -32 -31 -32 0 -32 -32 0 -32 -32 -32 -32 -32 0 -32 0 0 0 0 0 0 -33 -32 0 -33 -33 0 0 0 0 0 0 0 0 -33 0 0 0 -33 0 -34 -34 0 0 -33 0 0 -33 0 0 0 0 0 0 0 0 0 0 -35 -35 -34 -34 -34 0 -35 -34 0 -34 0 -35 -35 -35 -35 -35 -35 0 -35 -35 0 -36 0 0 0 0 0 -36 -36 -36 0 0 -35 0 -36 -36 -36 0 0 0 0 -36 -36 0 -37 0 -37 -37 -37 -37 0 0 0 0 0 0 0 0 0 0 0 -37 -37 0 -37 -37 -36 0 -37 0 0 0 -38 -38 0 0 -37 0 0 0 0 0 0 -38 0 -38 0 0 0 0 0 -34 -37 -38 -37 0 0 0 0 0 0 0 0 -39 0 0 0 -39 -39 -39 -39 0 0 0 0 0 -39 -39 -39 -39 0 0 -40 0 -39 -39 0 0 -39 0 0 0 0 -40 -40 -40 -40 -40 0 -41 0 0 -40 0 0 0 0 -41 -41 -40 0 0 0 -41 -41 0 -41 0 0 0 0 0 0 0 -41 0 0 -41 -41 0 0 0 0 0 0 0 0 0 0 0 0 -42 0 -42 -42 0 0 0 0 0 0 0 0 0 -43 -42 -42 -42 0 -42 0 -43 0 -42 0 -43 0 -43 -43 -43 0 0 -43 0 -43 0 0 0 0 0 0 0 0 -44 0 0 -44 -44 -44 0 0 -43.5 0 0 0 0 -44 -44.5 0 0 0 0 0 0 0 0 0 0 0 0 0 0 0 0 0 0 0 0 0 0 0 0 0 0 0 0 0 0 0 0 0 0 0 0 0 0 0 0 0 0 0 0 0
0 0 0 0 0 -5 -5 -5 -5 -5.2 -5.5 -5.5 0 -6 -6 -6.33333 -6.33333 -7 -7 -7.5 -7.5 -6.5 -6 -6.25 -6.25 0 -7 0 0 0 -8 -8 0 0 -8 -7.5 -7 -7.5 -7.5 0 -8.5 -7.5 -7.5 -7.5 0 0 0 0 -7.66667 -8.5 0 -8.5 -8.5 -8.75 -9 -9 -9.5 -9.5 -9 -9 0 0 0 -10 -10 -10.4 -10 -10 -9 -10 -10 -9.5 -9.5 -10 -10 -10 -10.5 -10.5 -11 -10 -10 -10.5 -10.5 -11 -11 -11 -11.4 -11.75 -11.75 -11.5 -11 -11 -11.6 -11.6 -12 -11.5 -11 0 -11.5 -11.5 0 0 -11 -11.6667 -11.6667 -12 -12 0 -12 -12.5 -12.5 -12 -12 -12 -12 -12.5 -12.5 0 0 0 -12 -12.5 -12.5 -13 -13 -13 -13.5 0 0 -13.6667 0 0 0 -14.25 -14.25 -14.6667 -15 -14 -14 -14.3333 -14.3333 -15 -15 -15 -15 0 -14.5 -14.5 -15 -15 -15.5 0 -15.5 -15.4286 -15.4286 -16 0 0 -16 0 0 0 -15.75 -16 -16 -16 0 -17.25 -17.25 -17 -17 -17 -17 -17 -16.3333 -16.6667 -17 0 -17 -17 0 -17 -17.6 -17.6 -18 -18 -18 -18 -17 -17.4 0 0 0 -19 0 0 0 0 0 0 0 -18 -18 0 -19 -19 -19 -18.6667 -18.6667 -19 -19 -19 0 -19 -19 0 -19.5 -19.5 -19.6667 -19 0 -20 0 0 0 0 0 0 -20 0 -21 0 -20.5 -23 0 -20.5 -20.5 0 -21 -21 -21 -20 0 0 0 -21 0 0 -20.6 -21 0 -22 -21 -21 -21 -21 0 -21.3333 -21.6667 -21.6667 -22 -22 -21 0 -22 -22 0 0 0 -22.25 0 0 -23 -23 -23 0 0 0 0 0 -23.5 -23 -23 -23 0 0 0 0 -24 -24 -24 0 -24 -24 0 -23 0 -24 -24 -23 0 0 -25 -23.5 -24 -24 0 -25 0 -24 -24 -24 0 0 0 -25 -25 -25 -25 0 -25.5 -25.5 -26 0 0 0 0 0 0 -26 -26 -26 0 -26 -26 -26 0 -26 -26 -25 0 -26 -26 0 0 0 0 0 0 0 0 -28 -27 0 -28 0 0 0 -28 -27 0 -28 -27 -27 0 -27 -27 -27 0 -27 -27 0 0 0 0 0 -27 -27 0 -28 0 -29 -28 -28 -28 0 -29 -28 0 -29 0 0 0 0 0 0 0 0 0 -28 0 -29 -28 0 -29 0 0 0 0 -30 0 -30 -29 -29 0 0 0 0 0 0 0 -30 -29.5 0 0 -29 0 0 -29 0 0 0 0 0 0 0 -31 -31 0 0 0 0 0 0 0 0 -31 -31 -31 -31 -31 -31 0 0 -32 0 0 0 0 0 -32 0 -32 -32 -32 0 0 0 0 0 0 -32 0 -32 0 -33 -32 0 -32 0 -33 0 0 0 0 -33 -33 0 -33 0 -33 0 -33 -33 0 -33 0 -33 0 0 -34 0 0 0 0 0 -33 0 -34 0 -34 0 -35 0 -35 0 -35 -35 -35 -34 -34 0 0 -35 0 0 -34 0 0 -35 0 0 0 0 0 -35 -35 0 -36 0 0 0 0 0 -36 -36 -36 0 0 -35 0 0 -36 -36 -36 -36 0 0 0 0 0 -37 0 -37 -37 0 -37 0 -37 -37 -37 0 0 -37 -37 -37 -37 -37 -37 -37 -37 0 -37 -36 0 0 -37 0 -38 -38 -38 0 -38 0 0 0 0 0 0 0 0 0 0 -39 -37 0 -38 -38 0 -38 -38 -38.3333 0 0 0 0 0 -39 -39 0 -39 0 0 0 0 -39 0 0 0 0 0 0 0 -39 -39 -39 -39 0 0 -39 0 -39 0 -40 0 0 0 -40 -40 0 0 0 0 0 0 -41 0 -41 -40 -40 0 0 -40 0 0 0 -40 0 0 0 -41 -41 -41 0 0 0 0 0 0 -41 0 -41 -40 0 0 -41 0 -41.5 -41 0 0 0 0 0 0 0 0 0 -42 0 -42 0 0 0 0 0 0 0 0 0 0 -43 0 -42 -42 0 -42 0 -43 -42 -42 0 -43 0 0 -43 0 0 0 0 0 0 0 0 0 0 0 0 0 0 -44 0 0 -44 -44 -44 0 0 0 0 0 0 0 0 0 0 0 -18.25 0 0 0 0 0 0 0 0 0 0 0 0 0 0 0 0 0 0 0 0 0 0 0 0 0 0 0 0 0 0 0 0 0 0 0 0 0 0 0 0 0 0
0 0 0 0 0 0 0 0 0 -5.2 -5.5 -5.5 0 0 0 0 0 0 -6.42857 -6.75 -6.75 0 0 -6.57143 -6.57143 -7 -7 -7 -7.5 -7.5 0 0 0 0 -8 -7 -7.5 -7.5 -7.5 0 -8.5 -7.5 -7.5 -7.5 -8 -7 -7.5 -7.5 0 -8 -8 -8.5 -8.5 -9 -9 -9 -9.5 -9.5 -9 0 -9 -9.5 -9.5 0 -9.5 -9 -10 -10 -10 -9.25 -9.25 -9.5 -9.5 -10 -10 -10 -10.5 -10.5 -11 -11 -10 -10.3333 -10.3333 -10.75 -11 -11 -11.4 -11.4 -11.75 -12 -11.5 -11 -11.6 -11.6 -12 -11.5 -11 -11.5 -11.5 0 0 0 -11 -11.6667 -11.6667 -12 -12 0 -12 -12.8 -12.8 -13 -13 -12 -12 -12.5 -12.5 -13 -13 -13 -13.5 -13.5 -13 -13 0 0 0 0 0 -14.5 0 0 0 -14.5 -14.5 -15 -15 -14 0 -14.3333 -14.3333 -15 -15 -15 0 0 0 0 0 -15 0 -16 -15 -15.5 -15.5 -16 -16 -16 -16 -16.3333 -16.3333 -15.6667 -15.75 -16 -16 -16 -17.25 -17.25 -17.25 -17 -17 -17 -17 -17 -16.3333 -16.3333 -17 -17 -17 -17 -17.5 -17.5 -17.6 -17.6 -18 -18 -18 -18 -18 -17 -17.6667 -17.6667 0 0 0 -18 -18 -18.3333 -18.6667 -18.6667 -19 -18.5 -18 0 -19 -19.3333 -19.5 -19.5 -18.6667 -19 0 0 0 -19 -19.3333 -19.5 -19.5 -20 -20 -20 -19 -20 -20 0 0 -19.5 -19.5 -20 -20 -20 0 -20 -20 -22.5 -20.6667 -20.5 -20.5 -21 -21 -21 -21 -21 -20 0 0 0 0 0 -20.6 -21 0 -22 -21 -21 -21 -21 0 -21.3333 -21.3333 -21.6667 -22 -22 -21 0 -22 -22 -22 -21 0 0 -22.6667 -22.6667 0 -23 -23 0 -23 -23 -23 0 0 -23 -23.3333 -23 -23.6667 -23.6667 -24 -24 -24 -24 -24 0 0 0 -23 -23 0 -24 -24 -23.5 0 0 -25 0 0 0 0 -25 0 -24 -24 -24 0 0 0 -24 0 -25 -25 0 0 -25.5 -25.5 -25.5 0 -26 -26 0 -26 -26 -26 -26 0 0 0 0 0 -26 -26 -25 0 -26 -26 0 0 0 0 0 0 -27 0 -28 0 -28 -28 0 0 0 -28 -27 0 -28 -27 -27 0 -27 -27 0 0 0 0 0 -28 -27 0 -28 -27 -27 0 -28 0 -29 -28 -28 -28 0 -29 -28 0 -29 0 0 0 0 0 0 0 0 0 0 0 0 0 0 -28.5 0 0 0 0 0 0 0 -29 0 0 0 0 0 -30 0 -30 -30 0 -30 -30 0 0 0 0 0 0 -30 0 0 0 0 0 0 -31 0 -31 0 0 -34 -31.5 0 -31 -31 -31 -31 -31 -31 0 -31 0 -31 0 -31 -31 -31 0 0 -32 -32 0 0 -32 -32 -32 0 0 -32 0 -32 0 -33 -32 0 -32 0 0 0 0 0 -33 0 -33 0 0 0 0 0 -33 0 0 50.6667 0 49 0 0 52 0 0 8.5 -41 0 0 45 0 0 0 0 0 -35 -35 0 0 -35 -35 -34 0 0 0 -35 -34 0 -34 0 -35 0 0 0 -35 -35 -35 -35 0 0 0 0 -36 -36 -36 -36 -36 -36 -36 -36 0 0 0 -35 0 -36 -36 -36 -36 0 0 -36 0 -37 -37 -37 -37 0 -37 0 -37 -37 -37 0 0 -37 -37 -37 0 0 0 0 0 0 -37 -36 0 -36 -37 -37 0 -38 -38 0 0 -39 0 0 0 0 0 0 0 -39 0 -39 0 0 -38 -38 0 -38.3333 -38 -38.3333 0 0 0 0 0 0 0 0 0 0 0 0 0 0 0 -39 0 -39 0 0 0 -39 -39 -39 0 0 0 -39 0 -39 0 -39 0 0 0 0 0 0 0 -40 -40 0 -40 -41 0 -41 0 -40 0 0 0 -41 -41 -41 0 -40 0 0 -41 0 0 0 0 0 0 0 0 -41 -41 0 -40 0 -41 -41 -41 0 0 0 0 0 -42 -42 -42 0 0 -42 0 -42 -42 -42 0 0 0 -42 0 -42 0 -43 -43 -43 -42 0 0 0 0 0 0 0 0 0 -43 0 -43 -43 -43 0 0 0 0 0 0 0 -43 0 0 0 -43 0 0 -42.5 0 0 -43 0 0 0 0 0 0 0 0 -44 -18.25 0 0 59.3333 -66 0 0 0 0 0 0 0 0 0 0 0 0 0 0 0 0 0 0 0 0 0 0 0 0 0 0 0 0 0 0 0 0 0 0 0 0 0 0 0 0 0
0 0 0 0 0 0 0 0 0 -5.25 -5.5 -5.5 -6 -6 -6.5 -6.5 -6.5 -6 -6.25 -6.5 -6.5 -6 -6.25 -6.57143 -6.57143 -7 -7 -7 -7.5 -7.5 -8 -8 -7.5 -7.5 -8 0 0 -7.33333 -7.5 0 -8.5 -7.5 -7.5 -8 -8 0 0 0 0 -8.5 -8 -8.25 -8.25 -8.5 -9 -9 -9.5 -9.5 -9 0 -9 -9.5 -9.5 0 -9.5 -9 -9.5 -9.5 -10 -9.25 -9.33333 -9.5 -9.5 -10 -10 0 0 0 -11 -11 -10 -10.3333 -10.3333 -10.75 -11 -11 0 0 0 0 0 -11 -11.5 -11.5 -12 -12 -12 -12.5 -12.5 -12 -12 -12 0 0 -11.6667 -12 -12 -12 -12.5 -12.5 -13 -13 -13 -12 0 0 0 -13 -13 -13 -13.5 -13.5 0 -13 -13 -13 -13.5 -13.5 0 -15 0 -13.5 0 -14.5 -14.5 -15 0 -14 0 0 0 -15 -15 -15 -15 -14 -14.5 -14.5 -15 0 -15.5 0 -16.5 -16.5 -15.5 -16 0 -16 -16 -16.3333 -16.3333 -15.6667 -16 -16 -16 0 -17 -17 -18 -17 -17 -17 -17 -17 -17.3333 -17.3333 -16.6667 -17 -17 -17 0 0 0 -17.6 0 0 -18 -18 -18 0 0 -18.5 0 -19 -19 -18 0 0 0 0 0 -18 -18 0 -19 -19.25 -19.5 -19.5 0 0 -19 0 0 0 -19.4 -19.75 -19.75 -20 -20 -20 -19 -20 -20 -20 -19.3333 -19.5 -19.5 -20 -20 0 0 -20 -20 -23 0 0 0 0 -21 -21 -21 -21 -20 0 -21 -21.75 -21.75 0 -21 -21 0 -22 -21 -21 0 0 0 -21.3333 -21.3333 0 -22 -22 -22 -22 -22 -22 -22 -21 0 -22.25 -22.25 -22.6667 -23 -23 -23 0 -24 -23 -23 -23 0 -23 -23 0 0 -23.6667 -24 0 -24 0 -24 0 -24 0 -23 -23 0 -24 -24.3333 -23.5 -23.5 -24 -25 -24.3333 -24.3333 0 -25 0 -24 -24 0 0 0 0 0 -25 0 0 0 0 0 0 0 0 -27 0 0 0 0 -26.3333 -26 -26.3333 0 0 0 -27 0 -26 0 -25 0 -26 -26 0 0 0 0 -28 0 0 0 0 0 0 -28 -27 -27 0 0 0 0 0 0 0 0 0 0 0 0 -28 -27 0 0 -27 0 -28 -27 -27 0 0 0 -29 -28 -28 -28 0 -29 -28 -29 0 0 -28.3333 0 0 0 0 0 0 0 0 0 0 0 0 0 0 0 0 0 0 0 0 0 0 0 0 0 0 0 0 0 0 0 0 -30 0 0 0 -53 0 0 0 0 0 0 0 0 0 -31 0 -31 0 -31.5 0 -31 -32 -31 -31 -31 -31 -31 -31 0 0 0 0 0 -31 0 0 -32 0 -32 -32 -32 0 -32 -32 -32 -32 -32 -32 0 -32 0 0 -32 0 -32 0 -33 0 0 -32 0 -33 -33 0 0 0 0 0 0 0 0 0 0 0 0 0 20.8333 8.5 0 0 -32.8 0 0 0 0 0 0 0 0 -35 -35 0 -35 0 -35 -35 0 0 0 -35 0 0 -34 0 -35 -35 -35 0 -35 -35 0 0 -35 0 -36 0 -36 0 -36 -36 -36 -36 -36 0 0 0 0 0 0 0 0 0 -36 0 -36 -36 0 -36 0 0 0 0 0 0 -37 -37 -37 0 0 0 0 0 0 0 -37 -37 -37 -37 -37 -37 0 0 -37 -37 0 0 -38 -38 0 -39 -38 -37 0 -38 -38 -38 0 0 0 0 0 0 0 0 0 0 0 0 -38 0 -38 -38 0 0 0 0 0 0 0 0 0 -39 -39 -39 0 0 -40 0 0 -39 -39 -39 -39 -39 0 0 0 -39 0 -39 -39 0 0 -40 0 0 0 -40 -40 0 -40 0 0 0 0 0 0 0 0 0 0 0 0 0 0 0 -41 -41 -41 -41 0 0 0 0 0 -41 -41 0 -40 0 -41 -41 -41 0 0 0 0 0 0 0 0 0 0 0 -42 -42 0 0 0 0 0 0 0 0 0 0 -43 0 0 0 0 0 0 0 0 0 0 0 -42 0 -43 0 0 0 0 0 0 -43 0 -44 -43 -43 0 0 0 0 0 -42.5 0 0 -43 0 0 0 0 0 0 0 0 -44 0 -44.5 0 0 0 0 0 0 0 0 0 0 0 0 0 0 0 0 0 0 0 0 0 0 0 0 0 0 0 0 0 0 0 0 0 0 0 0 0 0 0 0 0 0 0 0
0 0 0 0 0 0 0 0 0 -5.25 -5.5 -5.5 -6 -6 -6.5 -6.5 -6.5 -6 -6.25 -6 -6 -6 -6.25 -6.5 -6.5 -7 -7 -7.5 -7.5 -8 -8 -8.2 -7.75 -7.75 -7.5 0 0 -7.33333 -7.33333 0 -7 -8.16667 -8.16667 -8 -8 0 -7.5 -7.5 -8 -8 -8 -8.66667 -8.66667 -9 -9.33333 -9.5 -9.66667 -9.66667 -10 -8.5 -8.66667 -8.66667 -9 -9 0 -10.4 -10.4 0 -10 -9.25 -9.33333 -9.33333 0 0 -10 -10 -10.5 -10.5 0 -11 -10 -10.5 -10.5 -11 -11 -11 -11.5 -11.5 -12 -12 -12 -12.5 -12.5 -12 -12 -12 -11.5 -11.6667 -11.6667 -12.5 -12 -12 0 0 0 0 0 0 -12.5 -12.5 -12.8 -13 -13 -12 -12.5 -12.5 -13 0 0 -13.3333 -13.6667 -13.6667 -13 -13 -13 -13.25 -13.5 -13.5 0 -15 -13 -13.5 0 0 -15 -15 0 -14 0 -14.6667 -14.6667 0 0 -15 -15 -15.5 -15.5 -16 -15 0 -15.5 -15 0 0 0 -16 -16 -16 -16 -16.3333 -16.3333 -17 -16 -16 -16 -16 0 0 -17.25 -17 -17 -17 0 -17.5 -17.5 -18 -17 -17 -17 -17 0 -18.5 -18.5 -18 -18 -18 -18 -18 -17 -17.4 -17.4 -17.6667 0 -19 0 -18 0 0 0 0 0 0 -18 0 -19 -19.25 -19.5 -19.5 0 0 0 0 0 0 -19 -19.6667 -19.6667 -20 -20 -20 0 -20 0 0 -19.5 -19.5 -20 -20 -20 0 -21 0 -20.5 0 -20.6 -20.6 -21 0 -21 -21 -21 -21 -20 0 0 -21.6667 -21.6667 0 0 0 0 -22 -21 -21 -21 -21 -21.6667 -21.6667 -22 -22 0 0 0 -22 -22 -22 -22 -21 -21 0 0 0 -22 -23 -23 0 -24 -23 -23 -23 0 0 0 0 0 0 0 -24 -24 -23.6667 -23.6667 -24 -24 -24 -23 -23 0 -24 -24 -23.5 -23.5 -24 -25 -24.5 0 0 -24.5 -25 -24 -24 0 0 0 0 0 -25 0 0 0 0 0 0 0 0 -27 -27 0 0 -26 0 -26 -26.3333 0 -26.5 -26 0 -26 -26 0 -25 0 0 0 0 0 0 -27 -27 0 -27 -27 0 -27 0 -28 -27 0 0 -28 -27 0 -28 -27 -27 0 -27 -27 0 0 -28 -27 0 -28 -27 0 -28 -27 -27 0 0 0 0 0 -28 -28 0 -29 -28 0 -29 -29 -28 0 0 0 0 0 0 0 0 0 0 0 0 0 0 0 0 0 29.1667 0 0 0 0 0 0 0 60.5 0 61 0 0 0 0 0 0 0 0 -31 0 0 0 0 0 0 0 0 0 0 0 0 0 0 0 0 -31 -31 -31 -31 -31 -31 -31 0 0 0 0 0 -31 0 0 -32 0 -32 -32 -32 -32 -32 -32 -32 -32 0 0 0 -32 0 0 0 0 0 0 -33 0 0 -32 0 0 0 0 0 0 0 0 0 0 48 9.5 0 0 0 7.33333 7.33333 -2.25 -2.25 -32.8 -32.8 -33.1667 0 0 0 -33.3333 0 0 0 0 0 0 0 0 -35 -36 0 -34 0 -35 0 -35 0 0 0 0 0 0 0 -35 0 0 -35 0 0 0 -36 0 -36 -36 -36 -36 -36 0 0 0 0 0 0 0 0 0 -36 -36 -36 -36 0 -36 0 0 -37 0 -37 0 -37 -37 -37 0 -37 -37 0 -37 -37 -37 -37 -37 -37 -37 -37 0 0 0 -37 0 0 -38 -38 0 0 0 0 0 0 -38 -38 -38 0 0 0 0 0 -38 0 -38 -35 -39.2 -38 -39.2 -36.6667 0 -38 0 0 0 0 0 0 0 -40 -39 0 -39 0 0 0 0 -40 -40 -39 -39 -39 -39 0 0 0 0 0 -39 -39 0 -39 0 0 -40 0 0 0 -40 -40 0 0 0 0 -41 0 -40 0 0 -41 -41 -41 -41 0 0 0 0 -41 -41 0 -41 0 0 -41 0 0 0 0 0 0 0 0 -41 -41 -41 -41 0 0 0 -42 0 -42 0 -43 0 -42 0 -43 0 0 0 0 0 -42 -42 0 -43 0 -43 0 0 0 0 0 0 0 -43 -43 0 0 -43 -43 0 -43 -43 -43 -43 -43 0 -44 0 0 -43 0 0 0 0 -44 0 0 0 0 0 -44 0 0 0 0 -44 0 0 -44.5 0 0 0 0 0 0 0 0 0 0 0 0 0 0 0 0 0 0 0 0 0 0 0 0 0 0 0 0 0 0 0 0 0 0 0 0 0 0 0 0 0 0 0 0 0
