0 0 0 0 0 0 0 0 0 0 0 0 0 0 0 0 0 0 0 0 0 0 0 0 0 0 0 0 0 0 0 0 0 0 0 0 0 0 0 0 0 0 0 0 0 0 0 0 0 0 0 0 0 0 0 0 0 0 0 0 0 0 0 0 0 0 0 0 0 0 0 0 0 0 0 0 0 0 0 0 0 0 0 0 0 -85 0 0 -87.5 -87.5 0 0 0 0 0 0 0 0 0 0 0 0 0 0 0 -87 -87 0 0 -86.5 -86.5 -86.5 -86 -86 0 -87.6667 -87.6667 0 0 0 0 0 0 0 0 -87.5 -87.5 0 0 0 0 0 0 -87.6667 -87 -87 -87 -87.5 -87.5 -88 -88 -88 -87 0 0 0 0 0 0 0 -87.5 -87.5 0 -88.25 -88.25 0 0 0 -88 -88 0 0 0 0 0 0 0 0 -89 -89 -89 -89 -88.1667 -88.1667 0 0 -89 0 0 0 0 0 0 -89 -89 -88.5 -88.5 -89 0 0 -89 -88.5 -88.5 0 0 0 0 0 0 0 0 0 0 0 0 0 0 0 0 0 0 0 0 0 0 0 0 0 0 0 0 0 0 0 0 0 0 0 0 -89.3333 -89.3333 0 0 0 0 0 0 0 0 0 0 0 0 0 0 0 0 0 0 0 0 0 0 -89 0 0 -90 -90.4 -90.4 -90.3333 -89.5 -89.5 -91 -91.6 -91.6 -91 -90 0 0 0 -90.5 -90.5 -90.5 0 0 -89.1667 -90 -89.1667 -89.1667 0 -90.3333 -90.3333 -91 -90 -90.5 -90.5 -90.6 -90.5 -90.5 -90 -90.25 -91.5 -91.5 -90.5 -90.5714 -90.5714 -90 -90.3333 -91.5 -91.5 -91 -91.0667 -91.0667 -91 -91 -90.5 -90.5 -91 -91.4 -91.4 -91.5 -90 -90.5 -90.5 0 -91 -91.5 -91.5 -91 0 -90.5 -90.5 -91 0 0 -92 -92 -90.5 -90.5 0 -91 -91.5 -91.5 -92 0 -92.5 -92.5 -91 -91 0 -91.6667 -92 -91 -91.5 -91.5 -91.5 -91 -91.5 -91.5 0 -92 -92.4 -91.6 -92 -92 -91.75 -91.8333 -91.8333 -91 0 -91.5 -91.5 -92 -91.5 -92.4 -92.4 -93 -91.3333 -91 -91.5 -91.5 -92 -91 -91.5 -91.5 0 -92 -92 -92.5 -92.5 -92.3333 -91 -91.5 -91.5 -92 -92 0 -92.3333 -92.3333 -93 0 -91.5 -92 -92 -92 -91 -92 -92.3333 -92.6667 -92 0 -92 -92.5 -92.5 -92.5 -93 -93 -91.9333 -91.9333 -92.5 -92 -92 -91.5 -91.5 -93 -92 -92 0 0 -93 -93 0 -93 -92.8 -92.8 0 -93.5 -92.5 -92.5 -92.5 0 -93 -92 0 -93.5 -93.5 -93 -93 -93 -93 0 0 -94 0 0 -93 0 0 0 0 0 -92 -92.6667 -92.6667 -93 -93 -93 -93 -93 -92.5 -92.5 -93 -93 -93 0 -93 -93.5 -93.5 0 -94 -93 -93 0 -93.5 -93.5 -94 0 -94 -93 0 -93.5 -93.5 -94 -94 -94 -94 0 0 0 0 0 0 0 0 0 -94 -94 0 0 -95 -94 -94 -94 -94 -93.5 0 -93.6667 -93.6667 -94 0 -94 -94 0 -94 0 0 0 0 -94 0 -94 -94 0 -94 -94 0 0 0 -94 0 -95 -94 0 -94 0 -94 -94 -94 -94.25 -94.5 -95 0 -95 -94 0 -95 -94 0 -95 -94 0 -94 -94 -94.5 -94.5 -95 0 -95 -95 -94 0 -94 0 0 -94 -94 -94 -94 0 -95 0 0 0 0 0 0 0 0 0 -95 -95 -95 -95 -95 -95 -95 -95 -95 -94 0 0 0 0 0 0 -96 -95 0 -95 -95 0 -95 0 -95 -95 0 -95 0 0 0 0 0 0 0 0 0 0 0 0 -96 -96 -96 0 0 -96 0 -96 -96 0 -95 0 0 0 0 0 0 0 0 0 -95 0 0 0 -96.5 -96 -96.5 -96 0 -96 -96 -96 0 -96 -95.5 0 0 0 -97 -96.5 0 -97 0 -97 -96.6667 -96.5 -95 0 -96 0 0 -96 0 -96 -96 -96 -96 -96 0 0 0 0 0 0 0 -96 -96 -96 -96 0 0.5 0 0 0.5 0 -97 -97 -96 -96 -96 0 0 0 0 0 -97 0 -97 0 0 0 -97 -97 0 0 0 -97 -77 0 0 -97 -97 -97 -97 0 -97 -97 0 0 -97 0 0 0 0 -97 -97 -97 0 -97 -97 0 -97 -97 -97 -97 0 -97 -97 -97 -97 -97 0 0 0 0 0 -97 0 -98 0 -98 0 -98 0 -98 -97 0 -98 -97 0 -98 0 0 0 0 0 0 -98 -98 0 0 0 0 -30.3333 0 0 0 0 0 0 -97 0 0 -98 -98 -98 -98 -98 0 0 0
0 0 0 0 0 0 0 0 0 0 0 0 0 0 0 0 0 0 0 0 0 0 0 0 0 0 0 0 0 0 0 0 0 0 0 0 0 0 0 0 0 0 0 0 0 0 0 0 0 0 0 0 0 0 0 0 0 0 0 0 0 0 0 0 0 0 0 0 0 0 0 0 0 0 0 0 0 0 0 0 0 0 0 0 0 -85 0 0 -87.5 -87.5 -86.5 -86.5 0 0 0 0 0 0 0 0 0 0 0 0 0 0 0 0 0 -86.5 -86.5 -86.5 -87.5 -87.5 0 -87.3333 -87.6667 0 0 -86 0 0 -88.5 -88.5 -87 -87.5 -87.5 -88 -88 -87 0 0 0 0 0 0 0 0 0 0 0 0 0 0 0 0 0 -88 -88.5 -88.5 -87.5 -87.5 0 -88 -88 -88 -75.5 -75.5 -88 -88 0 0 0 0 0 0 0 0 0 -88.5 -88.5 -89 -88.1667 -88.1667 0 0 -89 -88 -88 -88 -88.5 -88.5 0 -89 -89 -88.5 -88.5 -89 0 0 -89 -89.5 -89.5 -88.5 -88.5 -88.5 -89 -89.5 -89.5 0 0 0 0 0 0 0 0 0 0 0 0 0 0 0 0 0 0 0 0 0 0 0 0 0 0 0 0 0 0 0 0 0 0 0 0 0 0 0 0 0 0 0 0 0 0 0 0 0 0 0 0 0 0 0 0 0 0 0 0 0 0 0 0 -91 -91.6 -91 -90.5 -90.5 -90.5 -91 -90.5 -90.5 -91 -85.5 -85.5 -89.6667 -90.3333 -89.1667 -89.1667 0 -90.5 -90.5 -91 -91 0 0 -91 -90.75 -90.75 -90 -90.25 -90.25 -92 -90.6667 -90.8333 -90.8333 -90 -90.5 -91.5 -91.5 -91 -90.8333 -91.0667 -91 -91 -90.5 -90.5 -91 -91.6 -91.6 -91.5 -91 0 0 0 -91 -91.5 -91.5 -90.5 0 -90.5 -90.5 -91 -91.5 -91.5 -92 -92 -90.5 -90.5 0 -91 -91.5 -91.5 -92 0 -92.5 -92.5 -91 -91 0 0 -92 -91 -91.5 -91.5 -91.6667 -91.3333 -91.5 -91.5 0 -92 -92.4 -92.4 -92 0 -91.5 -91.5 -91.5 -91 0 -91.5 -91.5 -92 -91.5 -92.5 -92.5 -93 -91.3333 -91 -91.5 -91.5 -92 -91 -91.5 -91.5 -93 -92 -90.5 0 0 -92 -91 0 0 -92 -92 0 -92.5 -92.5 -93 -92 -91.5 -91.5 -91.5 -92 -92 0 -92.3333 -92.3333 -92 -92 -92 -92.5 -92.5 -93 -93 -93 -91.6786 -91.9333 -92.6667 -92 -92 -91.5 -91.5 -93 -92 -92 -92.5 -92.5 -93 -93 -92.5 0 -92.8 -92.8 0 -92.5 -92 -92.5 -92.5 -92 -93 -92 0 -93.5 -93.5 -93 0 0 0 0 0 -94 -93.5 -93 0 -93.5 -93.5 -94 0 -93 -92 0 -92.6667 0 0 0 0 -93 -92.5 -92.5 0 0 0 0 -93 -93.5 -93.5 0 -94 -94 -93 0 -93.6667 -93.6667 -94 0 -94 -93 0 -88.5 -88.5 -94 -94 -94 -94 0 0 0 0 0 0 0 0 0 0 -94 0 0 -95 -94 -94 -94 -94 -93.5 0 -93.3333 -93.6667 -93 0 -93 -93 0 -93.3333 -93 0 -93.6667 -93.6667 -94 0 -94 -94 -94 -94 -94 0 -94.5 -94.5 0 0 0 0 0 0 0 0 -94 -94 -94.25 -94.25 -94.6667 0 -95 -95 0 -95 -94 0 -95 -94 0 -94 -94 -94.5 -94.5 -95 0 0 0 0 -95 -94 -94 0 -94 -94 -94 -94 0 -95 -94 0 0 -96 -95 -96 -95 -95 0 0 0 0 -95 -95 -95 -95 -95 -95 -94 0 -95 -94 0 -95 0 -96 -95 0 -95 0 0 0 0 0 0 0 0 0 0 -96 -96 -95 0 0 0 0 0 0 -96 0 -96 -96 -96 -96 0 0 0 0 0 -95 0 -95 0 -96.5 -95 -95.5 -95 -95 0 0 0 0 0 0 -96 -96.5 0 0 -96 -96 -96 0 -96 -95 0 -96 0 -97 -97 0 0 0 -97 -96.5 -96.3333 -95 0 -96 -96 0 -96 0 0 -96 -96 -96 -96 -96 0 -97 -97 -97 0 -99 0 0 -96 -96 0 -102 -97 0 -97 -97 0 0 0 0 -96 0 0 -97 0 -97 -97 0 -97 -97 0 0 -97 -97 -97 -97 0 -97 -97 0 -22.5 -97 -97 -97 -97 0 0 -97 0 0 0 0 0 -97 -97 0 0 0 0 0 0 0 0 0 -97 -97 0 -97 -97 -97 -97 -97 0 -97 0 0 0 0 0 0 -97 0 0 -98 0 -98 -97 0 0 0 0 0 -98 0 -98 -97 -97 0 -98 -98 0 0 -97 0 -98 0 0 0 0 0 0 0 0 -98 -98 -98 -98 -98 -98 0 -98 0
0 0 0 0 0 0 0 0 0 0 0 0 0 0 0 0 0 0 0 0 0 0 0 0 0 0 0 0 0 0 0 0 0 0 0 0 0 0 0 0 0 0 0 0 0 0 0 0 0 0 0 0 0 0 0 0 0 0 0 0 0 0 0 0 0 0 0 0 0 0 0 0 0 0 0 0 0 0 0 0 0 0 0 0 0 -85 0 0 -87.5 -87.5 -86.6 -86.6 -87 -87 -87 -86.5 -86.5 0 0 0 0 0 0 0 0 0 0 0 0 0 0 0 -87.5 -87.5 0 -87.3333 -87.3333 -87.1 -87.1 -87 0 0 -88.5 -88.5 -87 -87.5 -87.5 -88 -88 -87 0 0 -87.5 -87.5 -88 -88 -88 0 0 -88 0 0 0 0 0 0 0 0 -88.5 -88.5 -87.5 -87.5 0 -88 -88 -88 -75.5 -75.5 0 0 0 -78.5 -78.5 -89 -87.5 -87.5 -88.5 -88.5 -88.5 -88.5 -88.5 -89 -88 -88 0 0 -89 -89.5 -89.5 -88 0 0 0 -89 -89 0 0 -89 -89 -89 -89 0 0 0 0 0 -89 -89.5 -89.5 0 0 -89 -89.5 -89.5 0 -89.5 -89.5 -89 -89.5 -89.5 0 0 0 0 0 0 0 0 0 -90 -89.0667 -89.0667 -89 0 0 0 0 0 0 0 0 0 0 0 0 0 0 0 0 0 0 0 0 0 0 0 0 0 0 0 0 0 0 0 0 0 0 0 0 0 0 0 0 -91 -91 0 0 0 0 0 0 0 0 0 0 -89.6667 -90.3333 -89.6667 -89.6667 0 -90.9 -90.9 -91 -90.3333 0 0 -91.25 -90.75 -90.75 -90 0 0 -92 -90.5 -90.5 -90.5 -90 -90 0 0 -91 -90.8333 -90.8333 -91.4 -91 -90.5 -90.5 -91 -91.5 -91.5 -91.3333 -91 0 0 0 -91 -91.5 -91.5 -91.5 -91 -90.4 -90.4 -91 -91.5 -91.5 -92 -91.6667 -90.5 -90.5 0 -91 -91.5 -91.5 -92 -92 -92.1667 -92.1667 -91 -91 0 0 -92 -92 -91.5 -91.5 -91.5 -91 -91.5 -91.5 0 -92 -92.5 -92.5 -92 0 -92 -92 -92 -91 0 -91.5 -91.5 -92 -91 0 0 -93 -91.3333 0 -91.5 -91.5 -92 -92 -91.5 -91.5 -93 -92 -92 -92.5 -92.5 -92.5 -91 0 0 -92 -92 0 -92.5 -92.5 -93 -92 -91.5 -91.8333 -91.8333 -92 -92 0 -92.5 -92.5 -92 -92 -92 -92.5 -92.5 -93 -93 -93 -91.6786 -91.6786 -92 -92 -92 -91.5 -91.5 -93 -93 -92 -92.6 -92.6 -93 -93 0 -93 -92.5 -92.5 -93 0 -92 -92.6667 -92.6667 -92 -93 -92 -92 -93.5 -93.5 -93 -93 -93.5 -93 -92.3333 0 -93 -93 -93 -93 -93.5 -93.5 -93.5 0 -93 -93 0 0 0 -93.5 -93 0 -93 -92.5 -92.5 -93 0 0 0 0 0 0 0 0 0 -93 0 -93.5 -93.6667 -94 0 -94 -94 -93 0 0 0 0 0 -94 -94 0 -94.5 -94.5 -94 0 -94 0 0 -94 0 0 0 0 -87.5 -93 -93 -93 -93 0 -93.3333 -93.3333 -93 0 0 0 0 0 0 0 0 -93.6667 0 0 -94 -94 -94 -94 -94 0 -94.6667 -94.6667 -94 0 -95 -94 0 -94 -94 0 -94 0 -94.25 -94.6667 -94.6667 0 -95 -95 0 -95 -94 0 -95 -94 0 -94 -94 -94.5 -94.5 -95 -95 0 -95 0 0 0 0 0 0 -94 -94 -94 0 -95 -95 -95 -95.5 -95.5 -95 0 -95 -95 0 0 0 0 0 0 0 0 0 0 0 0 -95 -94 0 -95 0 -96 -95 0 -95 -95 -95 0 -95 0 0 0 0 0 0 0 -94.5 -94.5 -96 0 -96 0 -96 0 -96 -96 -96 -96 -96 -96 -95.5 0 -95 0 0 0 0 0 0 0 0 -95 -95 -95.5 0 -95 -95 -96 0 0 0 -96 0 -96 0 0 0 0 0 0 0 0 0 -97 -97 0 -97 0 -97 0 -96.3333 -95 0 0 -96.5 0 -96 0 -96 0 0 -96 0 -96 0 0 -97 0 -96 -96 -94 0 -11 0 0 -99 0 0 0 0 0 0 0 0 0 0 0 0 0 0 0 0 -97 0 0 -97.5 -97 -97 -97 -97 0 0 0 0 0 0 0 0 0 0 -97 -97 -18 0 0 -97 -97 -97 -97 -97 -97 -97 -97 -97 -97 -97 -97 -97 -97 -97 -97.5 -97 -97 -97 -97 -97 0 -97 0 -97 0 0 0 -98 -97 0 0 -98 -98 -98 -97 0 0 -97 0 -98 0 0 0 -97 -97 0 -98 0 -99 -98 0 0 0 0 0 0 -98 0 0 0 0 0 0 0 0 0 0 0 0 0
0 0 0 0 0 0 0 0 0 0 0 0 0 0 0 0 0 0 0 0 0 0 0 0 0 0 0 0 0 0 0 0 0 0 0 0 0 0 0 0 0 0 0 0 0 0 0 0 0 0 0 0 0 0 0 0 0 0 0 0 0 0 0 0 0 0 0 0 0 0 0 0 0 0 0 0 0 0 0 0 0 0 0 0 0 0 0 0 -87.5 -87.5 -86.6 -86.6 -87 -87 -87 -86.5 -86.5 0 0 0 0 0 0 0 -87 0 0 0 0 0 0 0 0 0 0 -87.5 -87.5 -87 -87 -87 0 0 -88 -88 -87 -87.5 -87.5 -86.5 -86.5 -87 0 0 -87.5 -87.5 -88 -88 -88 0 0 -88 0 0 0 0 0 0 0 0 0 0 0 0 0 -88 -88 -88 -88.5 -88.5 -88 -88 0 -88.5 -88.5 -89 -87.5 -87.5 -88.5 -88.5 -88.5 -88.5 -88.5 -89 -88 -88 0 0 0 -89.5 -89.5 -88 0 0 0 -89 -89 -88.5 -88.5 0 0 0 0 -89.5 -89.5 -90 0 0 0 0 0 0 0 -89 -89.5 -89.5 0 -89.5 -89.5 -89 -89.5 -89.5 -89.5 -89.5 -89.5 -90 -89 -89 -89 0 0 -90 -89 -89.0667 -89 -88.5 -88.5 -90 -90.1667 -90.1667 -89 -89.5 -89.5 0 0 0 0 0 0 -88.3333 0 0 -89 0 0 0 0 0 0 0 0 0 0 0 0 -90 0 0 0 0 0 -90 0 0 0 0 0 0 0 0 0 0 0 0 0 0 0 -89.1667 0 -89.1667 -89.1667 0 0 0 0 -91 -90 -90 -91.25 -90.75 -90.75 -90 0 0 -92 -91 -90.8333 -90.8333 0 -91 0 0 -90.5 -90.5 -90.5 0 -91 -90.5 -90.5 0 -92.25 -92.25 -92 -91 -90.5 -90.5 0 -91 -91.5 -91.5 -90.5 -91.5 -90.6667 -90.6667 -91 -91.5 -91.5 -92 -91.6667 -90.5 -90.5 0 -91 -91.5 -91.5 -92 -91 -92.1667 -92.1667 -91 -91 0 0 -92 -92 -91.5 -91.5 -93 -91.5 -91.5 -91.5 0 -92 -92.4 -92.4 -92 0 -91.5 -91.5 -91.5 -91 0 -91.5 -91.5 -92 -91 0 0 -93 -91.5 0 -92.6667 -92.6667 -92 -92 -91.5 -91.5 -93 -92 -92 -92.1667 -92.1667 -92 -91 0 0 -93 -92 -92 -92.5 -92.5 -93 -92 0 -93.4167 -93.4167 -92 -92 0 -92.5 -92.5 -92 -92 -92 -92.5 -92.5 -93 0 -93 -91.6786 -91.6786 -92 -92 -92 -92.4 -92.4 -93 -93 -92 -92.3333 -92.6 -93 -93 -92 -93 -98.5714 -98.5714 -92.6667 -92 -92 -92.3333 -92.6667 0 -93 -92 -92 -92.4 -92.4 -93 -93 -93 -93 -92.3333 -92.3333 -93 -94 -93 -93 -93 -93 -93 0 -92.5 -93 -92.5 -92.5 0 -93 -93 0 -93 -93 -93 0 0 -93 -93 -93 -93.5 -93.5 -93 0 -94 -93 -93 -93.3333 -93.5 -94 -93 -94 -94 -93 -93 -93.6667 -93.6667 -93.5 0 0 0 0 0 0 0 0 -94 -94 0 -94 -94 0 0 -94.5 0 -93 0 0 0 0 0 0 0 0 0 -93 -93 -93 -93 0 -93.3333 0 0 0 0 0 0 0 0 0 0 -94.6667 -95 0 -95 -94 0 0 0 0 -94 -94 0 0 0 0 0 0 0 0 0 0 -95 -94 0 -94 -94 -94.5 -94.5 -95 -95 0 -95 -94 0 0 0 0 0 0 0 0 0 0 -95 -95 -95.5 -95.5 -95 0 -96 -95 0 -95 0 0 -95 0 -95 -95 0 -95.5 0 0 0 0 0 0 0 -96 -95 0 -96 -95 0 -95 0 0 -95 0 -95 -95 0 0 0 0 0 0 0 -96.5 -95.5 0 -96 -96 -96 -96 -96 -95.5 -95 -95.5 0 0 0 -95 0 -96.5 0 -96.5 0 0 0 0 0 -95 -95.5 -95 0 -96.5 0 -96.5 0 0 -96.5 0 0 0 -96 -96 0 -96 0 -97 -97 0 -97 0 -97 0 -96.5 -95 -96.5 -96 -96 0 -96 0 -96 -96 0 0 -96 -96 0 0 -97 -96 -96.5 0 -95.3333 -95.6667 -96 0 0 0 0 0 0 -5 0 -97 -96.5 -96.5 -96 0 -97 0 -97 -97 -97 0 -97 0 0 0 0 0 0 0 0 0 -97 0 0 -97 -97 -97 -97 0 -97 -97 -97 0 -97 0 0 0 0 0 0 -97.5 -97 -97 -97 0 -97 0 -97 -97 0 0 0 0 0 0 0 0 0 0 0 0 0 0 0 0 0 0 -98 -98 -98 0 0 -97 0 -98 0 0 0 0 0 0 0 0 0 0 0 0 -98 0 0 -98 -98 0 -98 -98 0 -98 -98 0 -98 0 -98 0 0 -99
0 0 0 0 0 0 0 0 0 0 0 0 0 0 0 0 0 0 0 0 0 0 0 0 0 0 0 0 0 0 0 0 0 0 0 0 0 0 0 0 0 0 0 0 0 0 0 0 0 0 0 0 0 0 0 0 0 0 0 0 0 0 0 0 0 0 0 0 0 0 0 0 0 0 0 0 0 0 0 0 0 0 0 0 0 0 0 0 0 0 0 -86.6 -87 -87 -87 -86.5 -86.5 0 -86.5 -86.5 -87.5 -87.5 -86.6667 -86.6667 -87 -86.8333 0 0 0 0 0 0 0 0 0 0 0 0 0 -87 0 0 -88 -88 -87 -87.5 -87.5 -88 -88 -87 0 0 -87.5 -87.5 -88 -88 -88 0 0 -88 -88 -88 -87 -86.8333 -86.8333 -87.6667 -87.6667 -88 -87.8333 0 0 0 0 0 0 0 0 0 0 0 0 -88.5 -88.5 -89 -87.5 -87.5 -88.5 -88.5 0 -88.5 -88.5 -89 -88 -88 -88.6667 -88.6667 0 -89.5 -89.5 -88 -88.5 -88.5 -87.5 0 0 -89.5 -89.5 -89 -89.1667 -89.1667 0 -89.5 -89.5 -90 -88.5 -88.5 -89 -89.5 -89.5 -83.5 -83.5 -89 -89.5 -89.5 -88 -89.5 -89.5 -89 -89.5 -89.5 -89.5 -89.5 -89.5 0 0 0 0 0 0 -90 -89 -89 -89 -88.5 -88.5 0 -90 -90 -89 -89.5 -89.5 0 0 0 0 -89.5 -89.5 -90 0 0 -90 -89.5 -89.5 -90 -89.8333 0 0 -90.5 -90.5 -90 -89.5 0 0 0 0 0 0 0 0 -90 -90.5 -90.5 0 0 0 -90 0 0 0 0 -91.3333 0 0 0 0 0 0 0 0 0 -90.5 -90.5 -91 0 -90 -90 0 0 0 0 0 0 -90.3333 -90 -90.5 -90.5 0 -91 -91 -91 -91 0 0 -93 -91 -91.5 -91.5 0 -92.3333 -92.25 -92 -91.5 0 0 -92 0 0 0 0 0 0 -90.6667 -91 -91.5 -91.5 -92 -91.5 -90.5 -90.5 0 -92 -91.6 -91.6 -92 -91 -92.5 -92.5 -91.3333 -91 -91.5 -91.5 -92 -92 -91.6 -91.6 0 -91.5 -91.5 -91.5 -92 -92 -92.5 -92.5 -92 0 -91.6667 -91.8333 -91.8333 -91 0 -91.5 -91.5 -92 -92 0 0 -93 -91.3333 -91 -92.3333 -92.6667 -92 -92 -92.5 -92.5 -93 -92 -92 -92.5 -92.5 -92.5 -92 0 0 -93 -92 -92 0 0 -93 -92 -91.5 0 -93.4167 -92 -92 0 -92.5 -92.5 -92 -92 -93 -92.6 -92.6 -93 0 -93 -91.5 -91.5 0 -93 -92 -92.6 -92.6 0 -93 -92 -92.3333 -92.3333 -93 -93 0 -93 -93.5 -93.5 -92 -92 -92 -92.3333 -92.3333 0 -93 -93 -92 -92.6 -92.6 -93 -93 -93 -93 -93.5 -93.5 -93 -94 -93 -93 -93.1667 -93.1667 -93.5 -93.3333 -92.6667 0 -92 -92.5714 -92.5714 -93 -93 -92.5 -93 -93 -93 -93 0 -93 -93 -93.3 -93.5 -93.5 -93.3333 0 -94 -93 -93 -93.3333 -93.3333 -94 -94 -94 -94 -93 -93 -93.5 -93.5 -93.6667 -93 -94 -94 0 0 0 0 0 0 0 0 -93 -93 0 0 -94 -93 -93 0 -93 -93 0 -61.5 -61.5 -93 0 -94 -93 -93 -93 -93 -93 -93.3333 -93.3333 -93 0 -93 -93 0 -93.5 -94 -94 -93 0 0 0 0 0 0 0 0 0 -94 -94 -94 -94.5 -94.5 -95 -95 -95 0 -95 -95 0 -95 0 0 0 0 0 0 0 0 0 0 -94 0 -95 -94 0 -94 -94 -94 -94 -94 0 0 0 -95.5 -95.5 -95 0 -96 -95 0 -95 0 0 -95 0 0 -95 -95 -95 -95 0 0 0 0 0 0 -96 -95 0 -96 -95 0 -95 -95 0 -95.5 0 0 -95 0 -95 -94 0 0 0 -96.5 -95.5 0 -96 -95.5 -95 -95 -95.5 -95 -95.5 -95.5 -95.5 -95.5 0 0 -96.5 0 -96.5 0 -96.5 -95 0 -96.5 -95.5 0 -95 -95.5 -95.5 0 -96 -96 -96 0 -96 -96 0 -96 0 0 -96 0 -96 0 -97 -97 0 0 0 0 0 0 0 0 0 -96.5 0 -96.5 0 0 0 0 0 0 0 -96 0 -97 -96 -96 0 -98.6667 -97 -96 -97 -98.6667 0 0 0 0 0 0 0 0 -96.5 -96 0 -97 -97 -97 -97 0 0 -97 -96 0 0 -97 -97 -97 -97 0 -97 0 -97 0 -97 -97 -97 0 0 -97 -97 -97 0 -97 -97 0 0 -97 -97 -97 0 0 0 0 0 -97 -97 -97 0 -97 0 0 0 0 0 0 -97 0 0 0 -97 0 -98 -98 0 0 0 0 -98 0 0 0 0 0 0 0 0 0 0 -97 0 -98 0 -99 0 -97 0 -98 0 0 -98 0 0 0 0 -98 -98 0 0 0 0 -97 0 0 0
0 0 0 0 0 0 0 0 0 0 0 0 0 0 0 0 0 0 0 0 0 0 0 0 0 0 0 0 0 0 0 0 0 0 0 0 0 0 0 0 0 0 0 0 0 0 0 0 0 0 0 0 0 0 0 0 0 0 0 0 0 0 0 0 0 0 0 0 0 0 0 0 0 0 0 0 0 0 0 0 0 0 0 0 0 0 -23.5 -23.5 0 0 0 0 0 0 0 0 0 0 0 0 0 0 0 -86.6667 -87 -86.8333 -86.8333 -87.5 -87.5 -88 -86.5 -86.5 -87.5 -87.5 0 -87.5 -87.5 0 0 -87 0 0 0 0 0 0 0 -87.5 -87.5 -87 0 0 -87.5 -87.5 -88 -88 -88 0 0 0 -88 -88 -88.6667 -88.6667 -87.5 -87.3333 -87.6667 -88 -87.8333 -87.8333 -87.5 -87.5 -88 -88 -88 -88 -88.5 -88.5 -88 -88 -88 -88.5 -88.5 0 0 0 -88.5 -88.5 0 0 0 -89 -88 -88 -88.4 -88.6667 0 -89.5 -89.5 -89.5 -88.5 -88.5 0 0 0 0 0 0 0 -89.1667 0 -89.5 -89.5 -90 0 0 0 -88.1667 -88.1667 0 0 -89 -89.5 -89.5 -88 0 0 -89 -89.1667 -89.1667 -89.3333 -89.5 -89.5 -90 -90.5 -90.5 0 0 0 -90 0 0 -89 -88.5 -88.5 -88.5 0 0 -89 -89.5 -89.5 0 -90 -90 -90 0 0 -90 0 0 -90 -89.5 -89.5 -90 -89.8333 -89.8333 -90 -90.5 -90.5 -90 -89.5 0 0 -90 -89.5 -89.5 0 0 0 -90 -90.5 -90.5 -90 0 0 -90 0 0 0 0 -91.3333 -91.3333 0 0 0 -87.5 -90.5 -90 -90 0 -90.5 -90.5 -91 0 0 0 0 0 0 0 -90.5 -90.5 -90.3333 -90 -90.5 -90.5 -91 -90 0 0 -90.5 -90.5 -90.5 -92 -90.5 -91.2 -91.2 0 -92.3333 -92.3333 -92 -91.5 0 0 -92 0 0 0 0 0 0 0 0 -91.5 -91.5 -92 0 0 0 0 -92 -91.4 -91.6 -92 -92 -92.5 -92.5 0 0 -91.5 -91.5 -92 -91.5 0 -91.6 0 -91 -91.5 -91.5 -92 -92 -92.5 -92.5 -92 0 -93 -91.8333 -91.8333 -91 0 -92.5 -92.5 -92 -91.5 -92.4 -92.4 -93 -91.3333 -91 -92.3333 -92.3333 -92 -92 -91.5 -91.5 -93 -92 -92 0 0 -92.5 -92 0 0 -93 -92 -92 0 0 -93 -92 -91.5 0 0 -92 -92 0 -92.5 -92.5 -92 0 -93 -92.6 -92.6 -93 0 -93 -91.8333 -91.8333 0 -93 -92 -92.5 -92.5 0 -93 -92 -92.5 -92.5 -93 -93 0 -93 -93.5 -93.5 -92.5 -92 -92 -92.5 -92.5 0 -93 -93 -92 0 0 -93 -93 -93 -93 -93.5 -93.5 0 -94 -93 -93 -93.1667 -93.1667 -93.5 -93.3333 -92.6667 0 -92 -92.5 -92.5 -93 -93 0 -93 -93.6 -93.6 -93 0 -93 -93 -93.3 -93.5 -93.5 -93.3333 0 -94 -93 -93 -93.5 -93.5 -94 -94 -94 -94 -93 0 -93.6667 -93.6667 -93.6667 -93 -93.3333 -93.3333 0 -93.3333 -93.3333 -93.3333 -93 -94 -93.3333 0 0 -93 -92.5 -92.5 -93.6667 -93 -93 -93 -93 -93 0 -93.5 -93.5 -93 0 -94 0 -93 -93 -93 -93 -93.5 -93.5 -94 0 -94 -93 -93 -93.5 -94 -94 -93 -94.5 -94.5 0 -95 -94.5 0 0 0 0 0 -94 -94 -94.5 -94.5 -95 -95 -95 -94 0 -95 0 -95 -94 0 -94 -94 0 0 -95 -95 0 0 0 0 -95 -94 0 -94 0 -95 -94 -94 0 -95 0 -95.5 -95.5 -95 0 -96 -95 0 -95 0 0 -95 0 -95 0 0 0 0 0 -95 -94 0 -95 0 -96 -95 0 0 -95 0 -95 -95.5 0 0 -95 -95 -95 0 -95 -95 0 -95 0 -96.5 -96 0 -96 0 0 0 0 0 0 0 0 0 0 0 -96 0 0 0 -96.5 -96.5 0 -96.6667 -95.6667 0 -95 -95.5 0 0 -96 0 0 0 0 0 0 0 0 0 0 0 0 0 0 0 0 -97 0 -96.5 0 -96.6667 -95.5 0 -96.5 -96.5 0 -96.5 0 -97 -96 -96 -96 0 -96 0 0 0 0 -96.3333 -96.5 -97.6667 -96 -96.5 -96 -98.6667 0 0 0 0 0 -97 -96.5 -96.5 0 0 0 0 0 0 0 0 0 -97 -96.5 -96.5 0 -97 -97 -97 -97 0 -97 -97 -96 0 0 0 0 0 0 0 0 -97 -97 0 -97 -97 0 0 0 0 0 -97 0 -97 0 -97 -97 0 0 0 -97 -97 -97 0 0 0 0 0 0 0 -97 0 -98 -98 -97 0 -98 -98 -98 0 -98 0 -97 0 0 -98 0 0 0 0 0 -98 0 -99 0 -97 0 -98 0 0 -98 -98 -98 -98 0 -98 0 -98 0 0 0 0 0 0 -99
0 0 0 0 0 0 0 0 0 0 0 0 0 0 0 0 0 0 0 0 0 0 0 0 0 0 0 0 0 0 0 0 0 0 0 0 0 0 0 0 0 0 0 0 0 0 0 0 0 0 0 0 0 0 0 0 0 0 0 0 0 0 0 0 0 0 0 0 0 0 0 0 0 0 0 0 0 0 0 0 0 0 0 0 0 0 -23.5 -23.5 -86 -86 0 0 -87 -87 -87 -86.6667 -86.6667 0 0 0 0 0 0 0 0 0 0 -87.5 -87.5 0 0 0 -87.5 -87.5 0 -87.5 -87.5 -87 -87 -87 0 0 -87.8333 -87.8333 -87 -87.1667 -87.1667 -87.5 -87.5 -87 0 0 -89 -89 -88 0 0 0 0 0 0 0 0 -88.6667 -87.5 -87.3333 -87.3333 -57 -88 -88 0 0 -88 -88 -88 -88 -88.5 -88.5 -88 -88 -88 -88.5 -88.5 -88.5 -87.5 -87.5 -88.5 -88.5 0 -88.5 -88.5 -89 -88 -88 -88.4 -88.4 -89 -89 -89 -89.3333 -88.5 -88.5 -87 0 0 -89.3333 0 0 0 0 0 0 0 0 0 0 0 -88.1667 -88.1667 0 0 -89 -89.5 -89.5 -89.5 -89.5 -89.5 -89 -89 -89 -89 -89.5 -89.5 -90 -90.5 -90.5 -89 0 0 -90 -90 -90 -89 -89.5 -89.5 -88.5 0 0 -89 -89.5 -89.5 -90 -90 -90 -90 -89.5 -89.5 -90 0 0 -90 -89.5 -89.5 -90 -90 -90 -90 -90.5 -90.5 -90 -89.5 0 0 -90 -89.5 -89.5 -90 0 0 -90 -90.5 -90.5 -90 0 0 -90 -90 0 0 0 0 0 0 0 0 0 0 0 0 0 -90.5 -90.5 -91 0 -90 -90 -90 0 0 -91 -90.6667 -90.6667 -90.6667 -90 -90.5 -90.5 -91 -90 -91 -91 -90.5 -90.5 -90.5 -91 -91 -91.2 -91.2 0 0 0 0 0 0 0 0 0 0 0 0 0 -91.5 -91.5 -92 -91.5 -91.5 -92 -91.5 -91.75 -91.75 0 -92 -91.4 -91.4 0 -91 -92.5 -92.5 -91.75 -91 -91.5 -91.5 0 0 0 0 -93 -91.3333 -91.5 -91.5 -91.5 -92 -92 -92 -92 -92 -93 -92.1667 -92.1667 0 -92 -92.5 -92.5 -92 -92 0 0 -93 -91.3333 -91 0 0 -92 -92 -91.5 -91.5 0 -92 -92 -92 0 -92 -92 0 0 -93 -92 -92 0 0 -93 -93 -91.5 -93.5 -93.5 -92 -92 0 -92.5 -92.5 -93 0 -93 -92.3333 -92.6 -93 0 -93 -91.5 -91.5 0 -93 -92 -92.6 -92.6 0 -93 -92 0 0 -93 -93 -93 -93 -93.5 -93.5 -92.5 -92 -92 -92.5 -92.5 0 -93 -93 -92 0 0 -93 -93 -93 -93 -93.5 -93.5 0 -94 -93 -93 -93.5 -93.5 -93.5 -93.3333 -92.6667 -93 -92 -92.5 -92.5 -93 -93 -93 -93 -93.4286 -93.6 -93 0 -93 -93 0 -93.5 -93.5 -94 0 -94 -93 -93 -93.5 -93.5 -94 -94 0 -94 -93 -93 -94.5 -93.6667 -94 -94 -94 -94 0 -93 -93 -93 -93 -94 -93.3333 -93 -93 -93 -92.5 -92.5 -92.75 -93.5 -93 -93 -93 -93 0 -93.5 -93.5 -93.5 0 -94 -93 -93 0 0 -93 -93.5 -93.5 -94 -93 -94 -93 -93 -93 -93 -93 -93 -94.5 -94.5 0 -95 -94.5 -94 0 -93.5 0 -94 0 0 0 0 0 0 -95 -94.5 0 -95 0 -95 -94 0 -94 -94 0 -94.5 -94.5 -95 0 -95.5 -95 0 0 -94.3333 0 -35.5 -94 0 -94.3333 0 -94 0 -95 -95 -94.5 -94.5 0 -96 -95.3333 0 -95 -95 0 -95 0 -95 -95 0 -95 -95 0 -95 -94 0 -95 0 -96 -95 0 -96 -95 0 -95 -95.5 0 -95 0 -95 -95 0 -95 -95 0 -95 0 -96 -96 0 -96 -95.5 0 0 0 0 0 0 -95 -95 0 0 0 0 -96.5 0 0 0 0 0 0 0 -95 -95.5 0 0 0 0 0 0 0 0 0 0 0 0 0 0 0 0 -97 -97 0 0 0 0 0 -87.8 -96 -96 0 0 0 0 0 0 0 -96 -96 -96 0 -96 0 0 0 -96.3333 0 -98 -97 0 -97 -97.6667 0 -97 0 0 -97 -97 -96.5 -96.5 -96.5 -96 0 -97 -97 -11 0 0 0 0 0 -96 0 -97 0 0 0 0 0 0 -96 0 -97 -97 0 -28 -97 -97 -97 -97 0 0 0 -97 -97 -97 -97 -97 0 0 0 -97 0 -97 -97 0 -97 -97.5 0 0 0 0 0 0 0 0 -97 0 0 0 0 0 -97 0 -98 0 0 0 0 0 0 0 0 -98 0 -97 0 -97 0 0 0 0 0 0 0 0 0 -98 0 0 0 0 0 0 -98 -98 0 -98 0 -97 0 0 0
0 0 0 0 0 0 0 0 0 0 0 0 0 0 0 0 0 0 0 0 0 0 0 0 0 0 0 0 0 0 0 0 0 0 0 0 0 0 0 0 0 0 0 0 0 0 0 0 0 0 0 0 0 0 0 0 0 0 0 0 0 0 0 0 0 0 0 0 0 0 0 0 0 0 0 0 0 0 0 0 0 0 0 0 0 0 -85.5 -85.5 -86 -86 0 0 -87 -87 -87 -86.3333 -86.6667 0 0 0 -87.5 -87.5 0 0 -87 -87 -87 0 0 -88 -86.3333 0 -87.5 -87.5 0 -87.5 -87.5 -88.5 -88.5 -87 -87.5 -87.5 -88.3333 -88.3333 -87 -86.8333 -87.1667 -87.5 -87.5 -87 0 0 -89 -89 -88 -88 -88 -87.5 -87.5 0 0 0 0 0 0 0 0 0 -88.1 -88.1 0 0 0 -88 -88 -88 -88.5 -88.5 -89 -89 -88 0 0 -88.5 -88.5 -88.5 -88.5 -88.5 0 -88.5 -88.5 -89 -88 -88 -88.4 -88.4 -89 -89 -89 -89 -88.6667 -88.6667 -88.5 0 0 -89.3333 -89.3333 -88.5 -88.5 -88.5 -88 -88.5 -88.5 0 0 0 0 -88.1667 -88.1667 0 0 -89 -89.5 -89.5 -89.5 -89.5 -89.5 -89 -89.1667 -89.1667 -89 -89.5 -89.5 -90 -90.5 -90.5 -89 0 0 -89 0 0 -89 0 0 -88.5 0 0 0 -89.5 -89.5 0 0 0 -90 -89.6667 -89.6667 -90 0 0 -90 -89.5 -89.5 -90 0 0 0 0 0 0 0 0 0 -90 -90.5 -90.5 -89.5 -89.5 -89.5 -90 -90.5 -90.5 -90 0 0 -90 -90 -90.5 -90.5 -90 0 0 -90 -88.1667 -88.1667 -87.3333 -91 -91 0 0 0 0 -91 -91 -90 -90 -90 0 0 -91 -91.3333 -90.6667 -90.6667 0 -90.5 -90.5 -91 0 0 0 0 0 0 0 -91 -91.5 -91.5 -91 -91 -91 -91 -91 -90.5 -90.5 -91 0 0 0 0 0 0 0 0 0 0 0 0 -92.2 -92.2 0 0 0 0 0 0 0 0 0 -91 -91.6667 -91.6667 0 0 0 0 0 0 0 0 -92 0 0 0 -92 -92 -92.5 -91.8333 -91.8333 0 -92 -92.5 -92.5 -92 0 -92.5 -92.5 -93 -91 -91 0 0 -92 -92 -91.5 -91.5 0 -92 -91.5 -92 -92 -92.3333 -92 -91.5 -91.5 -93 -92 -92 0 0 -93 -93 -91.5 -93.5 -93.5 -92 -92 0 -92.5 -92.5 -93 -92 0 -92.3333 -92.3333 -93 -93 -93 -92 -92 0 -93 -92 -92.4 -92.6 0 -93 -92 -92.5 -92.5 -94 -93 -93 -93 -93.6667 -93.6667 -92.5 -92 -92 -92.5 -92.5 0 -93 -93 -92 0 0 -94 -93 0 -93 -93.5 -93.5 0 -94 -93 -93 0 0 -93.5 -93 -92.5 -93 -92 -92.5 -92.5 -93 -93 -93 -93 -93.4286 -93.4286 -93 0 -93 -93 0 -93.5 -93.5 -94 0 -94 -93 -93 0 0 -94 -94 -94 -94 -93 0 -94.4 -94.5 -94 -93.6667 -93.5 -93.5 0 -93.5 -93.4 -93.4 -93 -93 -93 -93 -93 -93 0 0 -94 -93 -93 -93 0 -93 0 -93.3333 -93.3333 -93 -93 -94 -93 -93 -93 -93 0 -93.5 -93.5 -94 -93 -94 -93 -93 -93 -93 -93 0 -94.5 -94.5 0 0 -98.3333 -94 0 -93.5 -93 -94 -94 0 -94.5 -94.5 -94.5 0 -95 -95 0 -95 -94.5 0 0 0 -94.5 -94 -94 0 0 0 0 -95.5 -95 0 -95 -94.3333 0 -95 -94 0 -94.3333 0 -94.5 0 -95 -95 -95.5 -95.5 0 -96 -95 0 -95.5 -95 0 -95.5 0 0 -95 0 -95.5 -95 0 0 0 0 0 0 0 0 0 0 -95 0 0 -95.3333 0 -95 -95 0 0 0 -95 -95 0 -95 0 -96.5 -96 0 -96 0 0 -95.5 -95.5 -95.5 -95.5 -95 -95.5 0 0 0 -96 0 -96 -96 -96.5 -96 0 -96 -95 0 0 0 0 0 0 -97 -96.5 -96 -96.5 -96 0 -96.5 -96 -96 -96 0 -96 0 -97 0 0 -97 -96.5 -96.5 0 -96.5 -96 -96 -96 -96 0 0 0 0 0 0 -96 -96 0 -96 0 -96.5 0 -96.5 0 0 -95 0 -95 -98 0 -97 0 -97 -97 -96.5 0 0 0 0 0 -97 -97 -97 -97 -97 -97 -96.5 -87.8 0 0 0 0 0 0 0 0 0 -96.5 0 -97 0 0 -97 -97 -97 -97 0 0 0 -97 0 0 0 0 -97 0 -97.5 0 0 0 -97 -97 0 0 0 0 0 0 -98 -97 0 0 0 -98 -98 0 0 -98 -97 0 0 -98 -98 -98 -98 0 0 -97 0 0 0 -98 0 0 0 0 -98 0 0 0 -97 0 -98 0 -98 -98 -98 -98 -98 0 0 0 -98 -37 -98 0 -97 0 0 -99
0 0 0 0 0 0 0 0 0 0 0 0 0 0 0 0 0 0 0 0 0 0 0 0 0 0 0 0 0 0 0 0 0 0 0 0 0 0 0 0 0 0 0 0 0 0 0 0 0 0 0 0 0 0 0 0 0 0 0 0 0 0 0 0 0 0 0 0 0 0 0 0 0 0 0 0 0 0 0 0 0 0 0 0 0 0 -85.5 -85.5 -86 -86 -86.5 -86.5 0 -87 -87 -86.3333 -86.3333 0 -88 -88 -87.5 -87.5 -86.5 -86.5 -87 0 0 -87.3333 0 -88 -86.3333 -86.3333 0 0 0 0 0 0 0 0 0 0 0 -88.3333 -87 -86.8333 -86.8333 -87.5 -87.5 -87 0 0 -88.5 -88.5 -88 -87.8333 -87.8333 -87.5 -87.5 0 -87.5 -87.5 -88.5 -88.5 -87.5 -87.5 -87.5 -88 -88.1 -88.1 -87.5 -87.5 0 -88 -88 -88 -88.5 -88.5 -89 -89 -88 0 0 -89 -89 -89 -88.5 -88.5 0 0 0 0 0 0 0 0 0 0 0 0 0 -88.6667 -88.5 0 0 -89.5 -89.5 -88.5 -88.5 -88.5 -88 0 0 -89.5 -88.3333 0 0 0 0 0 0 0 0 0 0 0 0 0 0 -89.1667 -89 -89.5 -89.5 -90 -90.5 -90.5 -89 0 0 -90 -90 -90 -89 0 0 0 0 0 0 0 0 0 0 0 0 0 -89.6667 -90 0 0 -90 -90.5 -90.5 -90 -90 -90 0 -90.5 -90.5 0 0 0 0 0 0 0 0 0 0 -90 -90.6667 -90.6667 -90 0 0 -90 -90 -90.5 -90.5 -89.5 0 0 -91 -90.6667 -90.6667 -87 -91 -91 -91 0 -90.5 -90.5 -91 -91 -90 -90 0 0 0 -91 -91.3333 -91.3333 -90.5 0 -90.5 -90.5 -91 -90 0 0 -92 -90.3333 0 0 0 0 0 -91 -91 -91 -91 -91 -91.6667 -91.6667 -91 0 -91 -91 -91 0 -91.5 -91.5 -92 -91.5 -91.5 -91.5 -91 -92.2 -92.2 0 0 0 0 0 0 0 0 0 -91 -91.3333 -91.6667 -92 -92 -91 -91 -91 -92.5 0 0 0 0 0 0 -92 -91.5 -91 0 0 0 0 0 0 -92 -92 -92.5 -92.5 -93 -93 0 -93 -93 -92 -92 -92.5 -92.5 0 -92 -91.5 -91.75 -91.75 -92.3333 -92 -92.5 -92.5 -93 -92.5 -92 0 0 -93 -93 -91.5 -93.5 -93.5 -92 -92 0 0 0 0 -92 0 -92.5 -92.5 -93 -93 -93 -91.6786 -91.6786 -92 -92.5 -92 -92.4 -92.4 -93 -93 -93 -92.6 -92.6 -94 -93 -93 -93 -98.5714 -93.6667 -93.5 -92 -92 -92.5 -92.5 -93 -93 -93 -92 -92.6 -92.6 -94 -93 0 -93 -93.5 -93.5 0 -94 -93 -93 0 0 -93.6667 -93.3333 -93 -93 -93 -92.5 -92.5 -93 -93 -93 -93 -93.4286 -93.4286 -93 0 -93 -93 -93 -93.5 -93.5 -94 0 -94 -93 -93 -94.1667 -94.1667 -94 -94 -94 -94 -93 0 -94.4 -94.4 -94 -94 -93.6667 -93.5 0 -93.5 -94 -94 0 -93 -93 -93 -93 -93 -92.5 -92.5 -93 -94 -93 -93 0 -93 0 -93.5 -93.5 -93 -93 -94 -93 -93 -93 -93 -93 -93.5 -93.5 -94 -93 -94 -94 -93 0 -93 -93 -92.5 0 0 -94.1667 -95 -94.1667 0 -95 -94.5 0 -94 -94 0 -94.5 -94.5 -94.6667 -95.6667 -95 -95 0 0 -94 0 -94 0 -95 0 -94 0 0 0 0 0 -95 0 0 -94 0 -95 -94 0 -94 0 -94.5 0 -95 0 0 0 0 0 0 0 -95 -95 0 -95 0 0 0 0 0 -95 0 -95 -95 0 -95 0 0 -95.5 0 -96 0 0 0 -95.3333 0 -95.5 -95 -95.5 -95 0 -95 -95 0 -95 0 -96 -96 0 -96 -95.5 0 0 0 0 0 0 -95.5 -95 0 -95 0 0 0 0 0 -96 0 -96 -95.3333 0 -95.5 -95 0 0 0 -97 -96.5 0 -96.5 0 0 -96 -96 -96 -96 0 -96 0 -97 0 0 -97 -96.5 -96 0 -96.5 -96 0 -96 -96.6667 0 -96 0 -97 -96 0 -96 -96 0 -96 0 0 -97 -96.5 0 -92 -96 -19 -96 0 0 0 0 0 -97 -96.6667 -96 -96.5 -96.5 -96 0 0 0 0 0 0 0 -96.5 -87.8 -96.5 0 -97 0 0 -97 -97 -97 -97 -96.5 0 0 -97 0 0 0 0 0 0 0 0 0 0 0 0 0 0 0 -97.3333 0 -97 0 0 -97 0 0 0 0 -98 0 0 0 0 0 0 -98 0 -98 0 -98 -97 -97 0 -98 -98 0 0 0 0 0 0 0 0 0 0 0 -97 0 0 0 0 0 0 0 0 -98 0 0 -98 -98 -98 0 0 0 -98 0 -98 0 0 0 0 0
0 0 0 0 0 0 0 0 0 0 0 0 0 0 0 0 0 0 0 0 0 0 0 0 0 0 0 0 0 0 0 0 0 0 0 0 0 0 0 0 0 0 0 0 0 0 0 0 0 0 0 0 0 0 0 0 0 0 0 0 0 0 0 0 0 0 0 0 0 0 0 0 0 0 0 0 0 0 0 0 0 0 0 0 0 0 0 0 -86 -86 -86.5 -86.5 0 0 0 0 0 -86 0 0 -87.1667 -87.1667 -87.5 -87.5 -87 0 0 -87.3333 -87.3333 -88 -86.5 -86.5 -87.5 -87.5 0 -87.6667 -87.6667 0 0 0 0 0 0 0 -88 0 0 0 0 0 0 0 -88.5 -88.5 -88 -87.8333 -87.8333 -87.5 -87.5 -87.5 0 0 -88.5 -88.5 -89 -87.6667 -87.6667 -88 -87.8333 -88.1 -87.5 -87.5 -88 -88 -88 -88 -88.5 -88.5 -89 -89 -88 0 0 -89 -89 -89 -88.5 -88.5 -88.5 0 0 -89 -87.5 -87.5 -88.6667 -88.6667 -89 -88.8333 0 0 0 0 0 0 0 -89.5 -89.5 -88.5 -88.6667 -88.6667 -89 0 0 -89.5 -88.3333 -88.3333 -89 -89 -89 0 0 -89 -89.6667 -89.6667 -89.5 0 0 0 0 0 0 0 0 0 0 0 0 0 0 0 -90 -90 -89 0 0 0 0 0 0 -89.5 -89.5 -89.6667 0 0 0 0 0 0 0 0 0 -90.5 -90.5 0 -89.6667 -89.6667 0 -90.5 -90.5 -90 -89.6667 0 0 -90 0 0 0 0 0 0 0 -90.6667 -90 -90 -90 0 -90 -90.5 -90.5 -89.5 0 0 -91 -90.3333 -90.6667 -87 -91 -91 -91 0 -90.5 -90.5 0 -91 -89.6667 -89.6667 -90 0 0 -91 -91.5 -91.5 -92 -90 -90.5 -90.5 -91 -90 0 0 -92 -90.3333 -90.3333 -91 0 0 0 0 0 0 -91 -91 -91.3333 -91.6667 -91 0 -91 -91 -91 0 -91 -91 0 -91.6667 -91.6667 -91.5 -91 -91.5 -91.5 -91 -91 -91.5 -91.5 -92 -90 -90.6667 -90.6667 0 -91 -91.3333 -91.3333 -92 0 -91 -91 -91 0 -91.6 -91.6 -92 -91 0 0 0 0 0 0 0 0 0 0 0 -92 -92 0 0 -92.5 -92 0 0 0 -92 -92 -92.6667 -92.6667 0 -93 -91.5 -91.5 -91.5 -92 0 -91.5 -91.5 -93 -92.5 -92 0 0 -93 0 0 0 0 -92 -92 0 0 0 0 0 -93 -92.5 -92.5 -93 -92.5 -93 -91.9333 -91.9333 -92 -92.6667 -92 -92.5 -92.5 -93 -93 -93 0 0 -94 0 0 -93 -98.5714 -98.5714 -92.6667 -92 -92 -92.5 -92.5 -93 -93 -93 -92 -92.4 -92.6 0 -93 -93 -93 -93.5 -93.5 0 -94 -93 -93 0 0 -93.5 -93 -92.5 -93 -93 -92.5 -92.5 0 -93 -93 -93 -93.5 -93.5 -93 0 -93 -93 0 -93.5 -93.5 -94 0 -94 -94 0 -94.5 -94.5 -94 -94 -94 -94 -94 0 -94.5 -94.5 -94 -94 -94 -93.6667 0 -93.3333 -93.6 -93.6 -93 -93 0 0 0 0 -93.5 -93.5 -93 0 -93 -93 0 -93 0 -93.3333 -93.3333 -93 0 -94 -93 -93 -93 -93 -93 -92.5 -92.5 -93.6667 -93 -94 -94 -93 0 -93 -93 -93 -93.25 -93.25 -93.6667 -95 -94.5 -93.3333 -63.25 -94 0 -95 -94 -94 -94.5 -94.5 -94.6667 0 -95 -95 0 0 0 0 0 0 0 -94 -94 -94.5 -94.5 -95 0 -95 -95 0 0 0 0 0 0 0 0 -89 -94 -94 0 0 -94.5 -94.5 0 0 0 0 0 -95 0 -95 -95 -96 -95 -95 -95 -95 0 0 0 0 -95 0 0 0 0 0 -95 -95 -95.5 0 0 0 0 0 0 0 -95.5 -95 0 -95 0 -96.6667 -96 0 -96 -95 0 -96 -95.5 0 -95.5 -95 -95.5 0 -95 -95.3333 0 -96 -96.5 -96 -96.5 0 0 -96 -95.3333 0 0 0 -96 -95 0 0 -96 0 -96 -96 0 -96.5 -96 -96 -96 -96 -96 0 -97 -97 -70 0 0 -96.5 0 -96.5 -96 0 -96 -96 0 -97 0 -97 -96 0 -96 -96 0 -96 0 0 0 0 0 0 0 0 0 0 0 -0.5 0 0 0 -96.5 -96 0 -96.5 0 0 -97 0 0 0 0 0 0 0 0 0 -97 -97 -97 0 0 -97 -96 -96.5 0 -97 -97 0 -19.5 -20 0 -97 -96.5 0 0 -97 0 -97 -97 0 -97 0 -97.3333 0 -97 0 -97 -97 0 0 0 0 -98 -98 0 -97 0 -97 0 -98 0 -98 0 -98 0 0 0 0 0 0 0 -97 0 0 0 0 -98 -98 -97 0 0 0 0 0 -97 0 -98 -98 -98 -98 -98 -98 0 0 0 0 0 0 -98 0 -99 -98 -97 0 0 -99
0 0 0 0 0 0 0 0 0 0 0 0 0 0 0 0 0 0 0 0 0 0 0 0 0 0 0 0 0 0 0 0 0 0 0 0 0 0 0 0 0 0 0 0 0 0 0 0 0 0 0 0 0 0 0 0 0 0 0 0 0 0 0 0 0 0 0 0 0 0 0 0 0 0 0 0 0 0 0 0 0 0 0 0 0 0 0 0 -86 -86 0 0 -87 -87 -87 -85.8333 -85.8333 0 0 0 0 -87.1667 -87.5 -87.5 -86.5 0 0 0 0 -87.5 -86.5 -86.5 -87.6667 -87.6667 -86 0 -87.6667 0 0 0 -87.5 -87.5 0 0 0 0 0 -87.6667 -87.6667 0 0 0 -88.5 -88.5 -88 -87.8333 -87.8333 -87.5 -87.5 -87.5 0 0 -88.6667 -88.6667 -88.5 -87.3333 -87.6667 -88 -87.8333 -87.8333 -87.5 -87.5 -87.5 -87.8333 -87.8333 -88.5 -88.5 -89 -89 -89 -88 0 0 0 0 0 0 0 0 0 0 -89 -89.1667 -89.1667 -88.3333 -88.6667 -89 -88.8333 -88.8333 -89 -89.5 -89.5 -88.5 0 0 0 0 0 0 -88.6667 -89 0 0 -89.5 -88.5 -88.5 -89 -89 -89 0 0 -90 -89.3333 -89.6667 -89.5 0 0 -90 -89 -89 -89 -89.5 -89.5 0 -90.1667 -90.1667 -89 0 0 0 0 0 0 0 0 -88.5 0 0 -90 -89.5 -89.5 -89.6667 0 0 -90 -90.5 -90.5 -89.5 -89.5 -89.5 -90 0 0 -89.5 0 -89.6667 0 -90.5 -90.5 -91 -89.5 0 0 -90 0 0 -91 -89.4 0 0 0 0 0 0 0 0 0 0 0 -89.5 0 0 -91 -90.3333 -90.3333 -88.5 -90.5 -90.5 -90.5 0 -90.5 -90.5 0 0 0 -89.6667 -90 0 0 -91 -91.5 -91.5 -92 -90 0 0 0 0 0 0 -91.5 -90.5 -90.5 -91 0 -91.5 -91.5 -92 -90.6667 -90.6667 -91 -91 -91.3333 -91.3333 -91 -90.5 -90.5 -90.5 -91 -90 -90.5 -90.5 0 -91.3333 -91.6667 -91.5 0 -91.5 -91.5 -91 -91 0 0 -92 -91.5 -90.3333 -90.6667 0 -91 -91.5 -91.5 0 -92 -91 -91 -91 0 -91.6 -91.6 -92 -91 0 0 -93 -91.5 -91 0 0 0 0 0 0 -92 0 -92.5 -92.5 -92.5 -92 -91 0 0 -92 -92 -92.3333 -92.6667 0 -93 -91.5 -91.5 -91.5 -92 -92 -91.5 -91.5 0 -93 -92 0 0 -93 -93 0 -93.5 -93.5 -92 -92 -92 -92.3333 0 -93 0 0 -92.5 -92.5 0 0 -93 -93.5 -93.5 0 -92.6667 0 0 0 0 -93 0 0 0 0 -93 -93 -93 -93.5 -93.5 -93.5 -92 0 -92.5 -92.5 -93 -93 -93 -92 -92.4 -92.4 -94 -93 -93 -93 -93.5 -93.5 -93 -94 -93 -93 0 0 -93.5 -93.3333 -92.6667 0 -93 -92.5 -92.5 0 -93 -93 -93 -93.4286 -93.4286 -93 0 0 -93 0 0 0 -94 0 -94 -94 -93 -94.1667 -94.1667 -94 -94 -94 -94 -94 0 -94.5 -94.5 -94 -94 -94 -93.6667 -93.5 -93.3333 -93.6 -93.6 -93 -93 -93 -87.75 -93 -93 -93.5 -93.5 0 -94 -93 -93 0 -93 -93 -93.3333 -93.3333 -93.6667 0 -94 -93 -93 -93 -93 -93 0 0 -94 -93 0 -94 -93 0 -93 -93 0 -93.3333 -93.3333 -93.6667 0 -94 -93.3333 0 -94.5 0 -95 -94 0 -94 -94.5 -94.5 0 -95 -95 0 -95 -94 0 -94.5 -94 0 -94 -94 -94.5 -94.5 -94.75 -94 -95 -95 0 -95 -94 0 -95 -94 0 0 0 0 0 -94 -95 -94.6667 0 0 -95.5 -95.6667 0 -96 -95 0 -95.5 -95 0 -95 -95 -95 -95 0 -95 -95 0 -95 0 0 0 0 -96 0 0 0 0 0 0 0 -95.5 -95 -95 0 -95 0 -95 0 -96.5 -96 0 0 0 0 -96 -95 0 -95 -95 -95.5 -95 -95 -95.3333 0 0 -96 -96 -96.5 -96 0 -96 -95.6667 0 -95.6667 0 0 0 0 0 -96.5 0 -96.5 -96 0 -96 -96 0 -96 0 -96 0 -97 -97 0 0 0 0 0 0 0 0 0 0 0 -97 0 -97 -96 0 -97 0 -97 -96 0 0 -97 -96.5 0 0 -97.5 -96.5 -97.5 -98.5 0 0 0 -97.5 -97 -96.5 -96 -96.5 -96.5 0 0 -97 -97 -97 0 -97 -97 -10.5 -96 0 0 0 0 0 -97 -34.6667 0 0 0 0 -97 0 0 0 0 0 -97 -96.5 0 0 -97 0 -97 -97 0 1.5 -2 -97.5 0 -97 0 -97 0 0 0 0 0 0 0 0 -97 0 -97 0 0 -98 0 0 -98 -97 -97 0 -98 -98 0 -98 0 0 0 0 0 -98 -98 -97 0 0 0 0 0 -97 0 -98 -98 -98 0 0 -98 0 -98 -98 0 0 0 -98 0 -99 0 0 0 0 -99
0 0 0 0 0 0 0 0 0 0 0 0 0 0 0 0 0 0 0 0 0 0 0 0 0 0 0 0 0 0 0 0 0 0 0 0 0 0 0 0 0 0 0 0 0 0 0 0 0 0 0 0 0 0 0 0 0 0 0 0 0 0 0 0 0 0 0 0 0 0 0 0 0 0 0 0 0 0 0 0 0 0 0 0 0 0 -85.5 -85.5 0 0 -87.6 -87.6 -86.5 -86.5 -86.5 -87.5 -87.5 -86.25 0 0 0 0 0 0 0 0 0 0 0 0 0 0 0 -87.6667 -86 0 0 0 0 -87 0 0 0 0 0 0 0 0 -87.6667 0 0 0 0 0 -88 -88 -88 -87.5 -87.5 0 0 0 -88.3333 -88.6667 -88.5 -87.3333 -87.3333 0 -88 -88 -88.5 -88.5 -87.6667 -87.5 -87.5 -88.5 -88.5 -89 -89 -89 -88 0 0 -89 -89 -89 -88 -88 -88 -88.5 -88.5 0 -89.1667 -89.1667 -88.3333 -88.3333 -89 0 0 -89 -89.5 -89.5 -88.5 -88.6667 -88.6667 0 0 0 0 0 0 -88 -88 0 -89.5 -89.5 -89 -89.1667 -89.1667 0 0 -90 -89.3333 -89.3333 -89.5 0 0 -90 -89 -89 -89 -89.6667 -89.6667 0 -89.8333 -90.1667 -89 -89.5 -89.5 -90 0 0 -90 -89.5 -89.5 -88.3333 0 0 -90 -89.5 -89.5 -89.5 -89.5 -89.5 0 -90.5 -90.5 -89.5 -89.5 -89.5 0 -90.5 -90.5 -89.5 0 0 0 0 0 0 0 0 0 0 0 0 -91 -89.4 -89.4 0 -90.5 -90.5 -89.5 -89.5 -89.5 0 -90 -90.6667 -90.6667 -91 0 0 -91 -90.5 -90.5 -88.5 0 0 0 0 0 0 0 0 0 0 0 0 0 0 0 0 0 0 0 0 0 0 0 0 -91.5 -90.5 -90.5 -91 0 -91.5 -91.5 -92 -90.3333 -90.6667 -91 0 0 0 0 0 0 0 0 0 0 0 0 -91.3333 -91.3333 -91.5 0 -91.5 -91.5 -91 -91 0 0 -92 -91.5 -90.3333 -90.3333 0 -91 -91.5 -91.5 0 -92 -92.5 -92.5 -91 -91 -91.3333 -91.6 -92 -91 0 0 -93 -91.5 -91 0 0 -92 -92 0 0 0 0 0 0 -92.5 -92 -91 -91.5 -91.5 -92 -92 -92.3333 -92.3333 -93 -93 -91.5 -91.5 -91.5 -92 0 0 0 0 -93 0 0 0 0 0 0 0 0 -93 0 0 -92.3333 -92.3333 -93 0 0 -92.5 -92.5 0 0 -93 0 0 0 -92 -92 -92.5 -92.5 0 -93 0 0 0 0 -93 -93 -92.5 -93 -93 -93 -94 0 -92.5 -92.5 -93 -93 -93 -92 -92.5 -92.5 -94 -93 0 -93 -93.5 -93.5 -93 0 -93 -93 0 0 -94 -94 -93.5 -93 -93 -92.5714 -92.5714 0 -93 -93 0 -93.6 -93.6 -94 0 -93 -93 -93 -93.6667 -93.6667 -94 0 -94 -94 -93 -93.5 -93.5 -94 -94 -94 -94 -94 0 -94.5 -94.5 -94 -94 -93.6667 -93.5 -93.5 -93.5 -94 -93.6 -93 -93 -93 -87.75 0 -93 -93.5 -93.5 0 -94 -93 -93 0 -93 -93 -93.5 -93.5 -94 0 -94 -93 -93 0 -93 0 0 0 -93.6667 0 -94 -94 -93 0 -93 -93 -93 -93.5 -93.5 -94 0 -94 0 0 -95 0 -95 -94 -94 -94 -94.5 -94.5 0 -95 -95 0 -95 -94 0 -95 -94 0 -94 -94 0 0 -94.75 -95 0 -95 -94 0 -95 0 -95 -94 0 -94 -94 0 -94 0 -95 -95 -93.3333 -93.3333 -96 -96 0 -96 -95 0 -96 -95 0 -95 -95 0 -95 -95 -95 -95 0 -95 0 0 -96 0 -96 -95.5 -95 -96 -95 -95 -95.5 -95 -95.5 -95 -95 0 0 0 -95 -95 0 -96 0 -96 -95.5 0 -96 -95 0 -95 -95 0 -95 -95 -95 0 -96 -96 -96 0 0 0 -96 0 0 0 -95.6667 -96 -95.5 0 0 -96.5 0 -97 -96 0 -96.6667 -96 0 0 0 0 0 0 0 0 -96 0 0 0 0 0 0 -96 0 0 -97 0 0 -96 0 -97 0 0 0 0 0 -97 -96.5 0 -99.5 -96 -96 -96 -100 -99.5 0 0 0 0 0 0 -96.5 -96 0 0 -97 -97 -97 0 -97 0 0 -96.5 -96.5 0 0 -97 0 -97 -97 -97 -96 -96.3333 0 0 -97 0 -97 -97 0 -97 0 0 0 0 0 -97.5 -97 0 0 -97 -97 0 -97 0 -97 -97 0 -97 0 0 0 -97.5 0 -97 0 0 0 0 0 -98 0 -97 -9.33333 -97 0 -98 -98 0 0 -97 0 -98 0 0 -98 -98 -97 0 -97 0 -98 0 -97 0 0 0 0 0 0 -98 0 0 -99 -98 0 0 -98 0 -99 -98 -97 0 0 0
0 0 0 0 0 0 0 0 0 0 0 0 0 0 0 0 0 0 0 0 0 0 0 0 0 0 0 0 0 0 0 0 0 0 0 0 0 0 0 0 0 0 0 0 0 0 0 0 0 0 0 0 0 0 0 0 0 0 0 0 0 0 0 0 0 0 0 0 0 0 0 0 0 0 0 0 0 0 0 0 0 0 0 0 0 0 -85 -85 0 0 -87.6 -87.6 -86.5 -86.5 -86.5 -87.5 -87.5 -86.25 0 0 -87 -87 -87.5 -87.5 0 0 0 0 0 0 0 0 0 0 0 0 0 0 0 -87 0 0 0 0 0 0 0 0 0 -88 0 0 -88.5 -88.5 -87.5 -87.5 -87.5 -87.5 -87.5 -87.5 0 0 -88.3333 -88.3333 -88.5 -87.5 -87.5 0 0 0 0 0 0 0 0 -88.5 -88.5 -89 -89 -89 0 0 0 0 0 0 0 0 0 -88.5 -88.5 0 0 0 0 0 0 0 0 -89 -89.6667 -89.6667 -89 -89 -88.6667 0 0 -89.5 -89.5 -89.5 -89 -88 -88 0 -89.5 -89.5 -89 0 -89.1667 0 0 -90 -90.5 -90.5 -89 0 0 -90 -90.5 -90.5 -89 0 -89.6667 0 -89.8333 -89.8333 -89 -89.5 -89.5 -90 0 0 -90 -89.6667 -89.6667 -89.3333 0 0 -90 -89.5 -89.5 -89.5 -89.5 -89.5 0 -90.5 -90.5 -89.5 0 0 0 -90.5 -90.5 -89.5 -89.5 -89.5 0 0 0 0 0 0 0 0 0 0 -91 -89.4 -89.4 -90 -90.5 -90.5 -91 -89.5 -89.5 -90 -90 -90.3333 -90.6667 -91 0 0 -91 -85.8333 -85.8333 -87.6667 -89.5 -91 -91 0 0 0 0 0 -90.8333 -90.8333 0 -90.5 -90.5 -91 -91.5 -91.5 -91.5 -90 0 0 -91 -91 0 0 0 0 0 0 0 0 0 -92 -90.3333 -90.3333 -91 -91 -91.5 -91.5 -91 -90.5 0 0 -91 -91 0 0 0 0 0 0 -91 -91.5 -91.5 -92 -91 0 0 -92 -91.5 -90.5 -90.5 0 -91 -91.5 -91.5 -92 -92 -92.1667 -92.1667 -91 -91 -91.3333 -91.3333 -92 -91 0 0 -93 -91.5 -91 -91.6667 -91.6667 -92 -92 -92 -92 0 -92 -92.5 -92.5 -92.3333 0 -91 0 0 -92 -92 -92.5 -92.5 0 -93 -92.5 -91.5 -91.5 0 -92 -92.3333 0 0 0 0 0 0 -93 -92.6667 -92.3333 0 0 -93 -92 0 -92.5 -92.5 -93 -92 0 -92.5 -92.5 -93 -93 -92 -92.4 0 0 0 0 0 0 -93 -93 0 -92.5 -92.5 0 -93 0 0 0 0 -92.8 -94 -93.5 -92.5 -92.5 -93 0 -93 -92 -93.5 -93.5 -94 0 -93 -93.5 -93.5 -93.5 0 0 -94 -93 0 0 -93 -93 0 0 -93 -92.5714 -92.5714 0 -93 -93 -92.5 -93.5 -93.5 -93 0 -94 -93 -93 -93.3 -93.6667 -94 -94 -94 -94 -93 -94 -94 -94 -94 -94 -94 -94 0 -94.4 -94.4 -94 -94 -93.6667 -93.5 -93.5 -93.5 -93.4 -94 -93 0 -94 -93 0 -93 -93.5 -93.5 0 -94 -93 -93 0 -93 -93 -93.3333 -93.6667 -93.6667 0 -94 -93 -93 0 -93 -93 0 0 -94 0 -94 -94 -93 0 -93 -93 -93 -93.5 -93.5 -94 0 -94 -94 0 -95 0 -95 -94 -94 0 -94.5 -94.5 -95 -95 -95 0 -95 -94 0 -95 -91.6667 0 -94 -94 0 -94.4 -95 -95 -95 -95 0 -95 -95 0 -95 -94 0 -94 -94 -94 -94 -94 0 -95 -95.3333 -95.3333 -95.6 -96 0 -96 -95 0 -96 -95 -96 -95 -95 -96 -95 -95 -95 -95 0 -95 -95 -95 -95 0 -96 -96 0 -96 -95 0 -95.5 -95 -95 -95 -95 -95 -95 0 -95 -95 0 0 0 -96 -95 0 -96 -95.5 0 -95 -95 0 -95 -95 -95 -95 -96 -96 -96 -96 -96 0 0 0 0 0 0 0 -95 0 0 -96 0 -97 -96 0 -97 -96 0 -96 0 -96 -96 0 -97 -96 -96 0 0 0 0 0 0 -96 0 0 -97 0 -97 -96 0 -96.5 -97 0 0 -96 -96.6667 0 0 0 0 -96.3333 0 -97 -96.5 0 0 0 -97.5 0 -96.5 -96 -96.5 -96 0 -96.5 0 -10.5 -97 0 -97 0 -96 0 0 0 0 -97 0 -70 0 -97 -96 -96.3333 0 0 0 0 -27.5 -33 0 0 0 0 0 0 0 0 0 0 0 0 -97.5 0 -98 -98 0 0 0 0 -97 0 -98 -97.5 0 -98 0 -97 0 0 -98 -98 -98 -97 -97 -97 0 -98 -98 0 0 0 0 0 0 0 -98 0 0 0 0 0 -98 0 -97 0 0 0 0 0 0 0 0 0 0 0 0 0 -98 0 -99 -98 -97 0 0 -99
0 0 0 0 0 0 0 0 0 0 0 0 0 0 0 0 0 0 0 0 0 0 0 0 0 0 0 0 0 0 0 0 0 0 0 0 0 0 0 0 0 0 0 0 0 0 0 0 0 0 0 0 0 0 0 0 0 0 0 0 0 0 0 0 0 0 0 0 0 0 0 0 0 0 0 0 0 0 0 0 0 0 0 0 0 0 -86.6667 -86.6667 -85.5 -85.5 -86.3333 -87.6 -86.5 -86.5 -86.5 -87.5 -87.5 -86.25 -86.25 0 -87 -87 -87.6667 -87.6667 -88 -86.3333 0 0 0 0 0 0 0 0 0 0 0 0 0 0 0 0 0 0 0 -88.5 -88.5 -89 -89 -88 0 0 -88.5 -88.5 -87.5 -87.5 -87.5 -87.5 -87.5 -87.5 0 0 -88.5 -88.5 -88.5 -88.5 -88.5 0 -89.6667 -89.6667 -88.5 -88.5 0 0 0 0 0 0 0 0 0 0 0 0 0 -89 -89.3333 0 0 0 0 -89 -89 -89 0 0 0 -89.1667 -89.1667 0 0 -89.6667 -89 -89 -89 0 0 -89.5 -89.5 -89.5 -89 -89.5 -89.5 0 -89.5 -89.5 -89 0 0 0 0 0 0 0 0 0 0 0 0 0 -89 0 0 0 -90 -90 -89 -89.5 -89.5 -90 0 0 -90 -90.4 -89.6667 -89.3333 0 0 -90 -89.5 -89.5 -89.5 -89.5 -89.5 -90 -90.6667 -90.6667 -89.5 0 0 0 -90.5 -90.5 -89.3333 -89.5 -89.5 -90 -90.5 -90.5 -91 -89.5 -89.5 0 0 0 0 0 0 0 0 0 0 0 -91.1667 -91.1667 -90 -90 -90.3333 -90.3333 -91 0 0 -91 -90.5 -90.5 -91 0 0 0 0 0 0 -91 0 0 0 0 0 0 0 0 0 -91.5 -90 0 0 -91 -91 0 0 -91.5 -90.5 -90.5 -91 0 0 0 0 0 0 0 0 0 0 -91 -90.5 0 0 -91 -91 -90.5 -90.5 0 -91.5 -91.5 -91.6667 0 -91.5 -91.5 -92 -91 0 0 -92 -91.5 -90.5 -90.5 0 -91 -91.5 -91.5 -92 0 -91.8333 -92.1667 -91 -91 0 0 -92 -92 0 0 0 0 0 0 -91.6667 -92 -92 -91.5 -91.5 0 -92 -92 -92 -92.5 -92 -91 -91.3333 0 0 0 0 0 0 0 -92.5 -91.5 -91.5 0 -92 -92.3333 -92.3333 0 -93 -92 0 0 0 -92.5 -92 -91.5 -91.5 -93 -92 -92 0 0 -93 -92 0 -92.5 -92.5 -93 -92.5 -92 -92.4 -92.4 -93 -92 0 -92.5 -92.5 0 -93 0 0 0 0 -93 -93 0 -93 -93 -93 -92 0 -92 -92.6667 -92.6667 0 0 0 -93.5 -93.5 0 0 0 0 -93.5 -93.5 -94 0 -94 0 -94.5 -94.5 -94 -93 0 -93.5 0 -92.5 -92.5714 -94 -93 -93 0 -93.5 -93.5 -93 0 0 0 0 -93.3 -93.3 -94 -93.3333 -94 0 -93 0 -93.5 -93.5 -94 -94 -94 -94 -93 -94.5 -94.5 -93.6667 -93 0 -93 -93 -93 -93.4 -93.4 -93 -93 0 -93 0 -93 -93 -93 -93 -94 -94 -93 0 -93 -93 -93.3333 -93.5 -93.5 -93 -94 -94 -93 0 -93 0 0 -93.6667 -93.6667 0 -94 -94 -93 0 -93 -93 -93 -93.5 -93.5 -94 0 -94 -94.3333 0 -95 0 -95 -94 -94 0 -94.5 -94.5 -95 -95 -95 0 -95 -95 0 -95 -94 0 -95 -94 0 -94.5 -94.4 -95 0 -95 -94 -95 -95 0 -95 -94 0 -94 -94 0 -94 -94 0 -95 -95 -95.6 -95.6 -96 0 -96 -96 0 -96 0 -96 -95 -95 0 -95 -95 -95 -95 0 -95 -95 -95 -95 0 -96 -96 -95 -96 -95 -95 0 -95 -95 -95 -95 -95 -95 0 -95 0 0 0 0 -96 -96 0 -96 -95 0 -95 -95 0 -95 -95 -95 0 -95.5 -96 -96 -96 -96 -96 -96 -96 0 -96 -96 0 0 0 0 0 0 -97 -96 0 -97 -96 -97 -96 0 -96 -96 0 -97 -96 -96 -96.5 0 -96 -96 0 0 0 -96 0 -97 -97 -97 -97 0 -97 -96.5 -97 0 0 -96 0 -97 0 -94.5 -96.5 -96.6667 -96.6667 -98.5 -94.5 0 0 0 0 -96.5 -96 0 -96.5 0 -96.5 0 0 -97 0 -97 -97 -96 0 -97 0 0 -97 0 -97.5 -97 -96.5 0 -96.5 0 0 0 0 0 0 0 0 0 0 0 -97.5 0 -98 -98 0 0 -54.5 -97 -98 -98 0 -97.5 0 -97 0 0 0 -98 -98 -98 -98 -97.5 0 0 0 0 -98 -98 0 0 0 0 -98 -98 0 -97 -97 -97 0 0 0 -40 0 -97 0 -98 0 0 0 0 0 -98 0 0 0 0 0 0 0 0 0 0 0 -99 0 -99 -98 -97 0 0 -99
0 0 0 0 0 0 0 0 0 0 0 0 0 0 0 0 0 0 0 0 0 0 0 0 0 0 0 0 0 0 0 0 0 0 0 0 0 0 0 0 0 0 0 0 0 0 0 0 0 0 0 0 0 0 0 0 0 0 0 0 0 0 0 0 0 0 0 0 0 0 0 0 0 0 0 0 0 0 0 0 0 0 0 0 0 0 -85.7 -86.6667 -85.5 -85.5 -86.3333 -86.3333 -86.5 -86.5 -86.5 -87.5 -87.5 -86.5 -86.5 0 -87 -87 -87.3333 -87.6667 -88 -86.3333 -86.3333 -87.5 -87.5 -87.6667 -86.5 -86.5 -87 -87 -86 0 0 -87.8333 0 0 0 0 -88 -88 0 -88.5 -88.5 0 0 -88 -87 -87 0 0 -87.5 -87.5 -87.5 -87.5 -87.5 -87.5 0 0 -88.5 -88.5 -88.5 -88.6667 -88.6667 -88 0 -89.6667 -88.5 -88.5 -89 -87.5 -87.5 0 0 0 0 0 0 0 0 0 0 -89 -89.3333 -89.3333 -88 -88.5 -88.5 0 -89 -89 -88.6667 -88.6667 -89 -88.8333 -89.1667 0 0 0 0 0 0 0 0 0 0 0 0 -88 -88 0 -89.5 -89.5 -89.5 -89.5 -78 0 0 -90 -90.5 -90.5 -89 -89.5 -89.5 0 0 0 0 0 0 0 0 0 0 -89.5 -89.5 -90 0 0 -90 -90.4 -90.4 -89.5 -89.5 -89.5 -90 -90.5 -90.5 -89.5 -89.6667 -89.6667 0 -90.3333 -90.6667 -89.5 -89.5 -89.5 -90 -90.5 -90.5 -89.6667 -89.5 -89.5 0 -90.5 -90.5 0 -89.5 -89.5 -90 -90 -90.5 -90.5 -91 -89.5 -89.5 0 0 0 0 -91.1667 -91.1667 -90 -90 -90.5 -90.5 -91 0 0 -91 -90.5 -90.5 -88.5 -89.5 0 0 0 -90.5 -90.5 -91 0 0 -91.5 -90 -90.6667 -90.6667 -91 0 0 0 -90 0 0 -92 -91 0 0 0 -90.6667 -90.6667 -91 0 0 0 -92 -90.5 -90.5 0 0 0 0 0 0 0 0 -91 -91 -90.5 -90.5 0 -91.1667 -91.1667 -91 0 -91.6667 -91.6667 -92 -91 0 0 -93 -91.5 -90.5 -90.5 0 -92 -91.5 -91.5 -92 0 -91.8333 -91.8333 -92 -91 0 0 -92 -92 0 0 -93 -91 -91 0 0 0 0 0 0 0 -92 -92.1 -92.1 0 -92 -91 -91.3333 -91.3333 0 -92 -92.5 -92.5 0 -93 -92.5 -91.6667 -91.6667 0 -92 -92.5 -92.5 0 -93 -92 -92.5 -92.5 -93 -92.5 -92 -91.5 -91.5 0 -93 -92 0 0 -93 -93 0 -93.5 -93.5 -93 -92.5 -92 -92.4 -92.4 -93 -92 -92 -92.5 -92.5 -93 -93 -93 0 0 0 0 0 0 0 0 0 -92 0 -93 -92.3333 -92.6667 -93 0 0 -92.5 -92.5 0 -94 -93 0 -93.6667 -93.6667 -94 0 -93.5 0 0 0 -94 -93 -93 0 0 -92.3333 -92.5 0 -93 -93 -93 -93.5 -93.5 -94 0 0 0 0 0 0 -94 -94 -94 -94 0 0 -93.5 -93.5 -94 -94 -94 0 -93 -94.5 -94.5 -93.6667 -93 -95 -93.3333 -93.5 -93 -94 -94 -93 -94 -95 -93 0 -93 -93 -92.75 -92.75 -94 -94 -93 0 -93 0 -93 -93.5 -93.5 0 0 -94 -93 0 -93 -93 -93 -93.6667 -93.6667 -94 -94 -94 -93 0 -93 -93 -93 -93.3333 -93.6667 -93.6667 0 -94 -94.3333 0 -94.5 0 -95 -95 -94 -95 -94.5 -94.5 -95 -95 -95 0 -95 -95 0 -95 -91.6667 0 -95 -94 0 -94.4 -94.5 -95 0 -95 -94 -95 -95 0 -95 -94 0 -95 -94 0 -94 -94 0 -95 -95 -95.5 -95.5 -96 0 -96 -96 0 -96 0 -96 -95 -95 -96 -95 0 -95 -95 -95 -95 -95 -95 0 0 -96 -96 -95 0 -95 -95 0 0 0 -95 -95 -95 -95 0 -95 0 0 0 0 -96 -96 0 0 -95 0 -96 -95 0 -95 -95 0 -95 -96 -96 -96 -96 -96 -96 -96 -96 0 -96 -96 0 -96 0 -96 -96 0 -97 -96 0 -97 0 -97 -96 -96 0 -96 0 -96 -96 -96 -96 -96 -96 -96 -96 0 -96 -96 0 -97 -97 -97 -97 -97 -97 -97 -97 0 -96 0 0 -97 0 -94.5 -95 -96.5 -96.5 -100 -94.5 0 0 0 0 0 -96 -96.5 -96.5 0 -96.5 0 0 -97 0 0 0 0 0 0 0 0 -69 0 -98 -35.5 -96 -96 -96.5 0 0 0 0 -10 0 0 0 0 0 0 0 0 0 -97 0 0 -97 0 -98 -98 0 0 0 -97 0 -97 0 -98 -98 -39.5 0 -97.3333 -97 0 0 0 -98 -98 0 -97 0 0 0 -98 0 0 -97 0 -98 0 0 0 -98 -97 0 -98 0 -98 0 -98 -98 -98 0 0 0 -98 -98 -98 0 -99 -98 0 0 -99 0 0 -98 -98 0 0 -99
0 0 0 0 0 0 0 0 0 0 0 0 0 0 0 0 0 0 0 0 0 0 0 0 0 0 0 0 0 0 0 0 0 0 0 0 0 0 0 0 0 0 0 0 0 0 0 0 0 0 0 0 0 0 0 0 0 0 0 0 0 0 0 0 0 0 0 0 0 0 0 0 0 0 0 0 0 0 0 0 0 0 0 0 0 0 -85.7 -85.7 -85.7 -85.7 -86.5 -86.5 -86.5 0 0 -87.6667 -87.6667 0 0 0 -87 -87 -87.3333 -87.3333 -88 -86.5 -86.5 -87.5 -87.5 -87.5 -86.5 -86.5 -87 -87 -86.75 0 0 -87.8333 -87.8333 -87 -87.5 -87.5 0 0 0 -88.5 -88.5 -89 -89 -88 -87 -87 0 0 -87.5 -87.5 -87.5 -88.5 -88.5 -87.5 0 0 -88.5 -88.5 -88.5 -88.3333 -88.6667 -88 0 0 -88.5 -88.5 -89 -87.5 -87.5 0 0 0 -89 -89 -88 0 0 0 0 0 0 0 0 0 0 -89.5 -89.5 -89.5 -88.3333 -88.6667 -89 -88.8333 -88.8333 0 -89.5 -89.5 -88.8333 -88.8333 -89 0 0 0 -90 -90 0 -88 -88 0 0 0 -89.5 -89.5 0 0 0 -90 -90.5 -90.5 -89 -89.5 -89.5 -90 -90 -90 -89 -89.5 -89.5 0 -90 -90 -18.5 -89.5 -89.5 -90 0 0 -90 -90.4 -90.4 -89.5 0 0 0 0 0 0 0 -89.6667 0 -90.3333 -90.3333 -89.5 -89.5 -89.5 0 -90.5 -90.5 -91 -89.6667 -89.6667 -90 -90.5 -90.5 0 -89.5 -89.5 -90 0 -90.5 -90.5 -90.5 -89.5 -89.5 0 -91.3333 0 0 0 0 0 0 0 0 0 0 0 -91 -90.5 -90.5 -88.5 -89.5 -91 -91 0 -90.5 -90.5 -91 0 0 -91 -90 -90.4 -90.6667 -91 -91.5 -91.5 -91.5 -90 0 0 -92 -91 -91.5 -91.5 0 -90.3333 -90.6667 -91 -91 0 0 -91.5 -90.5 -90.5 -91 0 0 0 0 0 0 0 0 0 -90.5 -90.5 0 -92.5 -92.5 -91 0 0 -91.6667 -92 -92 -91.5 -91.5 0 -91.5 0 0 0 0 0 0 -92 0 -91.8333 -91.8333 -92 0 0 0 -92 -92 0 0 -93 -91 -91 -91.5 -91.5 -92 -92 -91.5 -91.5 0 -92 0 0 0 -92 -91 -91.5 -91.5 0 -92 -92.5 -92.5 -92 0 -92.5 -91.3333 -91.6667 0 -92 -92.5 -92.5 0 -93 -92 -92.5 -92.5 0 -92.5 -92 -91.5 -91.5 0 -93 -92 0 0 -93 -93 0 -93.6667 -93.6667 -93 0 0 0 0 0 0 0 0 0 0 0 -93 0 0 -94 -93 -93 -92.5 -92.5 -92.5 -93 0 0 0 -92.3333 -92.3333 -93 -93 0 0 0 0 0 0 0 0 -93.6667 0 0 -94 -92 0 0 -94 -93 -93 0 -93 -92.3333 -92.3333 0 -93.5 -93 -93 -93.5 -93.5 0 0 0 0 0 0 0 0 0 0 0 0 0 0 0 -94 -94 -94 -94 -93 0 0 -93.6667 -93 -95 0 0 -93.3333 -94 -94 -93.3333 -94 -95 -93 0 -93 -93 -93.5 -92.75 0 -93.5 0 0 -93 0 -93.3333 -93.5 -93.5 -93.5 -94 0 -93 0 -93 -93 -93 -93.5 -93.5 -94 0 -94 -93 0 -94 -93 -93 -93.25 -93.6667 -93.6667 -95 -94.5 -94.5 0 -94.5 0 -95 -95 -94 -95 -94.5 -94.5 -95 -95 -95 -95 -95 -95 0 -95 -94 0 -95 -94 0 -94.4 -94.4 -95 -95 -95 0 -95 -95 0 -95 -94 0 -95 -94 0 -94 -94 0 -95 -95 -95.6 -95.6 -96 0 -96 -96 0 -96 -95 -96 -96 -95 0 -95 -95 -95 -95 -95 -95 -95 -95 0 0 -96 -96 -95 0 -95 -95 -95 -95 0 -95 -95 -95 -95 -95 -95 -95 0 -96 -96 -96 0 0 -96 -96 0 -96 -95 0 -95 -95 0 -95 0 -96 -96 0 -96 0 0 0 0 0 0 0 -96 -95 0 -97 -96 -97 -96 0 -97 -96 0 -96 -96 0 -96 0 -96 -96 -96 0 -96 -96 -96 -96 -96 -96 -96 0 -97 -97 -97 -97 -97 -97 -96.5 0 0 0 0 -97 -97 0 -94.5 -96.3333 -96.6667 -96.6667 -100 -94.5 -97 0 -96 0 -96.5 0 0 -96 0 -96.5 0 0 -97 0 0 -97 -16 0 -12.5 0 -97 0 0 -98 -64.3333 -96 -96 -96 0 0 -97 0 -98 -33.5 0 0 0 -15.25 0 -98 0 0 -97 0 0 0.6 0 0 0 0 0 0 0 0 0 0 -98 -98 -39.5 0 -97.3333 -97 0 0 -98 -7.25 -98 0 0 0 0 0 0 0 0 0 0 -98 0 0 0 -98 -97 0 -98 0 -98 0 -98 -98 -98 0 -99 0 -98 -98 -98 0 -99 -98 0 0 -99 0 0 0 0 0 0 0
0 0 0 0 0 0 0 0 0 0 0 0 0 0 0 0 0 0 0 0 0 0 0 0 0 0 0 0 0 0 0 0 0 0 0 0 0 0 0 0 0 0 0 0 0 0 0 0 0 0 0 0 0 0 0 0 0 0 0 0 0 0 0 0 0 0 0 0 0 0 0 0 0 0 0 0 0 0 0 0 0 0 0 0 0 0 0 -87 -87 -87 -86.5 -86.5 -86.5 -86.5 -86.5 -87.3333 -87.6667 0 0 0 0 0 0 0 0 0 0 -87.6667 -87.6667 0 0 0 -87 -87 -86.75 -86.75 -86.75 0 0 -87 -87 -87 -87.5 -87.5 -88 -88 -88 -89 -89 -88 -87 -87 -87 -87 0 0 0 0 0 0 0 0 -88.5 -88.5 -88.5 -88.3333 -88.3333 -87.5 0 0 -88.5 -88.5 -89 -87.5 -87.5 -88.5 -88.5 0 -89 -89 -88 -88 -88 -88.5 -88.5 -89 -89.5 -89.5 -89.5 -88.6667 -88.6667 -89.5 -89.5 -89.5 -88.3333 -88.3333 -89 -89 -89 0 -89.5 -89.5 -88.5 -88.5 -89 -89.5 -89.5 0 -90 -90 -89 0 0 0 0 0 0 0 0 0 0 0 -90.5 -90.5 -89 -89.5 -89.5 -90 -90 -90 -89 -89.5 -89.5 0 -90 -90 -18.5 -89.5 -89.5 -89.4 -88.5 -88.5 0 -90.5 -90.5 -89.5 -89.5 -89.5 -90 -90.5 -90.5 0 0 0 -89 0 0 -91 -89.5 -89.5 0 -90.5 -90.5 -91 -90.8333 -89.6667 -90 -90.5 -90.5 -91 0 0 0 -89 -90.5 -90.5 -90.5 -89.5 -89.5 0 -91.3333 -91.3333 -91 -91 -91 -90 0 -90.5 -90.5 -90.5 -89.6667 -89.6667 0 -90.5 -90.5 -88.5 -89.6667 -90.5 -90.5 0 -90.5 -90.5 -91 0 0 -91 -90 -90.4 -90.4 -91 -91.5 -91.5 -91.5 -90 -90.5 -90.5 0 -91.5 -91.1667 -91.1667 0 -90.3333 -90.3333 -91 -91 0 0 -91.5 -90.5 -90.5 -91 0 -91.3333 0 0 0 0 0 0 0 0 0 0 0 0 0 0 0 0 -92 -92 0 0 -93 -91 -91.5 -91.5 0 -92 -91.3333 0 0 0 0 0 -92 -91 0 0 -93 -92 0 0 -93 -91 -91 -91.5 -91.5 -92 -92 -91.5 -91.5 0 -93 -91.8333 0 0 0 0 0 0 0 0 0 0 0 0 -92.5 -91.3333 -91.3333 0 -92 -92.5 -92.5 0 -93 -92 -92.5 -92.5 -93 -92.5 -92 -91.5 -91.5 0 -93 -92 -92.5 -92.5 -93 -93 0 -93.3333 -93.6667 -93 -92.5 -92 -92.5 -92.5 -93 -92 0 -93.5 -93.5 -93 0 -93 -93.5 -93.5 0 -94 -93 -92.5 -92.5 -92.5 -93 -93 0 0 0 0 0 -93 -93 -92.5 -92.5 0 -94 -93 0 0 0 0 0 0 -93.5 0 -93.5 -93.5 -93 -93 0 -93 0 0 0 0 0 0 0 0 0 0 0 -94 -93 -93.5 -93.5 -94 -94 -94 -94 -94 -93 -93.5 0 0 -94.5 -94 -94 0 0 0 0 0 0 0 0 0 -94.5 -94.5 0 0 0 -93.5 0 -93 0 0 -93.5 0 -94 -93 0 -94 0 -93 -93.5 -93.5 -94 -94 -94 -93 0 0 0 0 -93.5 -93.5 -94 0 0 -93 0 -94 -93 -93 -93.25 -94.1667 -94.1667 -95 -94.5 -94.1667 -63.25 -94.5 -94 -95 -95 -94 0 -94.6667 -94.6667 -95 0 -95 -95 -95 -95 0 -95 -94.5 0 -95 -94 0 -94.75 -94.75 -95 -95 -95 -95 0 -95 -94 -95 -95 0 -95 -94 -94 -94 -94 0 -95 -95.3333 -95.5 -95.5 -96 0 -96 -96 0 -96 0 -96 -96 -95 0 -95 0 -95 -95 -95 -95 -95 -95 0 -96 -96 -96 -95 0 -95 -95 0 -95 0 -95 -95 -95 -95 -95 -95 -95 0 -96 -96 0 -96 0 -96 -96 0 -96 -95 0 -95 -95 0 -95 0 -96 -96 0 -96 -96 -96 -96 -96 -96 -96 0 -96 -95 0 0 0 -97 -96 0 -97 -96 0 -96 -96 0 -96 -96 -96 -96 -96 0 -96 -96 -96 -96 -96 -96 -96 0 -97 -97 -97 -97 -97 -97 -97 -96 0 0 0 -97 -97 0 -94.5 -96.5 -96.5 -96.5 -100 -97 -97 0 0 0 -97 -96 0 0 0 0 0 0 0 0 0 -97 -34.3333 0 -97 0 -97 -98 0 0 0 -96 -96 -97 -96 0 -97 0 -98 0 0 0 0 0 0 0 0 0 0 -97 -8.68627 -16.5 0 -98 -58.3333 0 0 0 0 -67 -97 0 0 0 0 0 0 0 0 0 0 -98 -97.5 -17 -97.5 -97 0 0 -98 -97 0 -97 0 -98 0 0 0 -98 -98 0 -98 0 -97 0 -98 0 -98 0 0 0 -98 0 -98 0 0 -98 0 0 -99 0 0 -98 -98 0 0 0
0 0 0 0 0 0 0 0 0 0 0 0 0 0 0 0 0 0 0 0 0 0 0 0 0 0 0 0 0 0 0 0 0 0 0 0 0 0 0 0 0 0 0 0 0 0 0 0 0 0 0 0 0 0 0 0 0 0 0 0 0 0 0 0 0 0 0 0 0 0 0 0 0 0 0 0 0 0 0 0 0 0 0 0 0 0 0 -87 -87.1667 -87.1667 -86.5 -86.5 -86.5 -86.5 -86.5 -87.3333 -87.3333 -86.5 -86.5 -87 -87 -87 -87.5 -87.5 -88 0 0 -87.3333 -87.6667 0 0 0 -87 -87 -87 -87.5 -87.5 -88 -88 -88.5 -87.1667 -87.1667 -87.5 -87.5 -88 -88 -88 -88.5 -88.5 -88 -88 -88 -88.5 -88.5 -87.5 -87.6667 -87.6667 -88.5 -88.5 0 0 0 0 0 0 0 0 0 0 0 -88.6667 -88.6667 -89 -87.5 -87.5 -88.5 -88.5 0 0 0 -89 -88 -88 -88.6 -88.6 0 -89.5 -89.5 -89.5 -88.3333 -88.6667 -89.5 -89.5 -89.5 -88.5 -88.5 -88.5 -88.5 -88.5 0 -89.5 -89.5 -90 -90 -89 -89.5 -89.5 0 -89.5 -89.5 -90 -89 -89 0 -89.5 -89.5 -89.1667 -89.1667 -89.3333 0 0 0 0 0 0 0 0 0 0 0 -89 -89.5 -89.5 -88.5 -90 -90 -90 -89.5 -89.5 0 0 0 0 0 0 0 0 0 -90 -90.5 -90.5 -89.5 -89.5 -89.5 0 0 0 0 0 0 -90 -90.5 -90.5 -91 -90.8333 -90.8333 -90 -90.5 -90.5 -91 -89.5 -89.5 -90 -90 -90.5 -90.5 0 -89.5 -89.5 -90 0 0 -91 -91 -91 -91 0 -90.6667 -90.6667 -90.5 -89.3333 -89.6667 0 -91.5 -91.5 -87.6667 -89.6667 -90.5 -90.5 0 0 0 -91 0 0 -91 -90 -90.4 -90.4 0 -91.5 -91.5 -91.5 -90 -90.5 -90.5 0 -91.3333 -91.5 -91.1667 0 -91.5 -91.5 0 0 0 0 0 0 0 0 0 -91.3333 -91.3333 -91 -91 0 0 -92 -91 -91.5 -91.5 0 -92.5 -92.5 0 0 0 0 0 -92 -91.5 -91.5 0 0 0 0 0 -92 -91.3333 -91.3333 -92 -92 0 0 0 0 0 0 -93 -92 0 0 -93 -91 -91 -91.5 -91.5 -92 -92 -91.5 -91.5 0 -93 -91.8333 -91.8333 -92 -92 -92 -91.5 -91.5 0 0 0 0 0 0 -92.5 -91.5 -91.5 -92 0 -92.5 -92.5 -93 -93 -93 -92.6667 -92.6667 -93 -92.5 -92 -91.5 -91.5 0 -93 -92 -92.5 -92.5 -93 -93 -92 -93.3333 -93.3333 -92.5 -92 -92 -92.5 -92.5 -93 -92 0 -93.6667 -93.6667 -93 0 0 0 0 0 0 0 0 0 0 0 -93 0 -93 -92.5 -92.5 -93 -93 -93 -92.5 -92.5 0 -94 -93 0 -93.5 -93.5 -94 -94 -93.6667 -93 0 -93.5 -93.5 -93 -93 0 -93 -92.5 -92.5 -93 0 -93 0 -93 -93.5 -93.5 0 0 0 -93 -93.5 -93.5 0 -94 0 -94 -94 -93 0 -93.5 0 0 0 0 0 0 0 -94 -93 0 0 0 0 0 0 0 -93 0 -93 0 -93 -93 0 0 -94 0 0 0 0 0 0 0 0 0 0 0 0 0 0 -93 -93 0 0 0 0 0 -94 0 -94 -93 0 -93 -93.5 -93.5 0 -94 -94.1667 -95 -94.5 0 -95 0 0 -95 -94.6667 -94.6667 -95 -95.6667 0 0 0 0 0 0 0 0 0 -94 -95 -94 -94.5 -94.5 0 -95 -95 -95 -95 -94 -95 -95 0 -95 -94 0 -95 0 0 0 0 0 0 -96 -96 -96 -96 0 -96 -95 -96 -96 -95 -96 -95 -95 0 0 -95 -95 -95 -95 -95 0 -96 -96 -95 0 -95 -95 0 -95 0 -95 -95 0 -95 -95 -95 -95 0 -96 -96 -96 0 0 -96 -96 0 -96 -95 0 -95 -95 0 -95 0 -96 -96 0 -96 -96 0 -96 -96 -96 -96 0 -96 -95 0 0 -96 -97 -96 0 -97 -96 -97 -96 -96 -97 -96 -96 -96 0 -96 0 -96 -96 -96 -96 -96 -96 -96 0 -97 -97 0 -97 0 -97 -97 0 0 0 0 0 0 0 -97 -97 -96.3333 -97.1667 -98.5 -97 -97 0 -97 0 0 0 0 -97 0 -97 0 0 -97 0 0 0 0 0 -97 -96 0 -98 0 -98 -97 -96 -96 -97 -96 0 -97 0 -98 0 -97 0 -97 0 0 -48 0 -98 -97 -97 0 -97 0 0 -98 -98 -98 -97 -97 -97 -97 0 -98 -98 -98 -97 -97 -97 -97 0 0 -98 -97 -97 0 -97 0 0 0 -97 0 0 0 -98 0 0 0 -98 -98 0 -98 -51 -97 0 -98 0 -98 0 0 0 0 0 0 0 0 -98 0 0 -99 0 -98 -98 -98 0 0 0
0 0 0 0 0 0 0 0 0 0 0 0 0 0 0 0 0 0 0 0 0 0 0 0 0 0 0 0 0 0 0 0 0 0 0 0 0 0 0 0 0 0 0 0 0 0 0 0 0 0 0 0 0 0 0 0 0 0 0 0 0 0 0 0 0 0 0 0 0 0 0 0 0 0 0 0 0 0 0 0 0 0 0 0 0 0 0 -87 -86.8333 -87.1667 -86.5 -86.5 0 0 0 -87.5 -87.5 -86.5 -86.5 -87 0 0 -87.5 -87.5 -88 0 0 -87.3333 -87.3333 0 -87.5 -87.5 0 0 0 0 0 0 0 0 -88.5 -87.1667 -87.5 -87.5 -88 0 0 -88.5 -88.5 -88 -88 -88 0 0 -89 -87.3333 -87.6667 -88.5 -88.5 -87 -87.5 -87.5 -88.5 -88.5 -88.5 -88.5 -88.5 -87.5 -87.5 -87.5 0 -88.6667 -89 -87.5 -87.5 0 0 -90 -88.5 -88.5 -89 -88 -88 -88.6 -88.6 0 -89.5 -89.5 -89.5 -88.3333 -88.3333 -89 -89 -89 -89.5 -89.5 -88.3333 -88.5 -88.5 0 -89.5 -89.5 -90 -90 -89 -89.5 -89.5 0 -89.5 -89.5 -90 -89 -89 0 -89.5 -89.5 -90.3333 -89.1667 -89.3333 -89.5 -89.5 -90 0 0 0 0 0 0 0 0 0 -89.5 -89.5 -88.5 0 0 -90 -89.5 -89.5 -89.5 -88.5 -88.5 0 -90.5 -90.5 -89.5 0 0 0 0 0 0 0 0 -89 -90.5 -90.5 -90.6 -89.5 -89.5 -90 -90.5 -90.5 -90.5 -90.5 -90.5 -90 0 0 -91 -89.5 -89.5 -90 -90 -90.5 -90.5 0 0 0 0 0 0 0 0 0 0 0 -90.3333 -90.6667 -90.5 -89.3333 -89.3333 0 0 0 -88.5 -91.8333 -90.1 -90.1 0 0 0 -91 0 0 -91 -90 -90.5 -90.5 0 -91.5 -91.5 -91.5 -90 -90.5 -90.5 0 -91.3333 -91.3333 -91.3333 0 -91.5 -91.5 -91 -91 0 0 -91.5 -91.5 -91.5 0 0 0 0 0 0 -90.5 -90.5 -91 -91 -91.6667 -91.6667 0 -92.5 -92.5 -91 -91 0 0 -92 0 0 0 0 -91 -91.3333 0 0 0 0 0 0 0 -91.5 -91.5 -92 0 0 0 -93 -92 -91.5 -91.5 0 -91 -91 0 0 0 0 0 0 0 -93 -92 -92 -92 -92 -92 -91.5 -91.5 0 0 -92.6667 -92.6667 0 0 0 0 0 0 0 0 0 0 -93 -93 -92.3333 -92.6667 -92.5 -92 -92 -91.5 -91.5 0 0 0 0 0 0 0 -92 -92.5 -92.5 -92.5 -92 -92 0 0 0 -92 0 -93.3333 -93.6667 -93 0 -93 -93.5 -93.5 -93 0 -92.5 0 0 0 0 -93 -92 0 -92.5 -92.5 -93 -93 -93 -92.5 -92.5 0 -94 -93 0 -93.5 -93.5 -94 -94 -93.5 -93 -92 -93.5 -93.5 -93 -93 0 -93 -92.5 -92.5 -93 0 -93 -93 -93 -93.6667 -93.6667 0 0 0 0 0 0 0 0 0 0 0 -93 0 0 -95 -94 0 -93.5 -93 0 0 -94 -93 0 -93 -93 0 -93.5 -93.5 -94 -93 0 -93 0 -94 -93 -93.5 -93.5 0 -94 0 0 -94 -93 0 -93.6 -93.6 0 0 0 0 0 -93 -93 -93 0 0 0 -94 0 0 0 -94 -93 -93 -94 -94 -94 -94 -94.5 -98.3333 0 -94.6667 -95 -95 -95 0 0 -94.5 -94.5 -94.5 -95.6667 -95 -95 -95 -95 0 -95 -95 -95 -95 -95 -95 -94 -94.5 -94.5 0 -95 -95 0 -95 0 0 0 0 -95 -94 -94 -95 -94 -94 -94.6667 -95 -95.5 -95.6667 0 0 0 -96 0 -96 -95 0 -96 -95 0 -95 -95 0 -95 -95 -95 -95 -95 -95 -96 -96 -96 -95 0 -96 -95 0 -95 0 -95 -95 0 -95 -95 -95 -95 0 0 -96 -96 -96 0 -96 -96 0 -96 -95 0 -96 -95 0 -95 0 -96 -96 0 -96 -96 0 -96 0 0 0 0 -96 -95 0 0 -96 -97 -96 0 -97 -96 0 -96 -96 0 -96 -96 -96 0 -96 0 -96 -96 0 -96 -96 -96 -96 0 -97 -97 -97 0 -97 -97 0 0 0 0 0 0 -97 0 -95.3333 -97 -9.5 -9.5 -98 -95.3333 -97 -97 -97 0 -97 -96 0 -97 0 -97 0 0 -97 -98 -96 -97 -96 0 -97 0 0 0 0 -98 0 -97 -96 -97 -21.5 0 0 0 -98 -97 -97 0 -97 0 0 -98 0 -98 -97 0 -8.5 0 0 0 -98 0 -98 0 0 0 0 0 -98 -98 -98 0 -97 -97 0 0 -98 -98 -97.5 -97 0 -98 0 0 -98 -97 0 -98 0 0 0 0 -98 -98 -98 -98 -98 0 0 0 0 0 0 0 0 0 -98 0 0 0 0 -98 0 0 -99 -99 -98 0 0 0 0 -32
0 0 0 0 0 0 0 0 0 0 0 0 0 0 0 0 0 0 0 0 0 0 0 0 0 0 0 0 0 0 0 0 0 0 0 0 0 0 0 0 0 0 0 0 0 0 0 0 0 0 0 0 0 0 0 0 0 0 0 0 0 0 0 0 0 0 0 0 0 0 0 0 0 0 0 0 0 0 0 0 0 0 0 0 0 0 0 -87 -86.8333 -86.8333 -86.5 -86.5 -86.4 -86.5 -86.5 -87.5 -87.5 -86.6667 -86.6667 -87 0 0 -87.5 -87.5 -88 -86.5 -86.5 -87.5 -87.5 0 -87.5 -87.5 -88.5 -88.5 -87 -87.5 -87.5 0 0 0 0 0 0 0 0 0 0 0 0 0 0 0 0 0 -89 -87.3333 -87.3333 -88.5 -88.5 -87 -87.5 -87.5 0 0 -88.5 -88.5 -88.5 -87.75 -87.5 -87.5 0 0 -89 -88.9 -88.9 -88.5 -88.5 -89.25 -88.5 -88.5 -89 -88 -88 -88.3333 -88.6 0 -89.5 -89.5 -89.5 -88.5 -88.5 -89 -89 0 -89.5 -89.5 -88.6667 -88.5 -88.5 0 -89.5 -89.5 -90 -90 0 0 0 0 0 0 0 0 0 0 -89.5 -89.5 -90.3333 -90.3333 -89 -89.5 -89.5 0 -90.5 -90.5 -90.5 -89.6667 -89.6667 -90 -89.8333 0 0 0 0 0 0 0 -90 -89.5 -89.5 -89.5 0 0 0 -90.5 -90.5 -89.5 -89.5 -89.5 -90 -90.5 -90.5 -90.5 0 0 0 0 0 -90.5 -89.5 -89.5 -90 -90.5 -90.5 -90.5 -90.5 -90.5 -90 -90.5 -90.5 0 -91 -91 -90 -90 -90.5 -90.5 -90.6667 -89.5 -89.5 -90 -90.5 -90.5 -90.5 -90.6667 -90.6667 -90 0 -90.3333 -90.3333 -90.5 -90.5 -90.5 -90 0 0 -88.5 -91.8333 -90.1 -90.1 -91.8333 0 0 -91 0 0 0 -91 -90.5 -90.5 0 0 0 -91 -90 -90.5 -90.5 0 -91.5 -91.5 -91.6667 0 -91.5 -91.5 -91 -91 -91.6667 -91.6667 -91.5 -91.5 -91.5 -91 -91 -91.5 -91.5 -92 -91.5 0 0 0 0 0 -91.6667 0 -92.5 -92.5 -91 -91 0 0 -92 -92 -91.5 -91.5 0 -92.5 -91.3333 -91.3333 0 -92 -92.5 -92.5 -92 -91.5 -91.5 -91.5 -92 -91 -91.3333 0 -93 -92 0 0 -92.5 -92 -91 -91.5 -91.5 -92 -92 -91.3333 0 0 0 0 0 0 0 0 0 0 0 -92 -92.3333 -92.6667 -93 0 -92 -91.5 -91.5 -92 0 -92.5 -92.5 0 0 0 -92.3333 -92.3333 -92.5 -92 -92 -91.5 -91.5 0 0 0 0 0 0 0 0 0 0 0 0 0 0 0 -93 0 0 -93.3333 -93.3333 0 -93 -93 -93 -92.5 -92.5 0 -94 0 -92.5 -92.5 0 0 0 0 0 0 0 0 0 0 0 0 -94 -93 0 -93.5 -93.5 -94 -94 0 -93 0 0 0 -93 -93 0 -93 -93.5 -93.5 -93 0 -93 -93 0 -93.3333 -93.6667 -93 0 -94 -93 -93 -93.5 -93.5 -94 -94 -94 -94 -93 0 0 -95 -94 0 -93 -93 0 0 -94 -93 0 -93 -93 -93 -93.5 -93.5 -94 -94 0 -93 0 0 -93 -93.5 -93.5 0 -94 -93 0 -94 -93 0 -93.6 -93.6 -94 0 0 0 0 0 0 0 -93.5 -93.5 0 -94 -94 -94 0 -93.5 -93 -93 0 -94 -94 0 -95 -94.5 0 0 -94 -94 0 0 0 0 0 0 0 -95 -94.5 -95 -95 -94.5 0 0 0 -94.5 -95 -95 -94 -94.5 -94.5 0 -95 -95 0 0 -95 -95 -95 0 0 0 0 0 0 0 -95 -95 -95 -95 -95.6667 -96 -96 -96 0 -96 -95.5 0 -96 -95 0 -95 -95 0 -95 -95 -95 -95 0 -95.5 -96 -96 -96 -95 -96 -96 -95 -96 -95.5 0 -96 -95 0 -95 -95 -95 0 0 0 -96 -96 -96 0 0 0 0 -96 -95 0 -96 -95 0 0 -96 0 -96 0 -96 0 0 0 0 0 0 0 0 0 0 0 0 0 -97 0 -97 -96 -97 -96 -96 -97 0 -96 -96 0 -96 0 -96 -96 0 -96 -96 -96 -96 0 -97 -97 0 -97 -97 -97 0 -96 -96 -96 0 -97 -97 -97 -97 -97 -96.5 -96.5 -98 -97 -97 -37 0 -97 -97 -96 0 -97 0 -97 0 0 0 -97 0 -97 -97 0 0 0 0 -98 0 -98 0 -97 0 -97 -8 0 -98 0 -98 -97 -97 0 -97 0 0 -98 0 -98 -98 -97 0 0 0 0 -98 0 -98 -97 -97 -97 -97 0 0 0 0 -97 -97 -97 0 0 -98 -98 -97 0 0 -98 0 -98 -98 -97 0 -98 0 0 0 -98 0 -98 -98 -98 -98 -98 0 0 -98 0 -98 0 0 0 0 0 -98 0 0 -98 -98 0 -99 -99 -98 -98 -98 0 0 -99
0 0 0 0 0 0 0 0 0 0 0 0 0 0 0 0 0 0 0 0 0 0 0 0 0 0 0 0 0 0 0 0 0 0 0 0 0 0 0 0 0 0 0 0 0 0 0 0 0 0 0 0 0 0 0 0 0 0 0 0 0 0 0 0 0 0 0 0 0 0 0 0 0 0 0 0 0 0 0 0 0 0 0 0 0 0 0 0 0 0 0 0 0 -88.3333 -88.3333 -87.5 -87.5 0 -86.6667 -87 0 0 -87.5 -87.5 -88 -86.5 -86.5 -87.5 -87.5 0 -87.5 -87.5 -88.5 -88.5 -87 -87.5 -87.5 0 0 0 0 -87.5 -87.6 -87.6 -88.5 -88.5 0 0 0 0 0 0 0 0 0 0 0 0 0 -87 -87.5 -87.5 0 0 -88.5 -88.5 -88.5 -87.75 -87.6667 -87.6667 0 0 -88.6667 -89 -89 -88.5 -88.5 -88.5 -88.5 -88.5 -89 -88 -88 -88.3333 -88.3333 -89 -89.5 -89.5 -89.5 -88.5 -88.5 -89 -89 0 0 0 -88.6667 -88.5 -88.5 0 -89.5 -89.5 -90 -90 -89 -89.5 -89.5 0 -89.5 -89.5 -90 0 0 0 -89.5 -89.5 -90.5 -90.5 -89 -89.5 -89.5 -88.6667 0 0 -90.3333 -89.3333 -89.6667 -90 -89.8333 -89.8333 -90 -90.5 -90.5 -89.5 -89.5 -89.5 0 -89.6667 -89.6667 -89.5 -88.3333 0 0 0 0 0 0 0 0 0 0 0 0 0 0 0 0 -90.5 -89.5 -89.5 -90 -89.5 -89.5 0 -90.5 -90.5 -90 -90.5 -90.5 0 -91 -91 -90 -90 0 0 -90.6667 -89.5 -89.5 -90 0 0 -90.5 -90.3333 -90.6667 -90 0 0 0 0 0 0 0 0 0 0 0 0 -90.1 -91.8333 0 0 -91 -91 -91 0 -91 -90.5 -90.5 0 0 0 -91 -90 -90.5 -90.5 0 -91.5 -91.5 -91.5 -91 -91.5 -91.5 -92 -91 -91.3333 -91.6667 -91.5 -91.5 -91.5 -91 -91 -91.5 -91.5 -92 -91.5 -90.5 -90.5 0 0 0 0 0 0 0 0 0 0 0 -92 -92 -91.5 -91.5 0 -92.5 0 0 0 -92 -92.5 -92.5 -92 -91.5 -91.5 -91.5 -92 -91 -91.3333 -91.3333 0 -92 0 0 -92.5 -92 -91 -91.5 -91.5 -92 -92 -91.3333 -91.3333 0 -93 -91.5 -91.5 -92 -92 -92 0 0 0 -92 -92.3333 -92.3333 -93 0 -92 -91.5 -91.5 -92 0 -92.5 -92.5 -93 0 0 0 0 -92.5 -92 -92 -91.5 -91.5 -92 -93 -92 -92.3333 0 -93 -93 -92 -92.5 -92.5 0 -92 -92 -92.5 -92.5 -93 -92 0 0 0 -93 0 0 0 0 0 0 0 0 -92.5 -92.5 -93 -93 -92 0 -93.5 -93.5 -93 0 -93 -93.25 -93.25 0 -94 -93 0 -94 -94 -94 -93.5 -93 -93 0 0 0 0 0 0 0 0 0 0 0 0 0 0 -93.3333 -93.3333 -94 0 -94 -93 -93 -93.5 -93.5 -94 -94 -94 -94 -93 0 0 0 0 0 0 0 0 0 -94 -93 0 -93 -93 -93 -93.5 -93.5 -94 -94 0 -93 0 0 -93 -93.5 -93.5 0 -94 -93 0 -94 -93 0 -93.3333 -93.6 -94 -94 -94 -94 0 -94 -93 -93 0 0 -94 0 -94 -94 0 0 -93 -93 -94 -93.5 -93.5 -94 -95 -94.5 0 -94 -94 -94 -94 0 0 -95 -94.6667 -94.6667 0 0 0 0 -95 0 -95 -95 -95 -95 -95 0 -95 -94.5 -94.5 0 -95.5 -95 -95 -95 -94.3333 -95 -95 0 -95 -95 0 -94.5 -95 0 0 0 0 0 -95.5 -95.5 -96 -96 0 -96 0 0 0 0 0 -96 -95 0 -95 -95 -95 -95 0 -95.5 -96 -96 -96 -95.5 -96 -96 -95 -96 -95.5 0 -95.5 -95 0 -95 -95 0 -95 -95 0 -96 -96 0 -95.5 -96 -96 0 -96 -95 0 -96 -95 0 0 -95.5 0 -96 -96 -96 -96 0 -96 -96 -96 -96 0 0 -96 0 -97 -96 -97 -97 0 -97 -96 0 -97 -96 0 0 -96 -96 0 -96 0 -96 -96 0 -96 -96 -96 -96 0 -97 -97 0 -97 -97 -97 0 0 0 0 0 0 0 -97 -97 -97 -9.5 -9.5 -98 -95.3333 -97 -97 -97 0 -97 -96 0 -97 0 -97 0 0 -98 -97 0 -97 0 0 -36 0 0 -98 0 -98 0 -97 0 0 -97 0 -98 0 0 -26 -12 0 -97 0 0 -98 0 -98 0 -97 0 -97 0 0 -98 0 -98 -97 -97 0 -97 0 -98 -98 -97 -97 -59.6667 -97 0 0 -98 -98 -97.5 -97 0 -97 0 -98 -98 -97 0 -98 0 -98 0 -98 0 -98 -98 -98 0 0 0 0 -98 0 -98 0 -97 0 -98 0 -98 0 0 -98 -98 0 -99 -98 -98 0 -98 0 0 0
0 0 0 0 0 0 0 0 0 0 0 0 0 0 0 0 0 0 0 0 0 0 0 0 0 0 0 0 0 0 0 0 0 0 0 0 0 0 0 0 0 0 0 0 0 0 0 0 0 0 0 0 0 0 0 0 0 0 0 0 0 0 0 0 0 0 0 0 0 0 0 0 0 0 0 0 0 0 0 0 0 0 0 0 0 0 0 0 -87.1667 -87.1667 -87.5 -87.5 0 -87.3333 -88.3333 -87.5 -87.5 0 0 0 0 0 0 0 -87.5 0 0 0 0 0 -87.5 -87.5 -88.5 -88.5 -87.5 -87.5 -88 0 0 0 0 -89 -87.6 -87.6 -88.5 -88.5 0 0 0 -87.5 0 0 0 0 0 0 0 0 0 0 0 0 0 0 -88.5 -88.5 -88.5 -87.75 -87.75 -87.6667 0 0 -88.5 -88.6667 -88.6667 -88.5 -88.5 -88.5 -88.5 -88.5 -89 -88 -88 -88.5 -88.5 -89 -89 -89 -89 -89.6667 -89.6667 0 0 0 0 0 0 0 0 -88 0 0 -90 -90 -89 -89.5 -89.5 0 -89.5 -89.5 -90 -89 -89 -89 0 0 -90.5 -90.5 -89 0 0 0 0 0 -90.3333 -89.3333 -89.3333 -90 -90 -90 -90 -90.5 -90.5 -89.5 -89.5 -89.5 -90 -89.3333 -89.6667 -89.5 -88.3333 -88.3333 0 -90.5 -90.5 -89 -89.5 -89.5 -90 -89.4167 -89.4167 -90.5 -89.3333 0 0 0 0 -90.5 -89.5 -89.5 -90 0 0 0 -90.5 -90.5 -90 -90.5 -90.5 0 -90.5 -90.5 0 0 0 0 0 0 0 0 0 0 -90.5 -90.3333 -90.3333 -90 -90 -90.5 -90.5 -90.5 -90.5 -90.5 -90 0 0 -89.3333 0 0 0 0 0 0 -91 -91 -91 0 0 -91.6667 -91.6667 0 0 0 0 0 0 0 0 0 0 0 0 0 0 0 -91 -91.3333 -91.3333 -91.5 0 0 0 -91 -91.5 -91.5 -92 -91.3333 -90.5 -90.5 0 -91 -91.5 -91.5 0 0 0 0 0 0 0 0 0 -91.5 -91.5 0 -92.5 -91.5 -91.5 0 -92 -92.5 -92.5 -92 -91.5 -91.5 -91.5 -92 -91 -91.5 -91.5 0 -92 -92.5 -92.5 0 -92 -92 -91.5 -91.5 -92 -92 -92.5 -92.5 0 -93 -91.5 -91.5 -92 0 -92 -92.6667 -92.6667 0 0 0 0 0 0 0 -91.5 -91.5 -92 0 -92.6667 -92.6667 -93 0 -93 -92.5 -92.5 -92.5 -92 -92 0 0 0 -93 -92 -92.3333 -92.3333 0 -93 -92 -92 -92 0 -92 -92 -92.5 -92.5 -93 -92 0 -93.5 -93.5 -93 -93 0 -93 0 0 0 0 0 -92.5 -92.5 -93 -93 -92 0 -93.5 -93.5 -93 0 -94 -93.25 0 0 -94 -93 0 -94.5 -94.5 -93.6667 -93.3333 -93 -93 -93 0 0 0 0 -93 -93 -93.5 -93.5 -93 0 -93 -93 0 0 0 0 0 0 0 0 0 0 0 0 0 -94 -93 0 0 -95 -93.5 0 -93 -93 0 0 -94 0 0 -93 -93 -93 -93.5 -93.5 -94 -94 0 -94 0 -94 -93 -93.5 -93.5 0 -94 -93 0 -94 -93 0 -93.3333 -93.3333 -94 -94 -94 -94 0 -94 -93 -93 0 0 -94 -94 -94 0 -95 0 0 0 0 0 0 0 -94 -94 0 -94 -94 -94 -94 0 -95 -95 -94.5 -94.6667 0 -95 0 -95 -95 -95 -95 -95 0 -95 0 -95 -95 -94.5 -94.5 -95 -95.5 -95 0 -95 -95 0 -95 -95 -95 -94.3333 0 -94.5 0 -94 -94 -94 0 0 0 0 0 0 0 0 0 0 0 0 0 0 -95 0 0 0 0 0 0 -96 -96 -96 -96 0 0 0 0 0 0 0 -95.5 -95 0 -95 -95 0 0 -96 -96 -96 -96 -96 -96 -96 -96 -95.5 -96 -96 0 -96 -95 0 0 0 0 -96 -96 -96 -96 0 -96 -96 -96 -96 0 -96 -96 -96 -97 0 -97 -97 0 -97 0 -97 -97 -96 0 0 0 -96 0 -96 0 -96 -96 0 -96 -96 -96 -96 0 -97 -97 0 -97 -97 -97 -96 -96 0 0 0 -97 -97 -97 -97 -98.5 -97.1667 -97.1667 -20 -97 0 -97 -97 -97 -97 -96 0 -97 0 -96 0 0 -98 -97 0 -97 -97 0 0 0 0 -98 0 -98 0 -97 0 0 -8 0 -98 0 -98 0 -97 0 -97 0 0 -98 0 -98 0 -97 -32 -97 0 0 -98 -98 0 0 0 0 -97 0 -98 -98 -97 -97 -97 -97 0 0 0 -98 0 -97 0 -97 0 -98 0 -98 0 -98 -98 -98 -98 -98 0 -98 -98 0 -98 -97 0 0 -98 0 0 -98 0 0 -98 0 -99 -98 0 -98 -98 0 -99 -98 -98 -98 -98 -98 0 -99
0 0 0 0 0 0 0 0 0 0 0 0 0 0 0 0 0 0 0 0 0 0 0 0 0 0 0 0 0 0 0 0 0 0 0 0 0 0 0 0 0 0 0 0 0 0 0 0 0 0 0 0 0 0 0 0 0 0 0 0 0 0 0 0 0 0 0 0 0 0 0 0 0 0 0 0 0 0 0 0 0 0 0 0 0 0 0 0 -87.1667 -87.1667 -87.5 -87.5 0 -87.3333 -87.3333 -87 -87 -87.5 -87.5 -86.5 -86.5 -86.5 -87.6667 -87.6667 -87.5 -87.5 -87.5 0 0 0 0 0 0 0 0 0 0 0 0 0 0 0 0 -87.6 -88.5 -88.5 0 -88.5 -88.5 -88 -88 -88 -88.5 -88.5 0 -89 -89 -88.5 -88.5 0 0 0 0 0 -88 -88.5 -88.5 -89.5 -89.5 -88 0 0 -88.5 -88.3333 -88.6667 -88.5 -88.5 -88.5 -88.5 -88.5 -89 -88 -88 -88.5 -88.5 -89 -89.1667 -89.1667 0 -89.3333 -89.6667 0 0 0 -89.5 -89.5 -90 -88.5 -88.5 -89 0 0 -90 -90 0 -89.5 -89.5 0 -89.5 -89.5 -90 -89.1667 -89.1667 -89 -89.5 -89.5 0 0 -89 -89.5 -89.5 0 0 0 0 -89.5 -89.5 0 0 0 -90 -90.5 -90.5 -89.5 -89.5 -89.5 -90 -89.3333 -89.3333 -89.5 -88.5 -88.5 0 -90.5 -90.5 -89 -89.5 -89.5 -90 0 -89.4167 -90.5 -89.3333 -89.3333 -90 0 0 -90.5 -90.5 -90.5 -90 0 0 0 -90.5 -90.5 -90 -90.5 -90.5 0 -90.5 -90.5 -91 -90 0 0 -90 -90.5 -90.5 -90 0 0 0 0 0 -91 -90 0 0 -92 -90.5 -90.5 -90 0 0 -89.3333 -92 -90 -90 -92 0 0 0 0 0 -91 -91 -91.3333 -91.6667 0 0 0 0 0 -90.5 -90.5 0 -91 -91 -91 -91 -91.3333 0 0 0 0 0 0 -91.5 -91.5 -91 0 0 0 0 0 -90.5 -90.5 0 -92 -91.5 -91.5 0 -92 -92 -91 -91 -91.6667 -91.6667 0 0 0 0 0 -92 -91.5 -91.5 -92 -92 -92.5 -92.5 -92 -91.5 -91.5 -91.5 -92 -92 -91.5 -91.5 0 -92 0 0 0 -92 0 -91.5 -91.5 -92 -92 -92.5 -92.5 0 0 0 0 -92 0 -92 -92.3333 -92.6667 -92 0 -92.5 -92.5 -93 0 -92 -92.5 -92.5 0 0 0 -92.6667 -93 -93 -93 -92 -92 -92 -92 -92 -91.5 -91.5 0 -93 -92 -92.5 -92.5 0 -93 -93 -91.9 -91.9 0 -92 -92 0 0 -93 -92 0 -93.5 -93.5 -93 -93 0 -93 -93.5 -93.5 0 0 0 0 0 0 0 0 0 0 0 0 0 0 -93.25 0 0 -94 -93 -93 0 0 0 0 0 0 -93 -92.5 -92.5 -93 -93 -93 0 0 0 0 0 0 0 0 -93.5 -93.5 -94 -94 -94 0 -93 0 0 -94 0 0 0 0 0 0 0 -93 0 -93 -93 0 -93.3333 -94 -93 0 -94 -93 -93 0 -93.5 -93.5 -94 0 -94 0 -94 -93 -93.5 -93.5 0 0 -93 0 -94 -93 0 -94.5 -94.5 -94 -94 -94 0 0 0 0 0 0 0 -94 -94 -94 -94 -94 -94 -93 -93 0 -93.5 -93.5 0 0 0 0 0 0 0 0 0 0 0 0 -94.5 0 -95 -95 0 -95 -95 -95 -95 0 -95 -95 0 -95 0 0 0 0 0 0 0 0 0 -95 -95 -95 0 0 0 -95 0 0 -94 0 0 -95.3333 -95.3333 -96 -95.5 0 -96 -95.5 0 -96 -96 0 -96 -95 0 -95 -95 -95 -95 0 -96 -95.5 -96 -96 -96 0 -95.5 0 0 0 0 0 0 0 0 -95 0 0 0 -96.5 -96 0 -96 0 0 -96 0 0 0 0 0 0 0 0 0 0 0 0 0 0 0 -96 -96 0 -96 -96 -96 -96 0 0 0 0 0 0 0 0 0 -97 -96 -95 0 -96 -96 0 -96 0 -96 -96 0 -96 -96 0 -96 0 -97 -97 0 -97 -97 -96 0 -96 0 0 0 -97 -97 0 -97 -97 -96.5 -96.5 -96.5 -97 0 -97 0 0 0 0 0 -97 0 -97 0 0 -98 -97 -96 -97 -97 0 -97 -97 0 -98 0 -97 0 -97 -96 0 -97 0 0 0 -98 0 -97 0 -97 -97 0 -98 0 -98 0 -97 0 -97 -97 0 -98 0 -97 -97 -97 0 -97 0 -98 -98 -97 -97 -97 -97 0 0 0 -97 0 -97.5 0 -98 0 -98 0 -98 0 -98 0 -98 -98 -98 -98 -98 -98 -98 -98 -97 0 0 0 0 -98 -98 -97 0 -98 0 -99 -98 0 -98 -98 0 -99 -98 -98 -98 -98 -98 0 -99
0 0 0 0 0 0 0 0 0 0 0 0 0 0 0 0 0 0 0 0 0 0 0 0 0 0 0 0 0 0 0 0 0 0 0 0 0 0 0 0 0 0 0 0 0 0 0 0 0 0 0 0 0 0 0 0 0 0 0 0 0 0 0 0 0 0 0 0 0 0 0 0 0 0 0 0 0 0 0 0 0 0 0 0 0 0 0 0 -87.1667 -87.1667 -87.5 -87.5 -86 0 0 -88.5 -88.5 -87.5 -87.5 -88 -86.5 -86.5 0 -87.6667 -87.5 -87.5 -87.5 0 0 0 0 0 -88 -88 -88.5 -88.5 0 0 0 0 0 0 0 0 0 0 0 0 0 0 0 0 0 0 0 -89 -89 -88.5 -88.5 -88.5 -87.5 -87.5 0 0 0 0 0 0 0 0 0 0 -88.5 -88.3333 -88.3333 0 0 -88.5 0 0 -89 0 0 0 0 0 0 -89.1667 0 -89.3333 -89.3333 -89 -89 0 -89.5 -89.5 -90 -88.5 -88.5 -89 0 0 -90 -90 0 0 0 0 0 0 0 0 0 -89 -89.6667 -89.6667 0 0 -89 -89.5 -89.5 -88.5 0 0 0 0 0 0 0 0 0 0 0 -89.5 -89.5 -89.5 0 -89.5 -89.5 -89.5 -89.5 -89.5 -89 0 0 -89 -89.5 -89.5 -90 0 0 -90.6667 -90.5 -90.5 -90 -89 -89 0 -90.5 -90.5 -90 -90.5 -90.5 0 -90.5 -90.5 -90 -90.5 -90.5 -90.3333 -90.5 -90.5 -91 -90 -90.1667 -90.1667 0 -90.5 -90.5 -90 0 0 0 0 0 0 0 0 0 0 0 0 -90 0 0 -89 -91.5 -90 -90 -91.5 0 0 -91 -91.1667 -91.1667 -91 -91 -91.3333 -91.3333 -91 -91 -91 -91 -91 -90.5 -90.5 0 -91.1667 -91.1667 -91 -91 -91.3333 -91.3333 -92 -92 -91 -91 -91 -91.5 -91.5 -91 -91 -91.5 -91.5 0 0 0 0 0 0 0 0 0 0 0 0 -91 0 -91.6667 0 -92 -91 -91 0 -92 -91.5 -91.5 -92 -91 0 0 -92 -91.5 -91.5 -91.5 -92 -92 -91.5 -91.5 0 0 0 0 0 -92 0 0 0 0 0 0 0 0 0 0 0 -92 0 -92 -92.3333 -92.3333 -92 0 -92.5 -92.5 -92.5 0 -92 -92.5 -92.5 -92 0 0 0 0 0 0 0 0 -92 0 0 0 0 0 -93 -92 -92.5 -92.5 0 0 -93 -92 -92 0 -92 -92 0 0 -93 -93 0 -93.5 -93.5 -93 -93 0 -93 -93.6667 -93.6667 0 -93.5 -92 -92.5 -92.5 -93 -93 -92 0 -93.5 -93.5 -93 -93 0 0 0 0 -94 -93 -93 0 -93 -93 -93 -93 0 0 0 0 0 0 0 0 -93.5 -93.5 -93 0 -93 0 0 -93.5 -93.5 -94 -94 -94 0 -93 0 0 -94 0 0 0 0 0 0 0 0 0 0 0 -93 -93.3333 -93.3333 -94 0 -94 -93 -93 0 -93.5 -93.5 -94 0 -94 0 -94 -93 -93.5 -93.5 -94 -94 -94 0 0 0 0 -94.5 -94.5 -94 -94 -94 -94 0 -94 -93 0 -94.5 0 -94 -94 0 -94 -94 0 -94 -93 0 -93 0 -94 -94 -94 -94 -94 -94 -94 -94 -94 0 -94 -94.3333 0 0 0 0 0 0 0 0 0 0 0 -95 0 0 -94 -94.5 -94.5 0 -95 0 -95 -95 0 -95 -95 -95 -95 -95 0 0 -94 -96 -95 0 0 0 0 0 0 0 0 0 -96 0 0 0 -95.5 -95 0 0 -95 0 0 0 -95 0 0 -96 -96 -96 -96 -95 0 -95.5 0 -95.5 0 0 0 0 0 0 0 -96.6667 -96 0 -96 -95.5 0 0 0 0 0 0 -95.5 -95 0 -95.3333 -96 0 0 0 0 -96 0 0 -95.6667 0 -95.6667 0 -96 -96 0 -97 -96.5 -97 -97 0 -97 -97 0 -97 -96 -96 0 -96 -96 0 -96 0 -96.5 -96 0 -96 0 0 -96 -97 -97 -97 0 -97 0 -96.5 -96 0 0 0 -97 0 -97 -97 -94.5 -97 -96.3333 -96.6667 -96.3333 -94.5 0 -97 0 0 -97 -96.5 0 0 0 0 0 0 0 -97 -96 -97 -97 0 -97 -97 0 0 0 0 0 -97 0 -97 -97 0 -98 0 -98 -97 -68.6667 0 -97 -97 0 -98 0 -98 0 0 0 0 -97 0 -98 -98 -97 0 0 0 0 0 0 0 0 -97 -98 -97 0 0 -98 -97 -98 -98 0 -98 0 -98 0 -98 0 -98 0 -98 -98 -98 -98 -98 -98 -98 -98 0 0 0 -98 0 -98 -98 -97 0 -98 0 -99 -98 0 -98 -98 0 -99 -98 -98 0 -98 0 0 -99
0 0 0 0 0 0 0 0 0 0 0 0 0 0 0 0 0 0 0 0 0 0 0 0 0 0 0 0 0 0 0 0 0 0 0 0 0 0 0 0 0 0 0 0 0 0 0 0 0 0 0 0 0 0 0 0 0 0 0 0 0 0 0 0 0 0 0 0 0 0 0 0 0 0 0 0 0 0 0 0 0 0 0 0 0 0 0 -86.5 -86.5 -86.5 -87.5 -87.5 -86 -86.5 -86.5 -88.6667 -88.6667 -87.5 -87.5 -88 -86.5 -86.5 0 0 -87.5 -87.5 -87.5 0 0 0 0 0 -88 -88 -88.5 -88.5 0 0 0 0 0 0 0 0 0 0 0 0 0 0 0 0 0 0 0 0 0 -88.5 -88.5 -88.5 -87.5 -87.5 0 0 -88 -88.5 -88.5 -89.3333 0 0 0 0 0 0 0 -89.5 -89.5 -88.5 -88.5 -88.5 -89 -89 -89 -88.3333 0 0 0 0 -89 -89.5 -89.5 -89 -89 -89 0 0 -90 -88.5 -88.5 -89 0 0 -90 -90 -89 -89.5 -89.5 0 -89 -89 0 -89.1667 -89.1667 0 0 -89.6667 0 0 -90.5 -89.5 -89.5 -90 0 0 -90 -89.5 -89.5 -89.5 -88.5 -88.5 0 0 0 0 0 0 0 0 0 0 0 0 0 0 0 -89 -89.5 -89.5 -90 0 0 -90.6667 -90.5 -90.5 0 0 0 0 0 0 -90 -90.5 -90.5 -90.5 -90.5 -90.5 -90 -90.5 -90.5 -90.6667 -90.5 -90.5 -91 -91 -89.8333 -90.1667 0 -90.5 -90.5 -90 -90.5 -90.5 0 -90.5 -90.5 -91 -90 0 0 0 0 0 0 0 0 -86 -91.8 -90 -90 -91.8 0 0 -90.5 -90.3333 -91.1667 -91 0 0 0 -91 -90.8333 -90.8333 -91 -91 -90.5 -90.5 -91 0 -91.1667 -91 -91 0 0 -92 -92 -91 -91 0 -91.5 -91.5 -92 -91 -91.5 -91.5 -91.6667 -91 0 0 0 0 -91.5 -91.5 0 0 0 0 -91 0 0 0 -92 -92.5 -92.5 0 0 -91.5 -91.5 -92 -91 0 0 -92 -91.5 0 0 -92 -92 -91.5 -91.5 0 -92 -92.3333 -92.3333 0 -92 -92 -91.5 -91.5 -92 -92 -92.5 -92.5 0 -92.5 -91.6667 -91.6667 -92 0 0 0 0 0 0 0 0 0 -92 -92 -92.6667 -92.6667 -92 0 -92.5 -92.5 -93 -93 -93 -92 -92 -92 0 0 -92.4 0 -92 0 -92 -92.5 -92.5 0 -93 -93 -93 -93 0 -92 -92 0 0 -93 -93 0 -93.5 -93.5 -93 -93 0 -93 -93.3333 -93.6667 0 -93.5 -92 0 0 -93 -93 -93 0 -93.5 -93.5 -93 -93 0 0 0 0 0 0 -93 0 0 0 -93 -93 -93 -93 -92.5 -92.5 0 -94 -93 0 -93.5 -93.5 0 0 -93 -93 0 -93.5 -93.5 -94 -94 -94 -94 -93 0 0 -94 -94 -94 -94 -94 0 0 -94 -93 0 -94 0 0 0 0 0 0 -94 -93 -93 0 -93.5 -93.5 -94 0 -94 -93 0 0 0 0 0 0 0 0 -94 -93 0 0 0 0 0 -94 -94 0 -94 -94 -93 0 -94.5 -94 -94 0 0 0 0 0 0 0 0 0 0 0 0 0 0 0 0 0 0 0 0 -94.3333 -94.3333 0 -95 -95 0 -95 0 0 0 -95 0 0 -94 -95 -95 -94.5 -94.5 0 -95 0 -95 -95 0 -95 -95 -95 -95 -95 -95 -95 0 0 0 0 0 -95 -95.5 -95.5 0 0 -96 -96 0 -96 -96 0 0 -95 0 -95 -95 0 -95 0 0 0 0 0 0 0 0 -95.3333 -96 -96 0 0 -95 0 -95.5 -95 0 0 0 -96.6667 -96 0 -96 -96 0 -96 -95.5 -96 -95.5 0 -95.5 -95 0 -96 -96 0 -96 0 -96.5 0 0 -96 -95.6667 0 0 0 0 -95.5 0 0 0 -97 0 0 0 -96.6667 0 -97 -96 -96 0 0 -96 0 -97 0 0 0 0 0 -96 0 0 -97 -97 -97 0 -97 -97 -96.5 0 -96 -96 -96 -97 -96.6667 -97 -97 -97 -98.5 -96 -97.5 -96 -94.5 0 -97 0 0 -97 0 0 -97 0 -97 -96.5 0 0 -97 0 -97 -97 0 -97 -97 -97 0 0 0 -97 0 0 0 -97 0 -98 0 -98 -97 -97 0 -97 -97 0 -48 0 -98 -97 -97 -97 -97 0 0 -98 -98 -97 -97 -97 0 -97 0 -98 -98 -97 0 0 -97 0 0 -98 -97 -98 -98 0 -98 0 -98 0 -98 0 -98 0 -98 -98 -98 -98 -98 -98 0 0 0 0 0 -98 0 -99 -98 -97 0 -98 0 -99 0 -98 -98 -98 0 -99 -98 -98 0 -98 -98 0 -99
0 0 0 0 0 0 0 0 0 0 0 0 0 0 0 0 0 0 0 0 0 0 0 0 0 0 0 0 0 0 0 0 0 0 0 0 0 0 0 0 0 0 0 0 0 0 0 0 0 0 0 0 0 0 0 0 0 0 0 0 0 0 0 0 0 0 0 0 0 0 0 0 0 0 0 0 0 0 0 0 0 0 0 0 0 0 0 -86.5 -86.5 -86.5 -87.5 -87.5 -86 0 0 0 -88.6667 -87.5 -87.5 -88 -86.5 -86.5 0 0 -87.5 -87.5 -87.5 -87 -87 0 0 0 -88 -88 -88.5 -88.5 -87.5 -87.5 -87.5 0 0 -89 -87.5 -87.5 -88.6667 -88.6667 -87 0 0 0 0 0 0 0 -87 0 0 -89.5 -89.5 -88.3333 -88.5 -88.5 0 0 -89 -88.5 -88.5 -89.3333 -89.3333 -88 0 0 -88.5 -88.5 -88.5 -89.5 -89.5 -88.5 -88.5 -88.5 -89 -89 -89 -88.3333 -88.3333 -89 -88.75 -88.75 0 -89.5 -89.5 -89 -89 -89 -89.5 -89.5 -90 -88.5 -88.5 -89 -89.5 -89.5 -89.8333 -89.8333 -89 -89.1 -89.1 -88 0 0 -90 -88.9 -89.1667 0 0 0 0 0 0 -89.5 -89.5 0 0 0 0 -89.5 -89.5 -89.5 -88.5 -88.5 0 -90.5 -90.5 -89.5 -89.5 -89.5 -90 -90.5 -90.5 -90.5 -89.5 -89.5 -89 0 0 0 0 0 -90 -89 -89 0 -90.5 -90.5 -90 -89 -89 0 0 0 0 0 0 0 0 0 0 0 0 -90.5 0 0 -91 -91 -89.8333 -89.8333 0 -90.5 -90.5 -90 -90.5 -90.5 0 -90.5 -90.5 -91 -90 0 0 -91.5 -90.5 -90.5 -91 0 0 -89.6667 -91.8 -90 -90 -91.8 0 0 -90.5 -90.3333 -90.3333 -91 -91 -91.5 -91.5 -90.5 -91 -91 -91 -91 -90.5 -90.5 -91 0 0 -91 -91 -90.5 -90.5 -92 -92 -91 -91 0 -91.5 -91.5 -92 -91 -91.5 -91.5 -91.6667 -91 0 0 0 0 -91.5 -91.5 -92 0 0 0 0 0 0 0 0 -92.5 -92.5 -91 0 -91.6667 -91.6667 -92 -91 0 0 -93 -91 -91.5 -91.5 -92 -92 0 0 0 0 0 -92.3333 -92.3333 -92 -92 0 0 0 0 -92.5 -92.5 -91.5 0 -91.3333 -91.6667 -92 -92 -92 -92.5 -92.5 -93 0 -92.5 -92.5 -92.5 -92 0 0 -92.6667 -92 -92 -92.5 -92.5 -93 -93 -93 -93.5 -93.5 -92 -92 0 -92.4 -92.4 -92 0 -92 -92.5 -92.5 0 -93 -93 -93.1 -93.1 0 -92 -92 -92.5 -92.5 -93 -93 0 -93.5 -93.5 -93 -93 0 -93 -93.3333 -93.3333 0 0 0 0 0 0 0 -93 0 -93.6667 -93.6667 -93 -93 0 -93 -93.5 -93.5 -94 -93 -93 -92.5 -92.6667 -92.6667 -93 0 -93 -93 -92.5 -92.5 0 -94 -93 0 -93.5 -93.5 -94 0 -94 -93 0 -93.5 -93.5 -94 -94 -94 -94 -93 0 0 -94 -94 -94 -94 -93.5 0 0 -94 -93 0 -94 -93 0 0 0 0 0 0 0 0 0 0 0 -94 0 -94 -94 -94 -94 -93.5 -93.5 -94 -94 0 0 0 -93 -93 0 -93.5 -93.5 0 -94 -94 0 -94 -94 -93 0 -93.5 -93.5 -94 0 -94 0 -94 -94 -94 -94 -94 0 0 0 0 0 -94 -94 -94 -94 -94 0 -94 0 0 0 -96 -95 0 -95 -95 -95 -95 -95 -95 0 0 0 0 -94.5 -94.5 0 -95 0 -95 -95 0 -95 -95 -95 -95 -95 -95 -95 0 0 -94 0 -95 0 0 0 0 -96 0 0 0 0 0 -95.3333 0 -95 0 -96 -95 0 -95 0 0 0 0 -96 -96 -96 -96 -95.5 0 -96 0 -96 -95 0 -96 -95 0 0 0 -96.5 -96 0 -96 -95.5 0 -96 -96 -96 -96 0 -95.5 0 0 0 0 0 -96.5 0 -96.5 -96 0 -96 -95.3333 0 -95.5 0 -96 0 0 -97 -96.5 0 -96.5 0 -97 -96.6667 0 -95 0 -96 0 -97 -96 0 -97 0 0 -96 0 0 -96 0 0 -97 0 -97 0 -97 -96.5 -96 0 -96 -96 -96 -97 -96.6667 -97 -97 -97 -96.5 -96.3333 -96.6667 -96.5 -96 0 0 0 0 0 0 0 -96.5 -96.5 -97 -96.5 0 0 0 0 0 0 0 -97 -97 0 -98 0 0 0 0 -97 0 -26 0 0 0 0 0 0 0 0 0 0 -98 -98 0 -97 -97 -97 -97 0 0 0 -98 -97 -97 -97 -97 -97 0 -98 0 -97 -97 -98 -97 0 0 -98 -97 0 -97.5 0 -98 -98 -98 0 -98 0 -98 0 0 0 -98 -98 -98 -98 -98 -98 0 0 0 -98 0 -99 0 -98 0 -98 0 -99 -98 -98 0 0 0 -99 -98 -98 0 -98 -98 0 0
0 0 0 0 0 0 0 0 0 0 0 0 0 0 0 0 0 0 0 0 0 0 0 0 0 0 0 0 0 0 0 0 0 0 0 0 0 0 0 0 0 0 0 0 0 0 0 0 0 0 0 0 0 0 0 0 0 0 0 0 0 0 0 0 0 0 0 0 0 0 0 0 0 0 0 0 0 0 0 0 0 0 0 0 0 0 0 0 -86.5 -86.5 -87.5 -87.5 -86 0 0 0 0 0 0 0 0 0 0 0 0 0 0 -87 -87 0 0 0 -88 -88 -88.5 -88.5 -87.5 -87.5 -87.5 0 0 -88.6667 -87.5 -87.5 -88.3333 -88.6667 -87 0 0 -88 -88 -88 -88.5 -88.5 -87 -87.5 -87.5 0 0 -88.3333 -88.5 -88.5 0 0 -89 -88.5 -88.5 -89 -89 -88 -88.5 -88.5 -88.5 -88.6667 -88.6667 -89.5 -89.5 -88.5 -88.5 -88.5 -89 -89 -89 -88.5 -88.5 -89 0 0 -89 -89.6667 -89.6667 -89 -89 -89 -89.5 -89.5 -90 -90 -90 -89 -89.5 -89.5 -89.8333 -89.8333 -89 -89.1 -89.1 -89 0 0 -90 -88.9 -88.9 -89 -89.5 -89.5 0 0 0 0 0 0 0 0 0 -89.5 -89.5 -89.5 -88.5 -88.5 0 -90.5 -90.5 -89.5 -89.5 -89.5 -90 0 0 -89 -89.5 -89.5 -89 0 0 -90.3333 -89.5 -89.5 -90 -89 -89 0 -90.6667 -90.6667 -90 -89 -89 0 -90.5 -90.5 0 0 0 0 -90.5 -90.5 -91 -90.6667 -90.6667 -90.5 0 0 -91 -91 0 0 0 0 0 0 0 0 0 0 0 -91 -90 0 0 -91.6667 -90.5 -90.5 -91 0 0 -92 -90 -90 -90 -91.8 0 0 -90.5 0 0 -91 -91 -91.5 -91.5 -92 -90.5 -90.5 -91 -91 -90.5 -90.5 -91 0 0 -91 -91 -90.5 -90.5 0 -92 -91 -91 -91 -91.5 -91.5 -92 -91 -91.5 -91.5 -91.5 -91 -90.5 -90.5 0 -92 -91.5 -91.5 -92 0 0 -92 -92 -91.5 -91.5 -92 -92 -92.5 -92.5 -91 0 -91.3333 -91.6667 -92 -91 0 0 -93 -91 0 0 -92 -92 -91.6667 -91.6667 0 0 0 0 0 -92 -92 -92.5 -92.5 -92 -92 -92.5 -92.5 -93 0 -91.3333 -91.3333 -92 -92 -92 -92.5 -92.5 -93 -92 0 0 -92.5 -92 0 0 0 0 0 0 0 0 0 0 0 0 0 -92 0 -92.4 -92.4 -92 0 -93 -92.5 -92.5 0 0 0 0 0 0 -93 -92 -92.5 -92.5 -93 -93 0 -93.5 -93.5 0 0 0 -93 -93.5 -93.5 0 -93 -92 -92.5 -92.5 -93 -93 0 0 0 -93.6667 -93 -93 0 -93 -93.5 -93.5 -94 -94 -93 -92.5 -92.3333 -92.6667 -93 -93 -93 -93 -92.5 -92.5 0 -94 -93 0 -93.6667 -93.6667 -94 0 -94 -93 0 -93.5 -93.5 -94 -94 -94 0 -94 0 0 -94 -94 0 0 0 0 0 0 0 0 -94 -93 -93 -93.5 -93.5 -94 0 -94 -93 0 -94 -93.5 -93.5 -94 0 0 0 0 -94 0 0 0 0 0 0 0 0 0 -94 -93.5 -93.5 -94 0 -94 -94 -94 -94 -93 0 -93.5 -93.5 -94 0 0 0 -94 -94 -94 -94 -94 -93.5 -93.5 0 -94 -94 -94 0 0 0 0 0 -94 -94 0 0 0 -95 0 -95 -95 0 0 0 -95 -95 0 -95 -95 -94.5 -94.5 0 -95 0 -95 -95 0 -95 -95 -95 -95 -95 -95 -95 -94 0 -95 0 -95 -95 0 0 -96 0 -96 -96 0 -96 -96 0 -95.5 0 0 -96 0 0 -95 0 -95 -95 0 0 -96 -96 0 -95.5 0 -96 0 -96 -95 0 0 0 0 0 0 0 0 0 0 0 0 -95.5 -95.5 -95.5 -95.5 0 -95.5 -96 -96 0 -96 0 0 0 0 -96 0 -97 -96 0 -96 0 -96 -96 0 -97 -97 0 -97 0 -97 -96.5 0 0 -96 -96 0 -97 -96 0 -97 0 0 0 0 -97 -96 0 0 0 0 0 0 0 0 -96 0 0 0 0 0 0 0 0 0 0 0 -97 -96.3333 -96 0 0 0 0 -97 -96.5 0 -96.5 -96.5 -97 -96.5 0 0 -97 -97 -97 -97 0 -97 0 0 0 0 0 0 0 -97 0 -96.5 0 -98 -98 0 0 -70 0 0 0 0 0 -98 -97 0 -97 -17.3333 0.6 -4 0 0 0 0 -97 -97 -97 -97 0 -98 0 0 0 0 -97 0 0 0 -97 0 0 0 0 0 0 -98 -71.5 0 -98 0 -98 0 -98 -98 -98 0 0 0 0 0 0 0 0 0 0 0 0 0 0 -99 0 0 0 0 0 0 0 0 0 0 0 0 -99
0 0 0 0 0 0 0 0 0 0 0 0 0 0 0 0 0 0 0 0 0 0 0 0 0 0 0 0 0 0 0 0 0 0 0 0 0 0 0 0 0 0 0 0 0 0 0 0 0 0 0 0 0 0 0 0 0 0 0 0 0 0 0 0 0 0 0 0 0 0 0 0 0 0 0 0 0 0 0 0 0 0 0 0 0 0 0 0 -86.5 -86.5 -87.5 -87.5 -86 -86.5 -86.5 0 0 -87.5 -87.5 -88 -86.6667 -86.6667 0 0 -89 0 0 -87 -87 -87.5 -87.5 0 -88 -88 -88.5 -88.5 0 -87.6667 -87.6667 0 0 0 -87.5 -87.5 -88.3333 -88.3333 -87 0 0 -89.5 -89.5 -88 -88.5 -88.5 -87 -87.5 -87.5 0 0 -88.3333 -88.5 -88.5 0 0 -89 0 0 0 0 0 0 0 0 0 -88.6667 -89.5 -89.5 -88.5 -88.5 -88.5 0 -89 -89 -89.5 -89.5 -89 0 0 0 0 -89.6667 -89 -89 -89 -89.5 -89.5 -89.6667 -89.8333 -89.8333 -89 -89.1667 -89.1667 -89.6667 -89.6667 -90 -88.8333 -89.1 -89 0 0 -90 -88.9 -88.9 -89 -89.5 -89.5 0 0 -90.5 -90.5 -90.5 -90 0 0 0 0 0 0 0 0 0 0 0 0 -89.6667 -89.6667 -90 0 0 -89 -89.5 -89.5 -89 0 0 -90.6667 -89.5 -89.5 0 0 0 0 0 -90.6667 -90 -90.1667 -90.1667 -90.3333 -90.5 -90.5 -90 0 0 0 0 0 0 -89.8333 -90.6667 -90.5 -90.5 -90.5 -91 -91 -90 -90 0 -90.5 -90.5 -91 0 0 -90 0 0 0 0 0 0 0 0 0 0 -91.5 -91.5 -88.5 -91.5 -90 -90 -91.5 0 0 0 -90.5 -90.5 -91 -91 -91.6 -91.6 -92 -90.5 -90.5 -91 -91 -90.5 -90.5 -91 0 0 -91 -91 -90.5 -90.5 0 -92 -91 -91 -91 -91.5 -91.5 -92 -91 -91.5 -91.5 0 -91 0 0 0 0 -91.5 -91.5 -92 0 0 -92 -92 -91.5 -91.5 -92 -92 -92.5 -92.5 -91 0 -91.3333 -91.3333 -92 0 0 0 0 0 0 0 -92 -92 -92.3333 -91.6667 0 0 0 0 0 0 0 0 0 0 0 -92.5 -92.5 -93 0 -91.5 -91.5 -92 -92 -92 -92.5 -92.5 -93 -92 0 0 -92.5 -92 -92 -92.5 -92.5 -92 -92 0 0 -93 0 0 0 0 0 -92 0 -92.5 -92.5 -92 0 -93 -92.5 -92.5 0 -94 -92.6667 0 0 0 0 0 0 0 0 0 0 0 0 -94 -93 0 -93 -93.5 -93.5 -93.5 -93 -93 -92.5 -92.5 -93 -93 -93 0 0 0 0 0 0 0 0 0 0 0 0 -92 -92.3333 -92.3333 -93 -93 -93 -93 -92.5 -92.5 0 -94 -93 0 -93.3333 -93.6667 -94 0 -94 -93 0 -93.5 -93.5 -94 -94 0 0 0 0 0 -94 -94 -94 -94 -93.5 0 0 -94 -93 0 -94 -93 -93 -93.5 -93.5 -94 0 -94 -94 -93 0 -93.6667 -93.6667 -94 -94 -94 -94 0 -94 -93.5 -93.5 -94 -94 -94 0 0 0 0 0 0 0 -94 0 -94 -94 -94 -94 -93 0 -93.5 -93.5 0 0 0 0 0 0 0 0 -94 -93.5 -93.5 0 -94 -94 -94 -94 0 0 0 0 -94 -94 0 0 0 -95 0 0 -95 0 -95 -95 0 -95 -94 0 -95 -94.5 -94.5 0 -95 0 -95 -95 0 -95 -95 -95 -95 -95 -95 -95 0 -95 -95 0 0 0 0 0 0 0 0 0 0 0 0 -96 -96 -96 0 -96 -95 0 -96 0 -96 -95 0 0 0 0 -96 0 0 -95.5 0 0 0 0 0 0 0 0 0 -96.5 -96 0 -96 -96 0 0 0 0 0 -96 -96 -96 0 0 -96 0 -96.5 0 -96.5 -96 0 -97 -96 0 -96 -96 0 0 -97 -97 -96.5 0 -96.5 0 0 0 0 0 0 -96 0 0 0 0 0 -96 0 -96.5 0 -96.5 -96 0 0 -97 0 -97 0 -97 0 -96 0 -96 -96 0 -97 0 -97 -96.5 0 -98.5 -97.5 -96.5 0 0 0 -97.5 -7.5 0 -97 -96.5 0 -96.5 0 -97 -96.5 -97 0 -97 -97 -97 -97 0 -97 0 0 -98 -97.5 -97 0 -97 -96.5 0 -96.5 0 0 0 -10 0 0 0 0 0 0 -98 -97.5 0 0 0 0 0 0 0 0 -97.5 -97 0 -97 -15.75 -97 0 0 0 0 0 -98 -97.3333 0 0 -98 -98 0 -97.5 0 -97.5 0 0 0 -7.57143 0 -98 -98 -98 0 -98 0 -98 -98 0 0 0 0 0 0 -99 -99 -98 -98 -98 0 0 0 -98 -98 -98 -98 0 0 0 0 0 0 0 0 0
0 0 0 0 0 0 0 0 0 0 0 0 0 0 0 0 0 0 0 0 0 0 0 0 0 0 0 0 0 0 0 0 0 0 0 0 0 0 0 0 0 0 0 0 0 0 0 0 0 0 0 0 0 0 0 0 0 0 0 0 0 0 0 0 0 0 0 0 0 0 0 0 0 0 0 0 0 0 0 0 0 0 0 0 0 0 0 0 -86.5 -86.5 -87.5 -87.5 -86.5 -86.5 -87 0 0 -87.5 -87.5 -88 -86.3333 -86.6667 0 0 -89 -87.5 -87.5 -88.5 -88.5 0 0 -88.5 -88 -88 -88.5 -88.5 -87.6667 -87.3333 -87.6667 0 0 0 -87.5 -87.5 -88 -88 0 0 0 0 0 -88 -88.5 -88.5 -88.3333 -87.5 -87.5 0 0 -88.5 -88.5 -88.5 0 0 -89 -88.5 -88.5 -89 -89 -88 -88.4 0 0 0 0 0 0 0 0 0 0 -89 -89 -89.6667 -89.6667 -89 -88.8333 0 0 0 0 0 0 0 0 0 -89.5 -89.5 -89.5 -89 -89 -89 -89.3333 -89.6667 -90 -88.8333 -88.8333 -89 -88.5 -88.5 0 -90 -90 -89 -89.5 -89.5 -88.5 -88.5 0 -90.5 -90.5 -90 0 0 -90 -90.5 -90.5 -89.5 -89.5 -89.5 0 -90.6667 -90.6667 -89.3333 -89.3333 -89.6667 -90 0 0 0 -89.5 -89.5 -90 -89 -89 -90.5 -89.6667 -89.6667 -90 -89.8333 0 0 0 0 0 0 0 0 -90.5 -90.5 0 -90 -90 0 -90.3333 0 0 -89.8333 -89.8333 -90 -90.5 -90.5 -91 -91 -90 -90 -90 -90.6667 -90.6667 -91 0 0 -90 -90.5 -90.5 -91 0 0 0 0 0 0 0 0 0 -88.5 -91.5 -90 -90 -91.5 0 0 0 -90.5 -90.5 -91 0 -91.6 -91.6 -92 -90.5 -90.5 0 -91 -91.5 -91.5 -91 0 0 -91 -91 -91.6667 -91.6667 0 -92 -91 -91 -91 0 0 -92 -91 -91.5 -91.5 0 -91 -90.6667 -90.6667 -91 0 0 0 0 0 0 0 -92 -91.5 -91.5 -92 -92 -92.1667 -92.1667 -91 0 -91.5 -91.5 -92 -92 0 0 -93 -91 -91.5 -91.5 -92 -92 -92.3333 -92.3333 0 -92 -92 -92 0 0 -92 -92.5 -92.5 -92 -92 -92.5 -92.5 -93 0 -92.5 -92.5 -92 -92 -92 -92.5 -92.5 -93 0 -93.3333 0 -92.5 -92 -92 -92.5 -92.5 -92 -92 0 0 -93 -93 0 -92.8333 0 -93 0 0 -92.5 -92.5 -93 0 -93 -92.5 -92.5 0 -93.5 -92.6667 -92.5 -92.5 0 -93 -93 -92.5 -92.5 -93 -93 0 -93.6667 -93.6667 -94 -93 0 -93 -93 -93 -93 -93 -93 -92.5 -92.5 0 -93 -93 0 -93.5 -93.5 -93 -93 0 -93 -93.5 -93.5 0 -94 0 -92 -92.5 -92.5 -93 -93 -93 -93 -92.5 -92.5 0 -94 -93 0 -93.3333 -93.3333 -94 0 -94 -94 0 -93.5 -93.5 -94 -94 -94 -94 0 0 0 -94 -94 0 -93.5 -93 0 0 -94 -94 0 -94 -93 -93 0 0 0 0 0 0 0 0 0 -93.6667 -94 -94 -94 -94 -94 -94 -94.3333 -94.3333 -93.6667 -94 -94 0 -94 -94 0 -94 -93.5 -93.5 -94 0 -94 -94 -94 -94 -93 0 -93.5 -93.5 -94 0 -94 -94 0 -94 -94 -94 0 0 0 -95 -94 -94 -94 -94 0 -94 -94 -94 -94 -94 0 0 -95 -95 0 -95 -95 0 0 -95 -95 -95 0 -95 -95 0 0 -96 -95 0 -96 -95 0 -95 -95 0 0 0 0 -95 0 -95 -95 0 0 0 0 -95.5 -95.5 -96 0 -96 -96 -96 -96 0 0 0 0 -96 0 0 0 0 0 0 0 0 0 0 -96 -96 0 0 -96 -96 -96 0 0 0 0 0 0 -96 -95 0 -96 -95.5 0 -96 -96 -96 0 0 0 0 0 0 0 0 0 0 0 0 0 -96.6667 -95.6667 0 -97 -95.5 0 0 0 -97 -96.5 0 -96.5 0 -97 -96.5 -96 -96 0 -96 0 -97 -96 0 -97 0 -96.5 -96 0 -96.5 -96 0 0 -96.6667 0 -97 0 -96 0 0 0 -96 -96 0 -97 0 -97 -96.5 0 -94.3333 -95 0 -97.5 -96 -97 -97.5 -97 -97 -97 -96.5 0 -96.5 -96.5 0 0 0 0 0 0 0 0 0 -96.5 -96.5 0 -98 0 0 0 0 0 0 -96.3333 0 0 0 0 0 0 0 0 0 0 0 -98 -97 0 -97 -97 0 0 0 -98 0 -97 -97 -97 -97 -97 0 0 0 -98 -97 0 -98 -97 0 0 -7.25 0 -98 0 -98 -98 0 -98 -98 -98 -98 -98 -98 0 0 0 0 0 0 0 -98 0 0 0 0 0 0 -98 -98 0 0 0 -98 -98 -98 -98 0 0 0 0 0 0 0 0 0
0 0 0 0 0 0 0 0 0 0 0 0 0 0 0 0 0 0 0 0 0 0 0 0 0 0 0 0 0 0 0 0 0 0 0 0 0 0 0 0 0 0 0 0 0 0 0 0 0 0 0 0 0 0 0 0 0 0 0 0 0 0 0 0 0 0 0 0 0 0 0 0 0 0 0 0 0 0 0 0 0 0 0 0 0 0 0 0 0 0 0 0 0 0 -87 0 0 -87.5 -87.5 -88 -86.3333 -86.3333 -87.5 -87.5 0 -87.5 -87.5 -88.5 -88.5 -87.5 -87.5 -88 -88.1667 -88.1667 -88.5 -88.5 -87.6667 -87.3333 -87.3333 -88.5 -88.5 -88.5 0 0 -88 -88 0 0 0 0 0 -88 -88.5 -88.5 -88.3333 -87.5 -87.5 0 0 -88 -88.5 -88.5 0 0 -89 -88.5 -88.5 -89 -89 -88 -88.4 -88.4 0 -88.5 -88.5 -89.5 -89.5 -88 -88.5 -88.5 0 -89 -89 -89.3333 -89.6667 -89 -88.8333 -88.8333 0 -89.5 -89.5 -88.5 -88.5 -89 0 0 -89.5 -89.5 -89.5 -89 -89 -89 -89.3333 -89.3333 -90 -89 -89 -89 -88.5 -88.5 0 -90 -90 0 0 0 -88.5 -88.5 0 -90.5 -90.5 -90 -90 -90 0 -90.5 -90.5 -89.5 -89.6667 -89.6667 -89 0 -90.6667 -89.3333 -89.3333 -89.3333 -90 0 0 -90.5 -89.5 -89.5 -90 -88.5 -88.5 0 -89.3333 -89.6667 -90 -89.8333 -89.8333 0 -90.5 -90.5 -90 -90 -90 -90 -90.5 -90.5 -91 0 0 0 -90.3333 -90.3333 -91 -90 -90 -90 0 0 -91 -91 -90.1667 -90.1667 -90 0 -90.6667 -91 -90 -90 -90 -90.5 -90.5 -91 -91 -90.1 -90.1 0 0 0 0 0 0 -85 -88.5 -90.5 -90.5 -90.5 0 0 0 -90.5 -90.5 -91 -90 0 -91.6 -92 -90.5 -90.5 0 -92 -91.5 -91.5 0 0 0 0 0 0 -91.6667 0 -92 -91 -91 -91 0 0 0 -91 -91.5 -91.5 0 -91 -90.3333 -90.6667 -91 0 -91.5 -91.5 -91.5 -91.5 -91.5 -92 0 0 0 0 0 -92.1667 -92.1667 -91 0 -92.5 -92.5 -92 -92 0 0 -93 -92.5 -91.5 -91.5 -92 -92 -91.5 -91.5 0 -93 -92 -92 -92 0 -92 -92.6667 -92.6667 -92 -92 -92.5 -92.5 -93 0 -92.5 -92.5 -92 -92 0 -92.5 -92.5 -93 -92 -93.3333 -93.3333 0 0 0 0 0 0 0 0 0 0 0 0 -92.8333 -92.8333 -93 -92 0 0 0 0 0 0 0 0 0 -93.5 0 0 0 0 0 0 0 0 0 0 0 0 -93.6667 0 0 -93 -93 -93 -93 -93 -93 -93 -92.5 -92.5 -93 -93 -93 0 -93.5 -93.5 -94 -93 0 -93 -93.5 -93.5 0 -94 0 0 0 0 0 0 0 0 0 0 0 0 0 0 -93.5 -93.5 -94 0 -94 -94 0 0 0 0 0 0 -94 -94 0 0 -95 -95 0 0 0 0 0 0 0 0 -94 -93 -93 0 0 -94 -94 0 -94 -93 0 0 0 0 0 0 0 0 -94 -94.3333 -93.6667 -93.6667 0 -94 0 -94 -94 0 -94 -93.5 -93.5 -94 0 -94 -94 -94 -94 -93 0 0 0 0 0 -94 -94 0 -94 -94 -94 -94 -93.5 -93.5 0 -94 -94 0 -94 0 -94 -94 -94 -94 -94 0 0 0 0 0 0 0 0 0 0 -95 -95 0 -95 -95 0 -95.5 -95.5 -96 0 -96 -95 0 -95 -95 -95 -95 0 0 0 0 0 0 0 -95 0 0 0 0 -96 0 -96 -96 -96 -96 0 -96 -96 0 -96 -95 0 -96 0 -96 -95 0 0 0 0 0 0 0 -96 0 0 -96 0 -96 -95 0 -96 0 0 0 0 0 0 0 0 -95.5 0 -95.5 -95.5 -95.5 -95.5 0 0 -96 0 -96.5 0 -96.5 -96.5 0 -96.6667 -95.6667 0 -97 -95.5 0 0 -97 -97 -97 0 -97 -97 -97 -97 0 0 0 -96 0 0 -97 0 -97 -97 -96.5 -96.5 0 -96.5 0 0 0 -96.6667 0 -97 0 -96 0 -96 -96 0 0 0 0 0 0 0 0 0 -96 -19 0 -96 -97 0 0 0 -97 -96.5 0 0 -96.5 -97 0 -97 -97 -97 -97 0 -97 0 0 -97 0 0 -97 -97 -97 -97 -97 0 0 0 -98 0 -27.5 0 -97 -97 -14 -97 0 -98 -98 -97 0 -19.5 -97 -97 0 -97.5 -98 -98 0 0 -97 -97 -97 0 0 0 -98 -97 0 -97.5 0 0 0 -98 0 -98 -98 0 0 0 0 0 0 0 -98 -98 0 0 -98 0 -98 0 0 0 0 0 0 -99 0 -98 -98 -98 0 -99 0 -98 -98 -98 -98 0 -98 0 -98 0 0 -98 0 -99
0 0 0 0 0 0 0 0 0 0 0 0 0 0 0 0 0 0 0 0 0 0 0 0 0 0 0 0 0 0 0 0 0 0 0 0 0 0 0 0 0 0 0 0 0 0 0 0 0 0 0 0 0 0 0 0 0 0 0 0 0 0 0 0 0 0 0 0 0 0 0 0 0 0 0 0 0 0 0 0 0 0 0 0 0 0 0 0 0 0 0 0 0 0 -87 0 0 -87.5 -87.5 -88 -86.5 -86.5 -87.5 -87.5 0 -87.5 -87.5 -88.5 -88.5 -87.5 -87.5 -88 -88.1667 -88.1667 -88.5 -88.5 -87.5 -87.5 -87.5 -88.5 -88.5 -88.5 -88.5 -88.5 -88 -88 -88 -86.9333 0 0 0 0 0 0 0 0 0 0 0 0 0 0 0 0 -89 -88.5 -88.5 -89 -89 -89 -88.4 -88.4 0 -88.5 -88.5 0 0 0 0 0 0 -89 -89 -89.3333 -89.3333 -89 -89 -89 -89 -89.5 -89.5 -88.5 -88.5 -89 -89.5 -89.5 -89.5 -89.5 -89.5 -89 0 0 -89 -89 0 -90.5 -90.5 -89 -89.5 -89.5 0 -90 -90 0 0 0 0 0 0 0 0 0 0 0 0 0 0 0 0 -89.6667 -89 0 0 -90.5 -89.5 -89.5 -90 -89 -89 0 -90.5 -90.5 -90 0 0 0 -89.3333 -89.3333 -90 -90 -90 0 -90.5 -90.5 -90 -90 -90 -90 -90.5 -90.5 -91 0 0 -90 0 0 -91 0 0 0 0 0 0 -91 -89.9 -90.1667 -90 0 0 -91 -89.8333 -89.8333 -90 0 0 -91 -91 -90.1 -90.1 0 -91.3333 0 0 0 0 0 0 0 0 0 0 0 0 0 0 -91 -90 0 0 -92 -90.5 -90.5 0 -92 -91.5 -91.5 -90.5 -90.6667 -90.6667 0 0 0 0 0 0 0 0 0 0 0 -92 -91 -91.3333 -91.3333 -91.3333 -91 -90.3333 -90.3333 -91 0 -91.5 -91.5 -91.5 -91.5 -91.5 0 -92 -91.5 -91.5 0 0 0 0 0 0 0 0 0 0 0 0 0 -92 -91.5 -91.5 -92 -92 -92.5 -92.5 0 -93 0 0 -92 0 -92 -92.4 -92.6667 -92 0 -92.5 -92.5 -92.5 0 -92.5 -92.5 -92 -92 0 -92.6667 -92.6667 -93 -92 0 0 -93.5 -92 -92 -92.5 -92.5 -93 -92 0 0 -93 0 0 -93 -93 -93 -92 0 -92.5 -92.5 -93 0 -93 -93.3333 0 0 0 -92.5 0 0 0 -93 -93 -92.5 -92.5 -93 -93 -93 0 0 0 -93 0 0 -93 -93 -93 -93 -93 -92.5 -92.5 -93 0 0 0 0 0 0 0 0 0 0 0 0 -94 -94 -92 0 0 -93 -93 -93 -93 -92.5 -92.5 0 -94 0 0 0 0 0 0 0 0 0 0 0 0 0 0 0 0 0 0 0 -95 0 -93 -93 0 0 -94 0 -93 0 -93 0 0 0 -94 -94 0 0 0 0 0 0 0 0 0 0 0 0 0 0 0 0 -94 -94 -94 -94 0 -94 -93.5 -93.5 -94 0 -94 -94 0 -94 -93 0 -94.5 -94.5 -94 0 0 0 0 0 0 -94 -94 -93.5 -93.5 0 -95 -94 0 -94 0 -94 -94 -94 -94 -94 0 0 -95 -95 0 0 -95 0 0 0 0 -95 -95 -95 -95 0 -95.5 -95.5 -96 0 -96 -95 0 -95 -95 -95 -95 -95 0 -95 0 -95 -95 0 0 0 0 0 0 0 0 -96 -96 -96 -96 -96 -96 -96 0 -96 -96 0 -96 0 -96 -95 0 0 0 0 0 0 0 0 0 0 0 0 -96 -95 0 -96 0 0 0 0 0 -96 0 -96 -96 0 -96 -96 -95.5 0 -96 0 -96.5 0 -96.5 0 -96.5 -97 0 -96.5 -95.5 0 -97 -95.5 -95.5 0 0 0 0 0 0 0 0 0 -96 0 0 -96 0 0 0 0 0 0 0 0 0 -96.6667 -95.5 0 0 0 0 0 0 -96 -96 0 -96 0 -96 0 -97 0 -97 -96.5 0 0 -96 0 -98 0 -0.5 0 0 0 0 -96.6667 0 -96.5 -96.5 0 0 -97 -97 -97 -97 0 -97 0 0 0 0 -98 -97 -97 -34.6667 0 0 0 0 0 0 -97 0 0 -97 -97 -97 -97 0 -98 -97.5 -97 -97 -19.5 -97 0 0 0 0 0 -97 0 -97 0 -97 0 -97.5 -97 0 -97 0 0 -97 0 0 0 0 0 0 0 0 0 -98 -98 0 0 0 0 0 0 0 0 0 0 0 0 0 0 0 0 0 -98 -98 -98 0 -99 -98 -98 -98 -98 0 0 0 0 0 0 0 -98 0 -99
0 0 0 0 0 0 0 0 0 0 0 0 0 0 0 0 0 0 0 0 0 0 0 0 0 0 0 0 0 0 0 0 0 0 0 0 0 0 0 0 0 0 0 0 0 0 0 0 0 0 0 0 0 0 0 0 0 0 0 0 0 0 0 0 0 0 0 0 0 0 0 0 0 0 0 0 0 0 0 0 0 0 0 0 0 0 0 0 -88 -88 0 0 0 0 0 0 0 0 0 0 0 0 -87.5 -87.5 -87.3333 -87.5 -87.5 -88.5 -88.5 -87.5 -87.5 -88 0 0 -88.5 -88.5 -87.5 -87.5 -87.5 -88.6667 -88.6667 -88.5 -88.5 -88.5 -88 -88 -88 -86.9333 -86.9333 0 0 0 -88.5 -88.5 0 0 0 0 0 0 0 0 0 0 0 0 0 0 0 -89 -88.5 -88.5 0 -88.6667 -88.6667 0 0 -89.5 0 0 0 -89 -89 -89.5 -89.5 0 0 0 0 0 0 0 0 0 -89.5 -89.5 -89.5 0 0 -89 -89 -89 0 0 0 -90.5 -90.5 -89 -89.5 -89.5 0 -90 -90 -89.5 -89.5 -90 -90 -90 -89 0 0 -89.5 0 0 0 -90.3333 0 0 0 0 0 0 0 -30 -89.5 -89.5 -90 -89 -89 0 -90.5 -90.5 -90 0 0 0 0 0 0 0 0 -89 0 0 -90 -89.9 -89.9 -90 -90.5 -90.5 -91 -90 -90 -90 0 0 -91 -90 -90 -90 -90.6667 -90.6667 -91 -91 -89.9 -89.9 -90 0 0 0 0 0 0 0 0 0 0 0 -90.1 0 -91.3333 -91.3333 0 0 0 -87.5 -89.5 -89.5 -89.5 -91.5 0 0 0 0 0 0 0 0 0 -92 0 0 -91 0 -91.5 -91.5 -90.5 -90.3333 -90.6667 0 0 -91.5 -91.5 0 -92 0 0 0 0 0 0 0 0 -91.3333 -91.3333 -91 -91.5 -91.5 -91 0 -91.5 -91.5 -91.5 -91.5 -91.5 0 -92 -91.5 -91.5 -92 -92 -92 -92 -91 0 0 0 0 0 0 0 0 -92 -91.5 -91.5 0 -92 -92.5 -92.5 0 -93 -91.5 -91.5 -92 0 -92 -92.4 -92.4 -92 0 -92.5 -92.5 -92.5 -91 -92.5 -92.5 -93 -92 -92 -92.3333 -92.6667 -93 -92 0 0 -93.5 -92 -92 -92.5 -92.5 -93 -92 0 0 -93 -93 -93 0 0 0 0 0 -92.5 -92.5 -93 0 -93 -93.3333 -93.3333 -93 0 -92.5 -92.5 -92.5 0 -93 -93 0 0 -93.25 -93 -93 0 0 -94 -93 -93 0 -92.5 -92.5 -93 -93 -93 -92.5 -92.5 -93 -93 -93 -93 -93.5 -93.5 -94 -93 0 0 0 0 0 -94 -93.5 -92 0 0 -93 -93 -93 -93 -92.5 -92.5 0 -94 -93 0 -93.5 -93.5 -94 0 -94 -94 -93 0 0 -94 0 0 0 0 0 0 0 0 0 0 -93 -93.6 -93.6 -94 -94 0 0 0 -93 0 0 0 0 0 0 0 0 0 0 0 0 0 0 0 0 -94 -93.5 -93.5 0 -94 -94 -94 -94 0 -94 -93.5 -93.5 0 0 0 0 0 0 -94 0 -94.5 -94.5 0 0 -94 -94 0 0 -94 0 -94 -94.5 -94.5 0 0 -94 0 0 0 0 0 -94 -94 -94 0 0 -95 -95 0 0 -95 0 0 0 0 0 0 0 0 0 0 0 0 0 0 -95 0 -96 -95 -95 -95 -95 0 -95 -95 -95 -95 0 -95 0 0 -96 -95.5 -95.5 0 -96 -96 -96 -96 -96 -96 -96 -96 -96 -96 0 -96 0 -96 -95 0 -95 0 0 -96 -96 -96 -96 -96 -96 -96 0 -96 -96 -96 -96 0 -96 -95 0 0 -96 0 0 -96 0 -96 0 -96 -96 -96 0 -97 0 -97 0 -96.5 0 0 0 -95.5 0 0 -95.5 0 0 -96.5 0 0 0 0 -96.5 0 -96 0 -96 0 -96 0 -97 -97 0 -97 -97 -97 -96.5 0 -96.6667 -96 0 -96.5 -96.5 0 0 0 0 0 0 0 0 -96 0 -97 -96.5 0 -96.5 0 0 -95 0 -98 0 0 0 0 -97 0 -96.6667 0 0 0 0 0 -97 -97 -97 -97 0 -97 -96.5 -87.8 -96.5 0 0 0 0 -67 0 -97 0 -96.5 0 0 -97 -19.5 0 -97 -97 -97 -96.5 0 -98 -97 -97 0 0 -97 0 0 -97.5 -97 0 -97 -97 0 0 -98 -98 -97.5 0 0 0 0 0 -97 0 0 -98 -98 -98 -98 -98 -98 0 0 -98 0 -98 -98 -97 0 0 0 0 0 0 0 -98 0 0 0 0 0 0 -98 -98 0 -99 0 -98 -98 -98 -98 0 0 -99 -99 -99 -99 -98 -98 -99
0 0 0 0 0 0 0 0 0 0 0 0 0 0 0 0 0 0 0 0 0 0 0 0 0 0 0 0 0 0 0 0 0 0 0 0 0 0 0 0 0 0 0 0 0 0 0 0 0 0 0 0 0 0 0 0 0 0 0 0 0 0 0 0 0 0 0 0 0 0 0 0 0 0 0 0 0 0 0 0 0 0 0 0 0 0 0 0 -88 -88 -87.5 -87.5 -88 -88 -87 0 0 -89 -89 -88 -88 -88 -87.5 -87.5 -87.3333 -87.5 -87.5 -88.5 -88.5 0 0 -88 0 0 0 0 0 0 0 0 -88.6667 -88.5 -88.5 -88.5 -89.5 -89.5 -88 -88.5 -88.5 0 0 -88 -88.5 -88.5 0 0 0 0 0 0 0 0 0 0 0 0 0 0 0 0 -88.1667 -88.1667 0 -87.3333 -88.6667 0 0 -89.5 -88.5 -88.5 -89 -89 -89 -89.5 -89.5 -90 -88.5 -88.5 -89 -89.5 -89.5 0 0 0 0 0 0 0 0 -89 -89 -89 -89.5 -89.5 0 -90.5 -90.5 -89 -89.5 -89.5 0 -89.8333 -89.8333 -89.5 -89.5 -90 -90 -90 0 -90.6667 -90.6667 -89.5 -89.3333 0 0 -90.3333 -90.3333 -89.5 0 0 0 0 0 0 0 0 0 0 0 0 -90.5 -90.5 -90 -88.5 -88.5 0 -90.5 -90.5 -90 -90 -90 -89 0 0 -90 -89.9 -89.9 -90 -90.5 -90.5 -91 -91.5 -91.5 -90 0 0 -91 -90.1667 -90.1667 -90 -90.3333 -90.6667 -91 -91 -89.9 -89.9 -90 0 0 -91 -90 -90 -90 -90.5 -90.5 -91 0 0 0 0 0 0 -91 -91.5 -91.5 -85.6 0 -90 -90 -91.5 0 0 0 -91.8333 -91.8333 -91 -90 0 0 0 -90.5 -90.5 0 0 0 0 -90.5 -90.3333 -90.3333 0 0 0 0 0 0 0 0 0 0 0 -92 0 0 0 -91 -91 -91.5 -91.5 -91 0 0 0 0 0 0 0 -92 -92.5 -92.5 -92 -92 -92 -92 -92 0 0 0 0 0 0 0 0 0 0 0 0 0 -92.5 -92.5 -93 0 -91.6667 -91.6667 -92 0 -92 -92.4 -92.4 -92 -92 -92.5 -92.5 -92.5 0 0 0 0 0 -92 -92.3333 -92.3333 -93 -92 0 0 -93.5 -92 0 0 0 0 -92 0 0 -93 -93 0 0 0 0 0 0 0 0 0 0 -93 -93.5 -93.5 -93 -93 -92.5 -92.5 -92.5 0 -93 -93 -92.6667 -92.6667 -93.25 -93 -93 -92.5 -92.5 -94 -93 -93 0 -92.5 -92.5 -93 -93 -93 -92.5 -92.5 -93 0 -93 -93 -93.5 -93.5 -94 -93 0 -93 -93.3333 0 0 0 0 0 0 0 0 0 0 0 0 0 0 -94 -93 0 -94.5 -94.5 -94 -94 -94 -94 -93 0 0 -94 -94 0 -94 -94 0 0 -95 -94.6667 -93 0 -93 -93.6 -93.6 0 -94 -93 0 -94 -93 0 0 -94 -94 0 -94 0 0 0 0 0 0 -94 -94 -93 -94 -94 -93.6667 -93.6667 0 -94 -94 0 -94 -94 -94 -94.5 -94.5 -94 0 -94 0 0 0 0 0 0 0 -94 0 -94 -94 -94 0 -94 0 0 0 0 0 -95 0 0 0 0 0 0 0 0 0 0 0 0 0 0 0 0 0 0 -95 0 0 -95 0 -95 -94 0 0 -96 -95 0 0 0 0 -95 -95 -95 -95 0 0 0 0 0 0 -95 -95 0 0 0 0 0 -96 0 -96 -96 0 0 0 0 0 0 0 0 0 0 0 0 -96 0 0 0 0 0 0 0 0 -96 -96 -96 -96 -96 -96 0 -96 -95 0 0 -96 0 0 0 0 0 0 0 0 0 0 -97 0 -97 0 0 0 0 0 -96 0 -97 -96 0 -96 0 0 -96.5 -97 -97 -97 -96 0 -96 -96 0 -96 0 -97 -97 -97 0 0 0 0 0 0 0 0 -97 -97 0 -96.5 -97 -96 -96 -97 0 -97 0 0 -97 0 -97 -96.3333 -96.5 -97.6667 -96 -96.5 -99 -97 -97 0 -97 -97 -97 -96.5 -96.5 -96.5 -96.5 -97 -97 0 0 0 0 0 0 -96.5 -87.8 0 0 -97 -97 -97 -97 -97 -97 0 -96.5 0 0 0 0 0 -97 -97 -97 -96.5 0 0 -97 -97 -97 -97 -97 0 0 0 -97 0 -97 -97 -97 0 0 -98 0 0 0 -97 0 0 -97 0 -98 0 -98 -98 -98 -98 -97 0 0 -98 0 -98 0 -97 0 0 0 -99 -98 0 0 0 0 0 0 -99 -98 -98 -98 -98 0 -99 0 0 0 -98 -98 0 0 -99 0 0 0 0 0 0
