0 0 0 0 0 0 0 0 0 0 0 0 -9.5 -9 0 -10 -9.5 -9.5 -9.5 -10 -9.5 -9 -9 -8.5 0 -8 0 0 0 -9 0 0 -8 -8 -8 0 -7.5 -7.5 -8 0 -8.5 -8 0 -8 -7.66667 0 -7.5 -7.5 -7.5 -7 -7 0 0 0 0 0 0 0 0 0 0 0 0 0 0 0 -6.33333 -6 0 -6 -6 -6 -6 -6 -5.5 -5 0 -6 -4.5 0 -5 -5.5 -5.5 0 0 0 0 0 -4.5 -4 0 -5 -3.5 0 -4 0 0 0 0 -4 0 -5 0 0 0 0 0 0 0 0 0 0 0 0 0 0 0 0 0 0 0 0 0 0 0 0 0 0 0 0 0 0 0 0 0 0 0 0 0 0 0 0 0 0 0 0 0 0 0 0 0 0 0 0 0 0 0 0 -43 -44.5 -44.5 -44.5 0 0 -44.3333 -44.3333 0 0 0 0 0 -45 -44.8333 -44.8333 0 0 0 0 0 0 0 -44 0 0 0 0 0 0 -44 0 0 0 -44 -43 0 -43.5 -43 -43 0 0 -42 0 -42 0 -42.6667 0 -32.8 0 0 -42 -31.75 -31 -39.3333 -39.6667 0 -40 0 0 -43 0 0 0 0 0 0 0 0 0 0 0 -38 -39.5 -39.5 -37.6667 -37.5 -37 -37 -36 -36 -36 -36 0 -34 -33.8333 -33.8333 -34 -33.5 0 0 -34 -34 0 -31.5 0 -31 -30.3333 -30.3333 0 -27 -26.5 0 -26.5 -25 -24 -24 -24 0 -24 -24 -25 -23 -23 0 -23 0 0 0 -20.5 -20.5 0 0 -23 -21.5 -22.5 0 -23.5 0 0 -25 -25 -25 -25 -25 -24.6667 -25 -25.5 0 0 0 0 -26 0 0 -28 -27.5833 0 -29 0 0 0 -26.5 0 0 0 0 0 -27 -28 -27.5 0 -28.5 0 -27 -27 -27.5 -27.5 -27 -27 0 -27 -27 0 -28 -26 0 -27 -27 -26.3333 -26.3333 0 -26 -26 -26 -26 -26 0 -24.5 -24 -25 0 -25 0 -25 0 0 -25 0 0 0 -22 0 -22.5 0 0 0 -20.5 -20.5 -21 -20 -21 -21 -21 -19 0 0 0 0 0 -10 -9.5 0 0 0 0 0 0 -9 0 0 0 -8 -8 -8 -8 -8 0 -8 -7 0 -8 0 -7 0 0 0 -6 -6 -7 -9.33333 -11 0 -12.5 0 -13.4286 0 -11 -10.3636 -13.4286 -9.625 0 -15.9535 -15.9535 -8.1 -15.25 -15.7133 -5.5 -4.5 -15.1871 -15.1871 -8.83333 -27.5 0 -17 0 -19.25 -26.3333 -21.3333 -16.25 -16.25 -17.5 0 0 -19.5 -24.6 -19.8333 0 -19.5 -19.5 0 -19 -20 0 0 0 0 0 0 -20 -20 -20 -20 -20 -18.5 0 0 -19.5 0 0 0 0 -19 -19 -19 0 0 0 -19.5 0 0 0 0 -19 -19 0 0 0 0 -16.5 -16.5 0 0 0 -16 -18 0 0 0 -16 -15.6667 0 0 -13 0 0 -13.5 -14 0 -10.8333 -11 0 -8.5 -8 -8 -10 0 0 -8 0 0 0 0 0 -11 0 -11.5 -11.75 0 0 -10.5 -10 -10 -10 0 -9.5 -10.5 -10.5 0 -10.5 0 -11 0 -11.5 -11.5 -11 0 0 0 0 0 0 -12 -12 0 0 0 -11.5 -11.5 -12 -12 0 0 0 -12.5 -12.5 0 0 0 0 0 0 0 0 -12.5 -8.66667 -8 -11.3333 -11.3333 -9 0 0 0 -10 0 -27.5 -27.5 -10.6667 -11 0 -8 0 0 16 0 0 23.5 0 24 0 25 25 25 0 0 24 24 0 25 25 25 25 25 0 0 24 24.5 0 0 0 0 0 0 0 0 0 0 0 0 0 0 0 0 0 0 0 0 0 0 0 0 0
0 0 0 0 0 0 0 0 0 0 -10 0 -11 -9 0 -10 -9.5 -9.5 -9.5 -10 -9.5 -9 -9 -8.66667 0 -9 0 0 0 -9 -9 -8.5 -8 -8 -8 0 -7.5 -7.5 -8 0 -8.5 -8 -8 0 -7.33333 0 -8.5 -8.5 0 0 0 0 -8 -6 0 -7 -6.5 -6.5 -6.5 -7 -7 -6.5 0 -7 -7 0 -6.5 -6 -6 -6 -6 -6 -6 0 -5.5 -5 0 -6 -6 0 -5 -5.5 -5.5 -6 -5.5 -5 -5 0 -4.5 -4 0 -5 -5 0 0 -4.5 -4.5 0 -4.5 0 -4 -4 0 0 0 0 0 0 0 0 0 0 0 0 0 0 0 0 0 0 0 0 0 0 0 0 0 0 0 0 0 0 0 0 0 0 0 0 0 0 0 0 0 0 0 0 0 0 0 0 0 0 0 0 -42.6 0 0 -43.5 0 0 -44.75 -44.75 -41.3333 -44 -44.3333 0 0 0 0 -43 -45 -43.5 0 -44 0 -44.5 -44.5 -44.5 0 -45 -45 -44 -43.25 -45.6667 -44.5 -43 -43 0 -44 0 -43 0 0 -44 -42.5 -44 -44 -43.5 -43.5 -43.6667 -44 -44 0 -42 -43 -42 -19 -32.25 -41.5 -41.5 -37 -30 -35.8333 -38.5 -38.5 0 -41.5 -41.5 -42.5 -44.6667 -39.1667 -39.1667 0 0 -37 0 -38 -37 -38 -38 -38 -37.5 -37.6667 -37.6667 0 -37 -36 -36.3333 -36.3333 -36.3333 0 -37 0 0 0 -34 0 -33 -34 -34 0 0 -32 -32 0 -31 0 -27.5 -27.5 -28 -28 -27 0 0 -25 0 -24 -24.5 -24.5 0 -23 -23 -22.5 0 -22 -23 0 0 0 0 0 -21.8333 -23 -23 -22 -22 0 -23.5 0 0 0 -24.5 -24.6667 -24.6667 -25 -25 0 0 -26.5 -26.5 -26 0 0 -28.1667 -28.1667 0 -28.5 -26.5 -26.5 0 -28 -28 0 -28 0 -28 0 0 0 0 -27 0 -27.5 -28 -28 -28 -27 -27 0 -28 -28 0 -28 0 0 0 0 0 0 -26 0 -26 0 0 0 0 -26 0 0 0 0 0 0 -25 -25 0 -25 0 0 0 0 0 -23 -21.5 0 -22 -21 0 0 0 -21 -10 -10 -18 -11 0 -10 0 -10 -10 0 -10 -9 0 -9 0 0 0 0 0 0 0 0 0 -8 0 -8 -7 0 -8 0 -7 0 -6 0 0 0 0 3 0 0 -9.625 -9.625 0 -10.3636 0 0 0 -11 0 -13.4286 0 0 -15.7133 -15.7133 -15.25 0 -22.5 -15.9535 -15.9535 -16 -28 0 0 0 -18 -18 -18 -18 -17.5 0 0 0 0 0 -20 -19 -19 -19 -19 -19 -19 0 -20 -20 -19 0 0 0 0 -19.5 -19.5 0 0 0 0 -19 -19 0 0 -20 0 -18.5 -19 -19 -19 -19 0 0 -20 -19 -19.5 0 -18 -18 -18 -18 -16.5 -16.5 0 0 0 -15.5 -18 -17.5 -15.5 -15.5 -15 -15 -14 0 -13 -13 -13.5 -12.5 0 0 0 0 -8 0 0 -8 -8.5 -9 -9 0 -10.5 -10.5 0 -10 -10 0 0 -11 -11.5 0 -9.66667 0 0 -11 -10 0 0 0 0 0 -11 -11 0 -11 -11 -12 0 -12 0 -12 -12 0 0 0 0 -12.5 -12.5 -12 -11.5 -11.5 -12 0 -11.5 0 -12 -11 0 -12 -11 -11 -12 0 0 0 0 -11.5 -9 -8.66667 -11.3333 -11 -10 -13 -11.25 0 -10 -9 -11 -11 -11 0 0 -9 0 0 0 0 0 23 0 24 24 24.5 24.5 0 24 0 24 24 0 24 0 24.5 24.5 24.5 25 0 23.5 23.5 0 0 0 0 0 0 0 0 0 0 0 0 0 0 0 0 0 0 0 0 0 0 0 0 0
0 0 0 0 0 0 0 0 0 0 -10 0 -11 -10.5 0 -10 -9.5 -9.5 -9.5 -10 0 -9 -9 -8.33333 0 -9 0 0 -9.5 0 -9 -8.5 -8 -8 -8 0 -9 -9 -8 -7.5 0 -8 -8 0 0 0 -7 0 0 -8.5 -7 0 -8 -7.5 0 -7 -6.5 -6 0 0 -8 -6.5 0 -7 0 0 0 0 0 0 0 0 0 0 0 -6.5 0 -6 -6 -4 0 -5 -5.5 -5.5 0 -5 -5 0 -6 -4 0 0 0 0 0 -4.5 -4.5 -5 0 -4 -4 -4 0 11 0 0 0 0 0 0 0 0 0 0 0 0 0 0 0 0 0 0 0 0 0 0 0 0 0 0 0 0 0 0 0 0 0 0 0 0 0 0 0 0 0 0 0 0 0 0 0 0 0 0 -43.5 -43.5 0 0 -41.3333 0 -44.3 -44.3 -44 -43.5 0 0 0 -43.5 -43.5 -44.5 -44.5 -43.5 0 -44 -44 -42.5 -44 -44 -44.5 -44.5 -44.5 -44 0 -45.6667 -44.5 -43.5 -43.5 -44 -43 -43 -44 -44 -44 -45.5 -45.5 -45 -43.5 -43.5 -43.6667 -43.6667 -44 -43 0 -43 -42 0 0 0 0 0 -41.5 0 -42 -42.5 0 -41 -41 -41 -41 -40 0 -41 0 0 -38.5 0 -38 -37 -37 -37.5 -37.5 -38.1667 -37 -38.1667 -37 -37 0 -36.3333 -36.3333 -36.3333 0 0 -36 -35.5 -34.5 -34 -32.5 -34.5 0 -34 -34 0 0 -32 -33 0 0 0 -28 -28 -28 -28 0 -25 -25 -24 -24 -24.8333 -24.8333 -24.5 -23 0 0 0 0 -22.5 0 0 -20.5 -20.5 0 0 -23 0 0 -22 -23 -24.6 -24 -25 -25 -25 -25.5 -25 -25.5 -25.5 -25.5 0 -26.5 -26.5 0 0 0 -27.5 -28.1667 -27.5 0 -27 -27 -25.6667 -27.5 -27.5 0 0 -28 -28 -28 -27 -27 0 -28 -27 0 -27.5 -28 -28 -28 -27 0 -28 -28 0 0 0 0 -27 -27 0 -27.5 -26.6667 0 -26 -26 0 -26 -26 -26 -25.5 0 -26 -26 0 0 -25 -25 -25 0 0 -24 0 -22 0 0 0 -22 -21 -21 0 -22 -20.6667 -20.6667 -20.6667 0 0 -19 0 -10 0 -9.5 0 0 0 -10 0 -10 -10 -8 0 0 -8 -8 0 -7 0 -8 -8 -8 -7 0 -8 0 0 0 0 -5 0 -5 -12.3333 0 -6 -11 0 -9.625 -9.625 -9.625 0 0 0 -13.4286 0 0 -10.3636 -15.7133 -15.7133 -11.1667 -16 -18.3333 -16 -15.9535 -15.9535 -15.5714 -15.9535 -16.5 0 -18 -16.5 -17.6667 -18 -18 -18.6667 -17.6667 0 -18.5 -18.5 -18.5 -18.5 -20 -19 -19.5 -19.5 -20 -20 0 -20 -20 -20 -20 0 -20.5 -20 0 0 -19.5 -19.5 -20.5 -20.5 -20 -19 -19 0 0 0 -19.5 -18.5 0 -19 0 -18.5 -19.5 -19 -19.5 -19 -19 0 0 0 -17 -16 -16 -16 0 0 -16 -16 -17.5 -16 0 -16 -15 -13.3333 -15 -13 0 -13 -12.3333 -12.5 -6 -11 -11.5 0 -8 0 -8 -8 -9 -9 0 -9.5 -9 0 -9.5 -10 0 -10 -12 -13 -10 -9.66667 0 0 0 0 -10 -11 0 0 0 0 0 -11 -11 0 0 0 0 0 0 -12 0 -12.5 -12 -12 0 -12 -12 -12 -12 -12 0 -12.5 -12 -11 0 0 -12 -12 0 0 -12 0 0 0 0 -11.25 -9 -10.5 -12 0 -16 -12 -17 -11 -10.5 0 -12.6667 0 0 0 -9 0 19 24 0 0 0 24 24 24 24 25 24.5 24.5 24 23.5 23.5 23.5 24 0 0 0 0 0 0 0 23.3333 20 0 23.5 0 0 0 0 0 0 0 0 0 0 0 0 0 0 0 0 0 0 0 0 0 0
0 0 0 0 0 0 0 0 0 0 0 0 0 0 0 0 0 0 0 0 0 0 0 0 0 -9 -9.5 -9.5 -8 0 -9 -8.5 -8 -8 -8 0 0 0 0 0 0 -8 -8 -8 -7.5 0 -7.5 0 0 -8.5 -7 0 -8 -7.5 -7 0 0 -6 0 0 0 0 0 0 -7 -7 -6.5 -6 -6 -6 -6 -6 -6 0 -7 -6.66667 -5 0 -6 -5.5 0 -5 -5.5 -5.5 -5.5 -5 -5 0 0 0 0 0 0 -4.5 0 -4.5 -4.5 -5 -4.33333 0 -24 0 0 -17 -6.25 0 -6.25 0 0 0 0 0 0 0 0 0 0 0 0 0 0 0 0 0 0 0 0 0 0 0 0 0 0 0 0 0 0 0 0 0 0 0 0 0 0 0 0 0 0 0 0 0 0 0 0 0 -44 0 -41.3333 0 0 -45.5 -45.5 -44 -44 0 0 -44 -44 -44 -44 0 -44.5 -44 -44 0 0 0 -44 -43.8333 -43.8333 0 -45 -43.75 -43 -45.6667 -45 -44.5 -44.5 -45 -44 -44 -44 -45 0 0 0 0 0 0 0 -42 0 -42.5 -42.5 0 -34.25 -34.25 -37 -26 -32.6667 -41 -42 -37.3333 -40.0833 0 -40.0833 -40.0833 -39.3333 -36.5 0 -35 0 0 0 0 -38 -37.5 -37.5 0 0 -38.1667 -39 -39 0 -38 -37 0 -37.5 -36 0 0 -36 -34.5 -34.5 -34.6667 -32 -32.5 -34.5 -34.5 -34.5 -35 0 -33 -32 0 -31 0 0 0 0 0 0 -25 -25 -25 0 0 0 0 0 -22 0 0 0 -23 -22.5 0 -22.5 -22 -22 -22 -22 -22 0 0 -24.6 -24.6 0 -24.6 -23.5 0 -25 -25 -25 -25.5 -26 0 0 0 -27 0 0 -27.5 0 -27.5 -27 0 -27 -27.5 -27.5 -28 0 -28 -27 0 -28 -28 -27.5 0 -28 -27 0 -28 -28 -28 0 -27 0 -28 0 0 -28 -27 0 -27 0 -27.5 -27.5 -26 0 -27 -26 0 -26 -26 0 -27 -25 0 -26 -25 0 -25 -25 -25 -25 -24 0 0 -23 -22.6 -22.5 -22.5 -22 -21 -21.5 -21.5 -22 -20.5 -20.5 0 0 0 -19 0 -9 -10.6667 -10.6667 0 0 -9.5 0 0 0 -10 -8 -8 0 -8 0 -8 -8 0 0 0 -8 -7 0 -8 -7 -7 -7 0 0 0 0 -5 0 -4.5 0 -9.625 0 -9.625 -9.625 0 0 0 0 0 0 -9.8 0 -13 -15.1871 -18.3333 0 0 -25 -15.9535 -15.25 -15.25 -16 -18 -18 -21 -17.6667 -18 -18 -21.6667 -16.75 0 -19.5 -19.5 0 0 -20 -20 0 0 0 0 0 0 0 -20 -20.3333 -20 0 0 -21 -20 -19 -20 -19 -20 -19 -20 0 -20 -20 -20 -20 0 0 -19 0 0 -20 0 0 0 -19 -20 -18 0 -17 0 -16 -16 -20 0 0 -16.5 0 -15.5 -15.5 0 -14.5 0 0 0 -13 0 0 0 0 -9 0 -9 0 -7.5 -8.5 -8.5 -9 -9 -9 -9 -9 0 0 0 0 0 0 -10.5 -10 -10 -10 0 -11 0 0 0 -10.5 -10.5 -11 -11.3333 0 -12 -12 -11 -11 -11 -11 -11 -11 -11.5 -11.5 -11.5 -12 -12 0 -12 0 -12 -12 -12 -12 0 0 0 -12.5 -12 0 -11.5 -11.5 -11.5 -12.5 -12.5 0 -13 -17 0 0 0 -10 -12 -13 -15.6667 -10.9333 0 -11 -9.5 -9.5 -12.6667 0 0 -9 -7 22 23 23 0 23 23.5 0 23.5 23.5 24 24 24 23.5 23.5 23.5 23.5 23.5 0 23 0 0 23.3333 0 24 0 0 0 24 0 0 0 0 0 0 0 0 0 0 0 0 0 0 0 0 0 0 0 0 0 0
0 0 0 0 0 0 0 0 0 0 -10 -10 0 -10.5 -10 0 -9.5 -9.5 -9.5 -10 0 -10.5 -9 -8.5 0 -9 -9 -7.5 -7.5 0 -9 -8.66667 0 -9.5 0 0 0 -8.5 -8.5 -9 -8.5 -8 -8 -8 0 0 -7.5 0 0 -8.5 -8 0 0 0 0 0 -6.5 0 0 0 -8 -8 0 -7 -7 -7 0 -6 -6 -5.5 0 0 -6 -6 0 -6.33333 -5 0 -6 -5.5 0 -5 -5.5 -5.5 -5.5 0 -5 -5 0 -4 -4 0 -5 -4.5 0 0 0 -5 0 0 0 -4 -4.5 -17 0 0 0 0 0 0 0 0 0 0 0 0 0 0 0 0 0 0 0 0 0 0 0 0 0 0 0 0 0 0 0 0 0 0 0 0 0 0 0 0 0 0 0 0 0 -13.75 -13.75 0 0 0 0 -43.1667 -43.1667 -43 -42.75 0 0 -45.5 0 -45 0 -44 -44 -44.5 0 -44.5 -44.5 -43.5 0 -43.6667 -43.6667 -45.5 0 0 -44 0 0 0 0 -44.5 0 0 0 0 0 -43.1667 -43.5 -43.5 -44.5 -44.5 -45 -45 0 -44 0 0 -44 -42 0 -42 0 0 0 -23 0 -26 -37 -35 -36.5 -39.3333 -39.3333 -39.3333 -40.0833 -41.7 -41.7 -43 0 0 0 0 -38.5 0 -37 0 -38 -37 -37.8333 -37.8333 0 -37.8333 -39 -38 -38.5 -39 -37.5 -36 -36 -35.5 -35.3333 -34.25 -34.25 -34.6667 -34.6667 0 0 -34 -34 -34 -32 -31.5 -31.5 -31.5 0 0 0 -28 0 -27 0 -26 0 -25 -26.5 -25.5 -25.5 -26 -23 -22.5 -22.5 0 -23 0 0 0 0 0 0 0 -22.5 -23.5 0 -23 0 0 0 -24.6 0 0 0 -23.5 -25.3333 -25.3333 -26 -26 0 -27 -27 -27 -27 0 -27.3 0 -27.5 -27.5 -28 -27.3333 -27 0 0 -28 -27.5 -27.5 -28 0 0 0 0 0 0 0 0 0 0 0 0 -28 0 0 0 0 -27 0 0 -27 -27 -27 -27 0 -27 0 -26.5 -26.5 0 -27 -26.5 0 -26 -26 -26 0 0 0 0 0 0 -23 -23 -22.5833 -22.5 -22.5 -22.5 -22 0 -22 0 0 0 0 0 0 0 0 0 0 -10.6667 -10.5 -9.5 -10 0 0 0 -10 -8 0 0 0 0 0 -8 0 0 0 -8 0 -8 -8 0 -7 -5 0 0 0 0 0 0 -4.5 -4.5 7 0 -9.625 -9.625 -9.625 -9.625 0 0 0 0 0 0 -10.3636 -15.7133 -15.9535 0 -15.7133 -15.9535 -15.9535 -15.9535 -20.1667 -6 -13 -13 -16.5 -16.5 -16.5 -31 0 -19.5 -19 -19 -20 -20 -20 -20.5 -21 -20 0 -20 -20 -20 -20 -20 0 -20.3333 -20.3333 0 -20 -21 -20.5 0 0 0 0 -19.5 -20 -20 0 0 -20 -19 0 -20 -19 -19 -19.6667 -19.6667 -19 0 -20 -19 0 0 -17 0 0 0 0 0 -17 0 0 0 0 -14.5 0 -16 0 -14 0 -15 0 0 0 -8 -8.5 -8.5 -8 -6.5 -6.5 -7.5 -7.5 -7.5 0 0 -9 -9 -9 -9.5 0 -9 0 -10 -10 0 -10 -10 0 0 -10 0 0 0 0 0 0 0 -12 -12 -11.5 -11.5 -12 -11 0 0 0 0 0 -12 -11.5 -11.5 0 0 -13 -13 0 -12.5 -12.5 0 -12 -12.5 -12.5 -13 -13 -12 -11.5 0 -13 -12.5 -12.5 -10.9333 -12 -12 -11 -10.5 -11 -13 0 0 -10.9333 -10.9333 0 -11.5 -12.6667 0 -9 -9 -7 0 0 0 23 23 23 23 23 24 23.5 23.5 23.5 24 9.75 9.75 0 0 17 0 0 14.6667 0 0 0 0 0 0 0 0 0 0 0 0 0 0 0 0 0 0 0 0 0 0 0 0 0 0 0 0 0
0 0 0 0 0 0 0 0 0 0 0 -11 -9.5 0 -10 -10 -9.5 -9.5 -9.5 -10 -9.5 0 -9 0 0 0 0 0 0 0 0 0 0 0 -8 -7.5 0 -8.5 -8.5 -9 -8.5 0 -8 -8 0 -8.5 0 0 0 0 0 0 -8 -7.5 -7 0 -8 -6 0 0 -8 -8 -7.5 0 -7 -7 -6.5 -6 0 -5.5 0 0 0 0 0 0 0 0 0 -5.66667 -5 0 -5.5 -5.5 -5.5 0 -6 -5 0 -5.5 -5 0 -5 0 0 0 -4.5 -4.5 -4.5 0 -4.5 -4.5 -4 -4.5 0 0 0 0 0 0 0 0 0 0 0 0 0 0 0 0 0 0 0 0 0 0 0 0 0 0 0 0 0 0 0 0 0 0 0 0 0 0 0 0 0 0 0 0 0 -30 -45 0 0 0 -44.25 -44.25 -43.5 -43.5 -43.5 0 0 -42.75 0 -45 -44 -44 -44 -44 -44 -45 -44 -44 -44 -43.6667 -45.1667 -44.6667 -44.6667 -44.5 -45.5 0 -44.5 -44 0 0 0 0 0 0 -43.1667 -43.1667 0 -44 -44 -44 0 -45 -44.5 -43.5 -44 -44.6667 -44 -42 -42 0 -43 -42 0 -42.5 0 -42 0 -30 0 -40.5 -40.5 -41 -41.7 -41.7 -41.7 -45 0 -41.6667 0 0 -38.5 0 -37.5 -37.5 -38 0 0 0 0 -37 -39 -38.5 -38.3333 -38.3333 0 0 0 -36 -36 -36 -36 -36 0 -35 0 0 -34 0 -31.5 -32 -32 0 0 0 -29 0 0 0 0 -26 0 -25 0 -26.5 -25 0 -23 -22.5 -22.5 -23 0 -23.5 -23.5 0 -21 -21 -22 -21.5 0 0 -22.5 0 -23.5 -24 -24 -23.5 0 0 -25 -25 -25.3333 0 -26 -26 -27 -27 0 -27 -27 -27 -27 -27.3 0 -28 -28 -27.3333 -27.3333 -27.3333 0 0 0 0 -28 -29 -27.6667 0 -28 -28 -28 0 -28 -27 0 -28 -28 0 -28 -28 -27.5 -27 -27 -26.5 -26.5 -27 -27 -27 -27 0 -27 -27 0 -27 -27 0 0 -25 0 0 0 0 -25 0 -25 0 -23 0 -22.6667 -22.5833 -22.5833 -23 -23 -22 -22 -21.6667 0 0 -22 -22 0 -21.5 0 -10 -10 -10 0 0 0 0 0 0 0 0 -7 -10 0 0 0 -8 -8 0 -8 -8 -7 0 -7 -7 0 0 0 0 -5 -5 -5 -9.625 0 -4 -4.5 -5 -5 -9.625 -9.625 -9.625 -9.625 0 0 0 -16.1538 -16.1538 -16.1538 0 -16.1538 0 0 -15.9535 -15.9535 -15.9535 -20.1667 -15.9535 -15.7133 -15.1871 0 -17.75 -15.3333 0 -16.5 0 0 -19.5 -19.5 0 0 -20 -19.5 -20.5 -21 -20.6667 0 0 0 -21 -20.5 -20.5 -21 -21 -20.5 -20.5 -20.5 -20.5 -20 0 -20.3333 -20 -20 -19.5 -20.5 -20.5 -20 -20 -19 -19 0 -19 -19.6667 -19.6667 0 -20 -19 -19 -19.5 -19.5 -17.5 -18.5 -18.5 -17 -16.5 -16 -16 0 0 -16 -17 0 0 0 -15 0 -14.5 -14.5 -15 -13 0 0 -15 -9.16667 0 0 0 -8 0 0 0 0 0 -10 -9 -9 -9 0 -9.5 -11 -10 -10 0 -10 0 -10 -10 0 -11 -10.5 -10.5 -10.5 -11 0 0 0 0 -11 -12 -12 -13 0 -12 0 -12 -12 0 -12 -12 -12 -11 0 0 -12 0 0 -12.5 -12.5 -12 -12 0 -12.5 0 0 0 0 -13 0 0 -10.9333 -13.5 -10 -10 -10 0 0 -14 -22 -15.6 -12 -12 -11.5 -13 0 -6 -9.5 0 0 22.5 22.6667 22.6667 23 0 21.5 22 17 6.7 6.7 0 0 0 0 0 20 20 14.6667 0 0 0 20 0 0 0 0 0 0 0 0 0 0 0 0 0 0 0 0 0 0 0 0 0 0 0 0 0 0
0 0 0 0 0 0 0 0 0 0 0 -11 -9.5 0 0 0 0 0 0 0 0 0 0 0 0 -9 -9 -9 -9 -9 -9 -9 -8.5 0 -9 -7.5 0 -8.5 -8.5 -9 -8.5 0 0 -8 0 -8.5 -7.5 0 0 -8.5 -8 -8 -8 -7.5 -7 -7 0 -7.33333 -6.5 -6.5 0 0 0 0 0 0 0 0 0 0 0 0 -7 -7 0 -6.5 -6 -6 -6 -5.33333 -5 0 -5.5 -5.5 -5.5 0 -6 -6 0 -5.5 -5 0 -5 -4.5 -4 -4 -4.5 -4.5 -4.5 0 -5 -5 0 -6.25 -6.25 0 0 0 0 0 0 0 0 0 0 0 0 0 0 0 0 0 0 0 0 0 0 0 0 0 0 0 0 0 0 0 0 0 0 0 0 0 0 0 0 0 0 0 0 -22 -14 0 0 0 0 0 0 0 0 -42.75 0 -42.75 0 -45 -45 -45 -44.8333 -44.8333 -45.5 -45.5 -45.1667 -45.1667 0 -44 -44.5 -45.1667 -44.6667 -44.6667 -44.6667 -44.5 -44.5 -44 0 0 -44 -44 -44 -44 0 -43.5 -43 0 0 0 -45 -45.5 -45.5 -44 -44.6667 -44.6667 -43 0 0 0 -43 -43 -43 -42.5 -42.5 0 -35 -41.6667 -41.6667 -41.6667 0 0 -41 -41.5 -39 -45.25 0 -38.6667 0 0 0 0 -38 0 0 0 0 0 0 -38.1667 -38.1667 -38 -38.3333 -38 -37.5 0 0 -36 0 0 0 -35 -35 0 -35 -34 -32.3333 0 -33 0 -32 -32 0 0 -29 -29 0 0 0 -26 -26 0 -25.8 -25.8 -22 0 -23 -22.8333 -22.8333 -23 -23 -23 -24 -21 0 0 0 -22 -22 0 0 0 0 -23.6667 0 -24 -23.5 0 -24.5 -24.5 -25.5 -25.5 -26 0 0 0 -27 -27 -27 -27.5 -27.5 -27 0 -28 -27 -27 -27.5 -27.5 0 0 0 0 0 0 0 0 0 -28 0 0 0 0 0 -28 -28 -27.5 -27.5 -28 0 -27 0 -26.75 0 0 -27 0 0 0 -27 0 0 -27.5 -27.5 0 -26 -26 -26 -26 -26 -25 0 0 -25 0 -23 0 -24 -24 0 0 -23.1667 -22.6667 -22 -21.6667 -21.5 0 -22 -21.3333 0 -22 0 0 -8.5 0 -10 0 -9 0 -9 -9.5 -9.5 0 -7 0 0 -8 -8 -8 -8 0 0 -7.66667 -8 0 -8 0 -7 0 -5 0 0 -5 -10.0909 0 -6.6 -10 0 -11.6667 -11.4239 -11.4239 -9.625 -9.625 -11.4239 -11.4239 -16.1538 -16.1538 -16.1538 -16.1538 -10.0238 -16.1538 -15.5 -16.1538 -10.3636 0 -15.9535 -26 -15.9535 -15.9535 -15.7133 -15.9535 -15.9535 -15.3333 -21.3333 -17.75 -17.75 0 -19 -19 0 0 0 0 -20 0 0 -20.3333 0 -21 -20.5 -20.5 0 -21 -21 -21 -20.5 -20.5 -21 -21 -20.5 -20 -20 -20.5 -20.5 -20 -20 -20 -20 -19 -19.5 -19.5 0 0 -20 -20 0 0 -18 -19 0 0 0 -19 0 0 -16.5 -16 -16 -16 0 -16 -16.5 -16.5 0 -15.5 -15.5 0 0 0 -14 0 -14.5 -14.5 -14 -14 0 -9 -10 -8 0 -9 -9 -9.5 -9.5 0 0 0 0 -10 -10 -10 -10 -10 -10 0 0 0 0 -10.5 -10.5 -11 0 0 0 0 0 -12 -11.5 -11.5 -11.5 0 -12 -12 -12 -12 0 -11.5 0 -11.5 -12.5 -12.5 -12 0 0 0 0 -12.5 -12 -12 -12.5 -12.5 -12.5 0 0 0 0 0 0 0 -15.6 0 0 -9.75 -11.5 -11.5 -11.5 0 -14 -16.6667 -15.6 -15.6 -15.6 -28 0 -32 0 0 -9.5 22 21 22.5 22.6667 0 0 0 21.5 17 17 17 24.5 24.5 -10 -10 4.5 -7.33333 -15 0 0 0 0 0 0 0 0 0 0 0 0 0 0 0 0 0 0 0 0 0 0 0 0 0 0 0 0 0 0 0
0 0 0 0 0 0 0 0 0 0 0 0 0 0 -10 -10 -9.5 0 -10.5 -10.5 -9.5 0 -10 -10 -9.5 -9 -9 -9 -9 -9 -9 -9 -8.5 0 -9 -7.5 0 -8.5 -8.5 -9 0 0 0 -8 -7.5 0 -8.5 -8.5 -8.5 0 -8 -8 -8 -7.5 -7 -7 0 0 0 0 0 -8 -7.66667 -7 -7 -7 -6.5 0 -7 -5.5 0 0 -7 -7 0 -6.5 -6 -6 -6 -5.5 -5 0 -6 -5.16667 -5.16667 -5 0 0 0 -5.5 -5 -5 -5 -4.5 -4 0 -4.5 -4.5 -4.5 0 -5 -5 -5 0 0 0 0 0 0 0 0 0 0 0 0 0 0 0 0 0 0 0 0 0 0 0 0 0 0 0 0 0 0 0 0 0 0 0 0 0 0 0 0 0 0 0 0 0 0 -29.5 0 0 0 0 0 0 0 0 0 0 -45 0 0 -45 -44.5 -44.5 -45 -45 0 -44.6667 -44.3 -44.3 0 -45.5 -45.5 0 -45.1667 -45.1667 -44.6667 -45 0 -42.5 0 0 0 0 0 0 0 -43 -42.5 -42.5 0 0 0 -44.75 -44.75 -45.5 -44 0 -44 0 0 -42 0 0 -42 -32 -24 -42 -35 -35.5 -36.5 0 -39 -39 -40.5 -40.5 -42.1667 -40.5 0 -45.25 0 0 0 0 -37.5 -37.5 -38 0 -37 -38 -38 -38 0 -38 -38 0 -36.6667 0 -36.6667 -37 -37 -36.5 -36.5 -35 -35 -35 -35 -34 -32.5 0 -32 0 -32 -32 -32 -31.5 -29.5 -29 -30 -27.5 0 -26 -26 -26 -27 -25.8 -25.8 -27 -25.5 0 0 -23 0 -22 0 0 0 0 0 0 -21 0 0 0 -22.5 -24 0 0 -24.5 -25.3333 -25 -23.5 -25.5 -25.5 -26 -26 -26.5 -26.5 0 -27 -27 -27.5 0 -27.5 -27 0 -27 0 -27.5 -27.5 0 0 -28 -28 0 -29 -27.5 -27 0 0 -27 0 -28 -28 0 0 0 0 0 -28 -27.5 -27 -27 -26.75 -26.75 -26.75 -27.5 -27 -27.5 -27.5 0 0 -27 0 0 -25.5 -25.5 -26 0 0 -25 -25 -25.5 -25.5 0 -24 -24 -24 0 0 -23 -23.1667 -23.1667 -22.6667 -22.6667 -21.5 -21.5 -22 -21 -21.5 -21.5 0 -9 -8.5 0 -9 0 0 0 0 -8.5 -8.5 -9 -9 -9 0 0 -8 -8 0 0 -8 -7.66667 -7.66667 0 0 0 -7 -7 -7 7 -5 -4.5 -4.5 -8.7 -8.7 -6.6 -6.6 -8.7 -11.4239 -10.0909 -11.4239 -9.625 -12.5 -11.4239 -11.4239 -10.0238 -16.1538 -16.1538 -16.1538 -15.5 -16 -10.0238 -14.3333 0 -19.6667 -6.33333 -28 -15.9535 -15.9535 -15.9535 -15.7133 -22.9091 0 -18 -15.3333 -15.3333 -17.75 0 -19 0 0 -20 -20.5 -20.5 -20.5 0 0 0 0 0 0 0 0 0 -21 0 0 -21.5 -21 -21 -21 -20.5 -20.5 0 -20 -20 0 -20 -21 -19.5 -19.5 -19 0 -20 -20 -20 -18 -18 -18 -18 -20 -19 -19 -18 -17.5 -17 -16.5 -16 -16 0 -15.5 -18.5 -18.5 -18.5 0 0 0 -14.5 -14.5 -15 -14.5 -14.5 -14 -13.3333 0 0 -8.5 -8.5 0 0 -8 -8 0 -9 0 0 0 0 -10.5 -10.5 -10.5 -10.5 0 0 0 0 -11 -11.5 -11.5 0 -11 -10.5 -10.5 -11.5 -11 0 0 0 0 -12 0 0 -11.5 -11.5 -11.5 -11 0 -12.5 -12.5 -12.5 -12.5 0 -13.5 0 0 -13 -12 -12.5 -12.5 0 -11.5 -11.5 0 0 -12.5 0 0 0 0 -16.6667 -16.6667 -9 -12 0 0 0 -14 -10 0 -11.5 -11.5 -13.1667 -10.75 -12.5 -8 -10.3333 -10 0 0 22 22 22 5 22 16.5 22 0 0 18 0 -11 -12 0 0 0 0 0 0 0 0 0 0 0 0 0 0 0 0 0 0 0 0 0 0 0 0 0 0 0 0 0 0 0 0 0 0 0
0 0 0 0 0 0 0 0 0 0 0 -11 -11 -10.5 -10 -10 -9.5 0 -10.5 -10.5 -9.66667 0 -10 -10 -9.5 -9 -9 -9 -9 0 0 0 0 0 0 0 0 0 0 0 -8.5 0 -8 -8 -7.5 0 0 -8.5 -8 -8 -8 -8 -8 0 -7 -7 0 -7.5 -7 0 0 -8 -7.33333 -7 0 -7 -6.5 -6 0 0 0 0 -7 -7 0 0 0 0 0 0 0 0 0 -6.5 -6.5 -5 0 -6 0 -5.5 -5 -5 -5 -4.5 -4 0 -5.5 -5.5 -6 0 -5 0 0 0 -4 0 0 0 0 0 0 0 0 0 0 0 0 0 0 0 0 0 0 0 0 0 0 0 0 0 0 0 0 0 0 0 0 0 0 0 0 0 0 0 0 0 0 0 0 0 0 0 0 0 -41 0 0 0 0 -44.5 0 0 0 -45 -44.8333 -44.8333 -43.5 -43.5 -44.6667 -44.6667 -44.3 -44.3 -44 0 -44.25 0 -45.5 -44.5 -45.5 0 -44.5 -45.1667 -43.5 -43 0 -43 -43 0 -44 -43.25 0 -43 -45 0 0 0 0 0 0 0 -44.5 -45 -43 -42.8333 -42.8333 -43.3333 -43.3333 -32 -33 -42 -34.5 -38.6667 -42 0 -40.5 -42.1667 0 -41.5 -39.3333 0 -41 -41 -38.8333 0 0 0 0 -38 -38 -38 0 0 0 0 0 0 0 -36.5 0 0 -36 -36.6667 0 -37 -37 0 0 -35 0 -34 -32.5 -32 -32.5 0 0 0 0 -29 0 -29.5 0 -28 -27.5 -26 0 0 0 -26 -26 0 -27 -26.5 0 -23 -23 -23 0 -21 0 0 0 -22 -22 -21.5 -21.5 -22.5 -22.5 0 0 0 -24.5 0 -24 -24.5 0 0 0 -26 -26.5 -26.5 -27 -27 -27 0 -27.5 -27.5 -27 0 -27 -27 -28 -28 0 0 -28 -28 0 -29 -27.8333 -27.8333 0 0 0 -28 0 -28 -28 0 -28.5 -28.5 -28 -28 -27.5 -27 -26.5 0 -27 -27 0 0 -27.5 -27.5 -27 -27.5 -27.5 -27 -27 0 -26 -26 -25 0 -25 -25 -25 -24 0 -23 0 -24 0 -24 0 -23 -23 0 -23 -22.5 0 0 0 0 0 0 0 0 0 0 0 -8.5 -8.5 0 0 0 0 0 -9 -8 -8 -8 -8 0 0 0 0 -8 -8 0 0 -6.5 -6.5 -6 0 0 0 -2.5 -2.5 0 -6.33333 -6.6 -6.33333 -11.7333 -16.9306 -10.0909 -11.4239 -11.4239 -11.4239 -16.1538 -16.1538 -16.1538 -16.1538 -16.1538 -10.3111 -16.5 -16.1538 0 -9.33333 0 0 0 -17 -15.9535 -15.3333 -15.7133 0 0 -18.5 -18 -18 -19 -31 -19 -18.5 0 0 0 0 -20 -20 -20 -20 -20 -20 -20.5 -20.5 -20.5 -20.5 -21.1667 -21.1667 0 -20.5 -21.5 -20.1667 -20.1667 0 0 -20 0 -20 -20 -20.5 -20.5 -19.5 -19.5 -19 0 -20 -20 -19.5 -19 -19.1667 -19.1667 -19 0 -19.5 -19 0 -17.5 -17 -17 -16 -16 0 -15 -16.5 -16.5 -16.5 -16.5 0 -16 -14.5 0 -11 -13.5 -13.5 0 -9 0 0 -9 -9 -8 0 0 0 -9.5 -9.5 -10 -9 -9.5 -9.5 0 0 -10.5 -10.5 -11.5 -11.5 -11 0 0 -11.5 -11.5 -11 -10.5 -10.5 -10.5 0 -11.5 0 -12 -11 0 0 0 0 -12 -12 -12.5 -12.5 -12 0 0 0 0 0 -12 0 0 0 -12 -12 -12 0 0 -12.5 -12 -12 -13 0 0 0 0 0 -13.1667 -10 -11.5 -11 -11 -12.5 -13.2 0 -16.5 -6 -19.3333 0 0 0 0 -10.3333 0 -11.5 -11.5 0 0 0 0 0 0 0 0 1.69231 0 -7.33333 0 0 0 0 0 0 0 0 0 0 0 0 0 0 0 0 0 0 0 0 0 0 0 0 0 0 0 0 0 0 0 0 0 0 0 0 0
0 0 0 0 0 0 0 0 0 0 0 -11 -11 -10.5 0 -10 -9.5 0 -10.5 -10.5 -11 -9.5 -9.5 0 0 0 0 -9 -9 -9 0 -10 -8.5 0 -9 -9 -8.5 -8.5 -8.5 -9 -8.5 0 -9 -9 -7.66667 0 0 -8.66667 0 0 0 0 -8 0 -8.5 -8 0 -7.5 -7 -7.5 -7.5 0 -7.5 -7 0 0 0 0 0 0 0 0 0 0 -7 0 -6 -6 0 -7 -5 -5 0 -6.5 -6.5 -5 0 -6 -6 0 -5 -5 -5 0 -5.5 -4 0 0 -6 -5.5 0 0 -5 -5 0 -4.5 -4.5 0 0 0 0 0 0 0 0 0 0 0 0 0 0 0 0 0 0 0 0 0 0 0 0 0 0 0 0 0 0 0 0 0 0 0 0 0 0 0 0 0 0 -28.5 0 0 0 -41 -42 -42.25 -42 0 -44.5 0 -44.5 -44.5 -45 -45 -44.8333 -45.1667 -43 -44 -44 -44 -44 -44 -44.5 0 -44.25 -44.25 -45.5 -45.5 0 0 -45.1667 -45.1667 -43.5 -43.1667 -43.1667 -43.6667 -43.5 -44 -44 -43.25 0 -43 0 -45 -45 -45.5 0 0 -44 -44.5 0 0 -44.5 -44 -44 -43.3333 -44 0 -29.5 -29.5 -42 -45.25 -45.25 -45.25 -41 -39.3333 -41.5 -41 -42 -45 0 -42.5238 -41.5 -41.5 0 0 0 -38 0 0 -37 0 0 0 -38 -38 -37 -36.5 -36.1 -36.1 -36.1 -37 -37 -37 -37 -38 0 -35 -35 -34 0 0 0 -32 0 0 0 0 -30.5 0 -30.5 -29 -25 -26 -26 -26 0 -26 0 0 -26 0 -25 0 -23 -22.5 -22.5 -21 -22 0 -20.5 -22 0 0 0 -22.5 -22.5 0 0 0 -22.5 0 -25 -24.5 -25 -26 -26 0 0 0 -27 -27 -27.5 -27.5 -28 -27.5 -27 0 -27.5 0 0 -28.1333 -28 0 0 -28 0 -28 0 -28 0 -28 -27 0 -28 -28 -28 -28 -28 0 0 0 0 -26.5 0 0 0 0 -28 0 -27 -27 0 0 0 -27 -27 0 -25.5 -25.5 0 -25 -25 0 -25 -25 0 0 0 0 0 -23.5 0 0 -22.5 -22 0 -22.5 0 0 -23.5 -23.5 -24 -10 -10 -10 0 -9 -9 -8.5 -8.5 -7.5 -7.5 0 0 0 -9 -8 -8 -8 0 0 -8 -8 -8 -8 -8 -7 0 0 -5 0 -4 0 0 0 0 -5 0 0 -8.5 -5 0 -11.4239 -11.4239 -10.0909 -11.4239 -16.1538 -10.0238 -16.1538 -16.1538 0 -16.5 -10.3111 -15.5 -7 -18.6667 -9.33333 -16.3333 -16.3333 -19.6667 0 -15.3333 -21.6667 0 -18.3333 -22.9091 -18.5 -18.5 -18.5 0 -19 -19.6667 0 -21 0 0 0 -20.5 -20.5 0 0 -20.5 -20.5 -21.5 -21.5 -21 -21.5 -21.5 0 0 0 0 -20.1667 -20 -21 -20 -20 0 -20 0 0 -19 -22 0 0 -20 -20 0 0 0 -19.1667 -19 -18.5 0 -20 -19 -17.3333 -17 -17 -17.5 -17.5 -17.5 -16 0 -17 -16 0 -16 0 -14 -17 -11 0 -13.5 0 -9 0 -9.16667 -9 0 0 0 0 0 0 0 -9.5 0 -9.5 0 -10 -12 -12 -11.5 -11.5 -11 -11.5 -11.5 -11 -11.5 -11.5 0 -10 -10.5 -10.5 0 0 0 0 0 0 0 -12.5 -12.5 -11 -11.5 -11.5 -11.5 -12.5 -12.5 -13 -13 -11.5 -14 0 -12.5 -12.5 0 -12 -11 -12.5 -12.3333 -12.3333 -12.5 0 0 0 0 -13 0 0 -6 -13.1667 -10.3333 0 -12.5 -12.5 -12.5 -14 0 -15.5 -19.3333 -15.2667 -6 0 0 -12 -11.5 -12 -11.3333 -11.3333 -11.5 0 0 -3 -0.5 0 0 1.69231 0 0 0 0 0 0 1.69231 0 0 0 0 0 0 0 0 0 0 0 0 0 0 0 0 0 0 0 0 0 0 0 0 0 0 0 0 0 0 0 0 0
0 0 0 0 0 0 0 0 0 0 0 -11 -11 -10.5 0 -11 -9.5 -9 0 0 -11 -10.5 -10 -10 -9.5 -9 0 -8.5 -8.5 -8.5 0 -10 -10 0 -9 -9 -8.5 0 -8.5 -8.5 -8.5 -8 0 -9 -9 0 0 -8.66667 0 -8.16667 -8 -8 -8 0 -8.5 -8 -6.5 0 -7 -7.5 -7.5 -8 -7.5 -7 -7 0 -8 -6 0 -7 -6.5 0 0 -7 -7 -6.5 -6 -6 -6 0 -6.5 -5 0 -6.5 -6.5 -6.5 0 -6 -6 -5.5 0 -5 -5 0 0 0 0 -5.5 -5.5 -5.5 0 -5 -5 -5 0 -5.5 -28.5 0 0 0 0 0 0 0 0 0 0 0 0 0 0 0 0 0 0 0 0 0 0 0 0 0 0 0 0 0 0 0 0 0 0 0 0 0 0 0 0 0 -19.5 -6 0 0 0 -41 0 0 -42.25 -42.25 -44.1667 -45 -44.1667 -44.1667 0 0 -45.1667 -45.1667 0 0 0 -45 -44 -44 0 -44.5 0 0 0 -45.5 0 0 -44.5 -44.5 -44 -44 -43.1667 -45 0 -43.6667 -43.5 -43.25 -43.25 0 -45 0 0 0 0 0 -44 0 0 -45 -44.5 -44 -43 0 0 -43 -43 -30 -38.8333 -38.8333 -41 -43 0 -39.3333 -41 -41 -41 -42 -43.6667 -43.6667 -41.5 0 -42 0 0 -38 -38 0 -36.6667 -36.6667 -37 -37.5 -37.5 -38 -37 -36.5 -36.1 -36.1 -36.6667 -37 0 0 -35.5 -35.5 0 -34 0 0 -34 0 -32 0 -32.3333 -32.3333 0 0 -31 -30.5 -31 -29 -27.5 -27 -27 -26 -26 -26 0 0 -27 0 -24.6667 0 0 -22.5 -22.5 -20.5 -22 -21 0 0 0 0 -22 0 0 0 -22.5 -23.5 -22.5 0 0 -25 -25.5 -25.5 -26 -26 0 -27 -27 -27 -27.5 -27.5 -28 -27.5 -27 0 -28 0 0 -28.1333 -28.1333 0 0 -28 0 -29 -28.5 0 0 -28 -28 0 0 0 -28 0 -28 -28 0 -28 -27.5 -27 -27 0 -28 0 0 -27.5 -27.5 -28 -27 -26.5 0 0 0 -26.5 -25 0 -25 0 -26 -25 0 -24.5 -24.5 -23.5 -23.5 0 0 -24 -22.5 -22.5 -23 -23 0 -22.5 0 -23 -24 -22 -13 0 0 -10.5 -10.5 0 -9 0 -8.5 -8.5 0 0 0 0 0 -8 0 -8 0 0 -8 -8 -8 -7 0 -7 -6 -6 0 0 -4 0 -3 -4.33333 5 0 -4.5 -4.5 1.83333 1.83333 0 -11.4239 -11.4239 -11.4239 -16.1538 -10.0238 -10.0909 -16.1538 -16.1538 -32 -2.5 -10.0238 0 0 0 -17.5 -17.5 -16.3333 0 -17.5 -17.5 0 0 -17.5 0 -27 -27 -19.5 -20 -19 -19.6667 0 -21 0 -20 -20 0 -20.5 -20.5 0 -20.5 -20.5 -21 -21 -21 -21.5 -21.5 -21 -21 -29 -20.8333 -20.8333 0 0 0 -19.5 -19.5 -21 -21 -21 -20.5 -20.5 -20.6667 0 -20 0 -19 0 -18.5 -18.5 0 -19.5 -19.5 0 -19 -17.5 0 -17.5 0 -16.5 -16 0 0 -17 0 0 -17 0 -14 -14 -14.5 -14.5 0 -14.5 -9 -10 -9 -9 -9 -9 0 0 -9.5 -9.5 -8.5 -9 -9 -9 0 -10 -10 -9.66667 -12 -12 -12 -11.5 -11.5 -11.5 -11.5 -11 -11 0 -10 -10 0 0 0 -11 -11 -11.5 -11.5 0 0 -11.5 -11.5 -11.5 -11.5 -12 -13 -13 -13 0 -11.5 -12.5 -12.5 -13 -12.8333 0 -12.5 -12.5 -12.3333 0 0 0 -12 -12 -12 0 -6.66667 0 0 -19.3333 -16.5 -11.5 -11.5 -11.5 -12 0 0 0 -15.2667 -15.2667 -11 -14.2 -11 -11 -9.5 0 -11.3333 -11 0 0 -14 -0.5 0 0 1.69231 1.69231 1.69231 1.69231 0 -9 0 0 0 0 0 0 0 0 0 0 0 0 0 0 0 0 0 0 0 0 0 0 0 0 0 0 0 0 0 0 0 0 0 0 0 0
0 0 0 0 0 0 0 0 0 0 0 -11 -11 -10.5 -10 0 -11 0 0 0 -11 0 0 0 -9.5 -9 0 -10 -8.5 -8.5 0 0 0 0 0 0 0 0 0 0 0 0 0 0 -9 0 0 -8.33333 -8.16667 -8.16667 -8 -8.33333 -8.33333 0 -8.5 -8 -8 0 -7 -7.5 -7.5 0 0 -7 -7 0 -8 -6 0 -7 -6.5 0 0 -7 -7 -6.5 0 -7 -6 0 -6.5 -6 -5 0 0 -6.5 0 -6 -6 -5.5 0 -6 0 0 -5.5 -4 0 -5.5 -5.5 -5.5 0 0 -5 -5 0 -5.5 0 -24 0 0 0 0 0 0 0 0 0 0 0 0 0 0 0 0 0 0 0 0 0 0 0 0 0 0 0 0 0 0 0 0 0 0 0 0 0 0 0 0 0 -14.5 -29.25 -41.3333 -41 0 -41.5 -41.5 -42.5 -42.25 -43.5 0 0 0 -44 -43.6667 0 0 0 -44.3333 -44.3333 -45 -44 -44 0 -44 -44.1667 -44.1667 0 0 -44.25 0 -45 -45 -45 -44.5 -44.5 -44.5 -44 0 0 0 0 0 0 -45 0 0 0 0 -44 0 -45 0 -44.5 -44 -43 0 -44 -35 -36 -30 -26 -41.5 -41.5 -43 -42.5238 -42.5238 -41 -41 -41 -42.3333 -36.6667 -43.7333 0 -40 0 0 0 -38 -39 -38 -37.5 -37.6667 -37 -37.3333 -37.3333 0 0 -36.1 -37 -36.6667 -36.6667 -36 0 -36 -35 0 -34 0 -33 0 -33.5 -32 -32 -31 -32.3333 0 -30.6667 0 -30 0 0 -29 -27.5 0 0 0 0 0 0 0 0 0 -24 0 0 -23.55 0 -23.55 -22.25 -22.25 -20.3333 0 0 -22 -21 -21 0 -23 0 -22.5 -22.5 -22.5 -22.5 -24.5 0 0 0 -26 0 -26.5 0 -27 -27.5 -27.5 0 -27.5 -27 0 -28 -26.8333 -26.8333 -26.8333 -26.8333 0 0 -27 -29 0 -28.5 -28 0 -28 -28 0 -28.5 -28 -29 -29 -28 -28 0 0 0 0 0 0 -28 0 0 0 0 0 -27 -27 0 -27 -27 -26.5 -26 0 -25 -25 -25 -25 -25 -25 -24 -24 -24 -24 0 0 -22.5 -23 -23 -23 -23 -23 -24 -23 -23 0 -13 0 0 -10.1667 -10.1667 0 0 0 -9 -8 -8 -8 -8 -8 0 -8 0 0 -39 -7 -7 0 0 -7 -7 -7 -6 -6 -5 -4 -5 -3.5 -5 -4.33333 5 -5 0 0 -14.4643 1.83333 -2.33333 -10.0909 -11.4239 -11.4239 -11.4239 -16.1538 -11.4239 -16.1538 -15.5 -3.83333 0 -7.25 -10.0238 0 -11.1667 -17 -0.666667 -12.5 -17.1667 -17.1667 -17 0 0 -17.3333 -17.3333 -20.7 -20.7 -17 -17.5 -19 -19 0 -19.6667 0 0 0 -20 -20.5 -20.5 0 -21 0 -21 -21 -20.3333 -21.5 0 0 -21.75 -21.75 -21 -22 -21 -22 0 0 0 -20 -21 -20 -20 -22 -20.6667 -20 -20 -20 -20 0 -18 0 -19.5 -19.5 0 0 0 -15.8333 -18 -17.5 -15.8333 -17 0 0 -16 -16 0 -15 0 -16 0 -14.5 -14.5 -14.3333 0 0 -5.33333 0 -9 -8 -9 -9 -8 -8 0 -9 -9 -9 -9 -9 0 -10.5 -10.5 -9.66667 -10.5 -10.5 -12 0 -10.25 0 -12 -12 -11 0 -10 -10 0 0 0 0 0 -11.5 -11.5 -11.5 -12 -15.5 -12 -12 0 -12.5 0 0 -12 -12 0 -12.5 -12.5 -13 -11 0 0 -12.8333 -13 -12.5 -12.5 0 0 -12 -12 0 0 0 -6 0 0 -11.5 -11.5 -11.5 0 -15.3333 0 -15.3333 -11 -8 -8 -22.3333 -12 -9.5 -10.3333 0 0 -9.33333 0 0 0 -3 0 0 0 0 1.5 0 1.69231 1.69231 0 1.69231 0 0 0 0 1.69231 0 0 0 0 0 0 0 0 0 0 0 0 0 0 0 0 0 0 0 0 0 0 0 0 0 0 0 0 0
0 0 0 0 0 0 0 0 0 0 0 0 0 0 0 0 -11 -10.5 -10.5 -10.5 -11 -10.5 -10 0 -9.5 -9 0 0 0 0 0 -10 -10 -9.5 0 -9 -8.5 0 -9.5 -9.5 -10 -8 0 -9 -9 -8.5 0 -8.5 -8 -8 0 -8.33333 0 -7.66667 0 -8 0 0 -7 -7.5 -7.5 -8 0 -8.5 -7 0 -8 -7.5 0 -7 -6.5 -6.5 -6.5 0 -8 -6.66667 0 0 0 0 0 0 0 0 0 0 0 0 0 0 0 -6 -5 0 -5.5 -5 0 -5.5 -5.5 -5.5 -5 0 -6 -5 0 -5.5 0 0 0 0 0 0 0 0 0 0 0 0 0 0 0 0 0 0 0 0 0 0 0 0 0 0 0 0 0 0 0 0 0 0 0 0 0 0 0 0 0 0 0 0 -42 -41.5 0 -41.3333 -41.5 -41.5 0 -42.5 -44 -43.5 -43.5 -44 -43 -43.6667 -44.5 -44.5 -44.5 -44.3333 -44.75 -44.75 -45 -45 -45 -44 -44.5 -44.5 0 -44.5 0 0 -45 0 0 -44.5 -44 -45.5 -44.5 -44.5 -45.5 -45.5 0 -45.5 0 0 -45.5 -45.5 0 0 -44 0 0 -43.3333 -44.6667 -44 0 0 -43.5 -43.5 -29.5 -29.5 -34.5 -42 -41.5 -43.6667 0 0 0 0 0 0 -36.6667 -43.7333 -43.7333 -41 0 0 0 0 0 -39 -39 -36.6667 -37.6667 -37.3333 0 0 0 0 -38.25 0 0 0 0 -36.5 -34 -34 -34 -34 0 -34 -34 -32 0 -31.5 -31.5 0 0 0 -30 -30 -30 0 -29 -27 -27 -27 -26 -26 -26 -27 -25.5 -24 -24 -24 -23.5 -23.5 0 -24 -20.3333 -20.3333 -21.5 -21.5 0 -22 0 -21 -21 -22.4 0 -22.4 0 -24.1667 -24.1667 -25 -24.5 -26 -26 0 0 -26 0 -27 0 -27.5 -27.5 0 -27 0 -28 -27 -28.25 -28.25 -28.25 -28 0 -29 -29 0 0 0 0 0 0 0 -28 -28.5 0 -29 0 0 0 0 -27 -27 -27 0 -26.5 -26.5 0 0 -27.5 -27.5 -27 -27 0 -28 -27 0 -26 -26 -26 0 -25 0 -25 0 -24 -24 -24.5 -24.5 -25 -25 -23 0 -23.6667 -22.75 -23.5 -23.5 0 -23 0 -12 -10.5 -10.5 -11 0 -10.1667 0 0 0 -8 0 -8.5 -8.5 -8 0 -9 -8 0 0 -7 -7.5 -7.5 -7 0 0 -6.5 -6.5 -6 0 -5 -3 -3 -1 -5 -4 -4.33333 0 -4.5 -4.5 -17 -5.33333 -2.33333 -10.0909 -10.0238 -10.0238 -16.1538 -15.5 -16.1538 -16.1538 2.31579 -10.3111 -16.1538 -0.714286 -0.714286 -0.714286 0 -15.1429 0 -12.5 -17 -17 -17 0 0 0 -17.3333 -20.5 -20.5 -17 0 -19 -19 0 0 0 -20.5 -20.5 -20 -21 0 0 0 -21 0 0 0 -20.5 -20.5 -21.5 -21.75 -21.75 -21.5 -22 -21.5 -21.5 -21 -21 -20.6667 -20.5 -20.5 0 -21 -20.5 -20.5 -20 -20 -20 0 -19 -19.5 -19.5 -19.3333 -19.3333 -19 0 -19 -18 -18 -17.5 -17 -17 0 -15 -14.3333 0 0 -17 -14.3333 -17 0 -15 0 0 0 0 0 0 -9 -9 -9 -9 0 -8 -8 0 -8 -8.5 -8.5 -9 -9.5 -9.5 -9.66667 0 0 0 -11 0 -10.25 -10.25 -11 0 0 0 0 0 0 0 0 0 -12 -11.5 -11.5 -11.5 -11.5 -11.5 0 0 -15.5 -12 -12.5 -12 -12.5 -12.5 -11.8 0 0 -12.8333 -12.8333 0 0 -13 -12 -12.5 -12.5 -13 -11.5 -12 -12 0 0 -14.2 -15.2667 -15.2667 -8.5 -12.5 -10 -10 -10 -18.5 -12.5 -15 -8 -11.3333 -14.1667 -2.5 -12 0 0 -10.3333 -9.33333 0 -9 0 0 -7.33333 0 0 0 0 0 0 0 0 0 0 0 0 0 0 0 0 0 0 0 0 0 0 0 0 0 0 0 0 0 0 0 0 0 0 0 0 0 0 0 0 0 0 0 0
0 0 0 0 0 0 0 0 0 0 0 -11 0 -10.5 -10 0 -11 -10.5 -10 -10.5 -10.5 -10.5 -10 0 -11 0 0 -10 -10 -10 -10 -10 -10 -9.66667 0 -9 -8.5 -8 0 0 -10 -9.5 0 -9 -9 -8.5 0 -8.5 -8 -8 0 -9 0 -7.66667 0 -8 0 -7.5 0 0 -7.5 -7.5 0 -8.5 -8 0 -8 -7.5 0 -7 0 -6.5 -6.5 -7 0 -6.33333 -6 0 -7 -7 -5 0 -6 -6 0 0 -6 -6 0 -5.5 -5 0 -6 -4.5 0 -5 -5 -6 -6 -6 -5 -5 0 0 -4.5 0 0 0 0 0 0 0 0 0 0 0 0 0 0 0 0 0 0 0 0 0 0 0 0 0 0 0 0 0 0 0 0 0 0 0 0 0 0 0 0 0 0 0 0 -14.5 -40.5 0 -41.5 -41.3333 -42 0 0 0 -43.6667 -44 -44 0 0 -44 -44.5 -44.5 0 -45.5 -44.75 -45.6667 -44.75 -45 0 -44 -44.5 -44.5 0 0 0 0 0 -45.5 -45.5 -44.6667 -43 0 -45.5 0 -44.5 -45.5 -45.5 -44.5 -44.5 -45 0 -44.5 -44.5 -44.5 0 0 -45 0 -43 0 0 0 -43.5 -20 -42.3333 0 0 0 0 0 -38.25 0 0 -40 -41.3333 -41.3333 -40 -40 -40.2 0 0 0 0 0 0 0 -39 -39 -37.6667 0 0 0 -38.5 -39.25 -38.25 -38.5 -37 0 -36 -34.5 -34 -34 -34 -34 0 -34 -32 -34 0 -31 -32.5 0 0 -29 -30 -30.5 -30.5 0 0 -26.5 -26.5 -26 0 -27 -27 0 -25.5 -24.5 0 0 0 0 -26 -23.55 -23.55 -22 -22 -22 0 0 0 -22 -22 -21 -21.8333 -22.6667 -23 -22.6667 -22.6667 0 -25 -25 -26 -26 0 -27 0 -27 -27.5 -27.5 0 0 -27 -27 -27 -27 -27.5 -27.5 -28.25 -28 0 -29 0 0 -28.5 -28 0 -28 -27.3333 0 0 -28 -28 -28 -28 -28 -28 -27.5 -27 -27 -27 0 -27 -27 0 -27 0 0 -28 -27 -27 0 -26.6667 0 -26 0 -25 -25 0 -26 0 0 0 0 -24.5 -24.5 -25 -25 0 0 -23.6667 -23.6667 0 -23.6667 0 0 -23 0 0 -11.3333 -11.3333 0 0 0 0 0 0 0 0 0 0 0 0 -8 0 -7.5 -7.5 -7 0 -7 -7 0 -6 -5.5 -5.5 -6 -5 -3 -3.5 -3.5 0 -1 -1 -5 0 0 -22.8333 -10.8 -13.7333 -10.0238 -10.0238 -16.1538 -16.1538 -16.1538 -16.1538 -16.1538 -16.1538 -0.714286 -0.714286 -15.5 2.31579 2.31579 -2.5 -8 -0.714286 -12.3333 -28.5 -28.5 -19 -16.5 0 -18 0 -18 -17.3333 -17.3333 -17.3333 -19 -19.5 -19.5 0 -20 -20 -20 0 -20.5 -20 -21 -21 -21 -21 -21 -20.5 0 0 0 0 -21.5 -21.5 -21 0 0 0 -22 0 -20 0 0 -20.5 0 -21 -21 -20 0 0 -19.3333 -19.3333 -19.3333 -19.3333 -20 -19 -19 0 -17 0 -18 0 -17 0 0 -16 0 0 -17 -17 0 -14.5 -14.5 -13 -14 -6.5 -6.5 0 -20 0 0 -9 0 -8 0 -8.33333 -8.33333 -9 -9 -9 -27.5 -9 0 -10 0 -10.5 -10.5 0 0 -9.5 -9.5 -10.25 -11 -10 -10 0 -10.3333 0 -11.5 -11.5 0 -12 -12 -12 -12 -12 0 0 0 0 -13 0 -12.5 -12.5 -13 -11.8 0 0 -13.5 -13.5 0 0 -12.5 -12.5 0 -13 -13 -10.6667 0 0 -12 0 -8 0 -13.5 -13.5 -10.25 -10.25 0 0 -13.3 -11.5 0 -11.3333 0 -19.8333 0 0 -11.8333 -11.8333 -9 -9.33333 -10.3333 -11 3 0 8.29167 -1 12 12 12.5 12.5 -8.5 0 0 0 0 0 0 0 0 0 -11 0 0 0 0 0 0 0 0 0 0 0 0 0 0 0 0 0 0 0 0 0 0 0 0 0 0 0 14.6667
0 0 0 0 0 0 0 0 0 0 -10.5 -10.5 0 -11 -11 0 -11 -10.5 -10 0 0 -10.5 -10 0 -11 0 -9 0 -10 -10 -10 0 -10 -9.33333 -9 0 -10 -8 0 0 -10 -9.5 -9 -9 0 0 0 0 0 0 0 0 -9 -9 0 -8 -8 -7.5 -7 0 -7.5 -7.5 0 -8.5 -8 -8 -8 -7.5 -7 -7 0 -8 -8 -7 0 0 0 0 -7 -7 0 0 -6 -6 0 0 -6 -6 0 -5.5 -5 0 -6 -6 -5.5 0 0 0 0 0 0 0 0 0 -4.5 0 -5 10 0 0 0 0 0 0 0 0 0 0 0 0 0 0 0 0 0 0 0 0 0 0 0 0 0 0 0 0 0 0 0 0 0 0 0 0 0 0 0 0 0 0 0 0 0 -41.5 -42 0 0 0 -44 -44 -43.6667 -44 -44 0 -44 -44 0 -45.5 -45.6667 -45.6667 0 -45 -44 -44 -44.5 -44.5 -44 0 0 0 0 0 -45 0 -45.3333 -45 0 0 0 0 0 0 0 0 -44 -45.5 -45.5 -44 0 0 -45 -43.5 -43 0 -14 0 0 -35 -42.3333 -42.3333 -41 -43.7333 -43.7333 -36.6667 -40 -41.3333 -40.5 -40.5 -39.5 -39 -39 0 0 0 0 0 0 0 0 0 0 0 0 -38.5 -38 -39.25 -39.25 -39.25 -38.5 -38.5 0 -36 0 -34.5 -34 -33.5 -33.5 -34 0 -34 -31 -34 -34 0 -31.5 0 -30.5 -29 0 -30 -29 -29 -29 0 0 0 -25.5 0 -25 0 -25.5 -25 -24.5 -25.5 -25.5 0 -24.5 -24.5 -25 -23 -23 0 -21.5 -23 -21.5 0 0 0 -21.8333 0 0 -21.8333 -22.4 -25 -25 0 0 -26 -26 -26.3333 0 -27 -27.3333 -27.3333 -27.5 -27 0 -27.5 -27 0 -27.5 -27.5 -27.5 -28 0 -29 -29 0 -28.5 0 -28 -28 -27.5 -28 -28 -28 -28 -28 0 -28.5 0 -27.5 -27 0 -27 0 -27 -27 0 -27 -27 -28 -27 -27 -27 0 -26.5 0 0 -26 -25 -25 0 0 -26 -25 -24 0 -24 -25 -25 -25 -25 -24.6 -23 0 -23.1667 -23.1667 0 0 -21 0 0 -11.3333 0 0 0 0 0 0 -9 0 0 0 0 0 0 -7 -6.5 -7 0 0 -7 -7 -7 -6 0 -5 0 0 0 0 -3.5 0 0 -15.5 0 -10.3111 -10.3111 -10.3111 -10.0238 -8.4 -10.0909 -10.0238 -16.1538 -16.1538 -16.1538 -10.0238 -29 -16.1538 -15.5 2.31579 2.31579 -7.25 -10.0238 2.31579 -3.83333 -9.33333 -16.9306 -17.5 -17.5 -12.3333 -18.5 0 -19 -17 -17 0 -18 -18 0 -19 -19 -19 0 0 -20 -20 -20.5 -20.5 -20.5 0 0 -21 -21 -21 -20.5 -22 0 -22 -21.5 -21.5 -19.6667 0 0 -21 -21 -21 -22 -20 -20.3333 0 -20.3333 0 -20.5 -20.5 0 0 -19 -19.3333 0 -19 -19.1667 0 -19 0 -18 0 0 -17.3333 -17 0 -15.5 -15.5 0 0 0 0 -17 -15 -39 0 0 -14 0 -7.5 -7.5 -8 0 0 0 0 -23.25 -8 -8.33333 0 -26.8333 -8.5 -8.5 0 0 -9 -9.5 -9.5 0 0 -10 -10 -10 -11 -10 0 0 0 -10.5 0 0 0 0 0 -12 -12.5 -12 -12.6667 -13 -11.5 -10.5 -10.5 0 -11.5 -11.3333 -12.5 -12.5 -13 -12.5 0 0 -13 -13 0 -13.5 -13 -13 -13 -13 0 -12 0 0 0 -2.5 -12 -1 -13 -13.1667 -14.5 -11.5333 -10.25 -11.5333 -14.5 -13.3 -13.1667 0 -11 -18.5 -11 0 -11.8333 0 -11.5 -11.5 -12 8.29167 13 13 8.29167 0 12 12 0 0 0 0 0 0 0 0 0 0 0 0 0 1.69231 0 0 0 0 0 0 0 0 0 0 0 0 0 0 0 0 0 0 0 0 0 0 0 0 0 0 0
0 0 0 0 0 0 0 0 0 0 -10.3333 -10.3333 0 -11 -11 0 -11 0 0 0 0 0 0 -10 0 -10.5 -10 0 -10 -10 -10 -10 -10 -9.5 -9 0 -10 -9.5 0 0 0 0 0 0 -9 -8.5 0 -9 -9 -7.5 -7.5 0 -9 -9 0 -8 -8 -7.5 -7 0 -8.5 -8.5 -7.5 0 -8 0 0 0 0 -7 0 0 -6.5 -6.5 0 -8 -7.5 -7 -7 -7 -5.5 -5.5 -6 -6 0 0 0 0 0 0 0 0 0 0 0 0 -5 0 -4.83333 -4.83333 0 -5 -5 0 -6 -29.5 -29.5 -28 0 0 0 0 0 0 0 0 0 0 0 0 0 0 0 0 0 0 0 0 0 0 0 0 0 0 0 0 0 0 0 0 0 0 0 0 0 0 0 0 0 0 0 -41.75 -41.3333 0 -42 0 0 0 0 -44 -44 -44 -43.5 -44 0 0 0 0 0 0 0 -44.5 -44 0 0 -45 -45 -44.5 -44 0 -44.5 -44.5 -45.5 -45.5 -45.5 -45.5 -45.5 0 0 0 0 0 -45 -45 -44 -45.5 -45.5 -44 -45 -45 -45.5 -45.5 -44.5 -44 -33.3333 -29.25 -43 -19 -38 -43 -33.75 -38 -40.2 -40 -42.5 -42 -42 -42 -42 -42.25 -42.25 0 -42 0 0 0 0 0 0 0 0 0 -38 -39 0 -37.5 -37.5 -38.5 0 -37 -36 0 -35 -34.6667 -34 -33.5 -33.5 -34 -33 -33.5 0 0 0 0 -32 -31 -28 0 0 -30 0 -28 -27.8333 -27 -27 -25.5 0 0 0 -25 -25 -24.5 -25.5 -24 -23.75 -23.75 -23.75 -24.3333 0 -23 -23 -22.3333 0 -23 -22 -22 -22 0 -22.4 -21.8333 0 -21.8333 -21.8333 -24.3333 -25 0 -26 0 0 0 -26.5 0 -27.3333 -28 -27.5 -27 -27 -27 0 -28 -27.5 -27.5 -27.5 -28.5 -28.5 -29 -29 0 -28 0 0 -28.5 -28.5 -29 0 0 0 0 -28 0 -29 0 0 0 0 0 0 0 0 -27 -27 -27 -28 0 0 0 0 0 -26 -26 -26 -26 -26 -26 -26 -25 -24.5 -24.5 0 -25.1667 -25.1667 0 -25 -24.5 -24.5 -23 0 -24 0 0 -17 -10 0 0 -11 -10.5 -9 0 0 0 0 0 0 0 0 0 -8 -6.5 -6 -6 0 0 -7 -6 0 0 0 -5 0 0 0 -3.5 -3.5 -3.5 2 -15.5 -16.1538 -16.1538 0 0 -10.0238 -8.4 -10.0238 -10.0238 -10.0238 -10.0238 -3.83333 -10.0238 -16.1538 -16.1538 2.31579 -2.5 2.31579 2.31579 -6.75 -2.5 -10.6667 -9.5 -10.0909 0 -11.7333 -11.4239 -9.625 -18.5 -18.5 -18.75 -16.5 -18 -18 0 0 -19 -19 0 -20 0 0 0 0 -20.5 -20.5 -21 0 -20 -21.5 -21 0 -21 0 0 -22 -22 -19.6667 -23 0 -24 -21.5 -21.5 -22 -21 -21 -21 -20.3333 -21 -20 0 -20 0 -19 -19 -19 -19 0 -19.1667 -19 -19 -19 0 -15 -18 0 -17 0 -15.3333 -15.5 0 0 0 0 -17 -14 0 0 -5.33333 -5.33333 -7 -8 -8 -8 -8.5 -8.5 -7 -23.25 -7.5 0 0 0 -27.3333 -27.3333 -15.6667 -15.6667 0 -9.5 -9.5 -10 -10 -10.5 -10.5 -11 -11 -11 -11 0 -10 -10 -10 -11.5 -11.5 0 -11.5 -11.5 -12 -12.6667 -12.6667 -12 -12 -11.5 0 0 -11.5 -11.5 0 0 -13 -12.5 0 -12.5 0 0 0 -11 -13 -13 -13 -13 -12.5 -12.1667 -12.1667 -13 0 -12 -14.1667 -11.3333 0 -4 -14.3333 -11.5333 -11.5333 -13 -11.5333 -14.5 -14.3333 0 -5 0 -14 -18.5 -9.33333 0 0 -11.5 -12 0 0 -17 0 0 0 -2 0 0 0 0 0 0 0 0 0 0 0 0 0 0 0 0 0 0 0 0 -11 0 0 0 0 0 0 0 0 0 0 0 9.75 0 0 0 0 0 0 0 0
0 0 0 0 0 0 0 0 0 0 -10.3333 0 0 0 0 0 0 -10.5 -10 -10.5 -10.5 0 -11.5 -11 0 -10.5 -10 -10.5 -10.5 -9.5 -9.5 0 0 0 0 0 -10 -9.5 -9 0 0 -9.5 -9 -9 0 -10 -8 0 -9 -9 -9 0 -9 -9 -8.5 -8 0 -7.5 -7 0 0 0 0 0 0 -8 -8 0 -7 -7 0 -7.5 -6.5 -6.5 -7 0 -7.5 -7 0 -7 0 0 -6 -6 0 0 -7.5 -6 -6 0 -6.5 -6 -6 -6 -5.5 -5 0 -5 -5 -5 0 -5.5 -5.5 0 0 -5.5 -5 5 -30.5 0 0 0 0 0 0 0 0 0 0 0 0 0 0 0 0 0 0 0 0 0 0 0 0 0 0 0 0 0 0 0 0 0 0 0 0 0 0 0 0 0 0 -42.3 -42.3 -41.3333 -41.3333 -42 -42.3333 -42.5 0 -43.5 0 0 -43 -43.5 -45 -45 -45 -44.5 -44.5 0 0 -44.5 -44 -44 0 0 0 0 -44 -44 -44 0 -45 -45 -45.5 -45.5 -45.5 -45 0 -45.4 0 0 -45 -45 -45 -44.25 -44.25 -44.25 -44 0 0 0 -44.5 0 -28 -29.5 0 0 -21 -24 -24 0 -42 -42.25 -36.6 -43 -41.3333 -41.3333 -41.3333 -43 -42.25 -44.4 -38.3 0 0 0 0 0 0 0 0 -37.5 -37.5 0 -37.5 -37.5 0 0 0 -37 0 -35 -35 -34.3333 -34 -34 -34 -34 0 0 0 -32 -34 0 -30.5 -30.5 0 0 -29 -28 0 -28 -27.8333 -27.8333 -27 0 0 0 -23.5 0 -24 -24 -24 -24 -23.5 -23.75 -23.75 -24.3333 -24.3333 -22 0 -22 0 0 0 0 0 0 -21.3333 -22.4 -23.6667 -23.6667 -24 -24.3333 -24.3333 -25 -26 -26 -26 -27.5 -27.5 0 0 0 -28 -28 -27 0 0 0 0 -28.5 -28.5 0 -29 0 -29 0 -28 0 -28 0 0 -28 -28 0 -29 -28 -28 -28 0 -29 -27 0 -27 -27 0 -27 -27 -27 -27 -27 0 -28 -27 0 0 -27.5 0 -26 -26 0 -26.5 -26.5 0 -24.5 -24.5 -25 -25 0 -25.1667 0 -25 0 -23.5 -23.5 -24 -23.5 -19 0 0 0 -11 0 0 0 -9.66667 -9.66667 0 -8 -8 -7.16667 -7.16667 -7.33333 -7 0 -8 -8 -6 -6 0 -7 -7 0 0 0 0 -5 0 0 0 7.22222 -3.5 -3.5 0 -15.5 -16.1538 -5 -16.1538 -3.83333 -4.5 -5.5 -8.4 -10.0238 -16.1538 -10.0238 -10.0238 2.31579 -16.1538 -16.1538 -10.0238 2.31579 2.31579 -11 -10.3111 -2.5 -2.5 -2.5 -10.0909 -16.9306 -15 -11.6667 -9.625 -19.5 -18.5 -19 -18 -18 -19 -19 0 -20 -19 0 -19.5 -19.5 -20.5 -20.5 -20 -20 -21.5 -21.5 -22 -21.6667 -21.6667 -22.3333 0 -21 0 0 0 -21.6667 -21.5 -21 -19.6667 0 0 -22 -22 -21 -21 -20.5 -20.5 -21 -20.5 -20.5 -21 -21 -20 -20 -20 0 0 0 0 0 0 -19 0 0 0 -17 -17 -15.3333 -15.3333 0 0 0 -14.8333 -14.8333 -15 -14.5 -14.5 0 0 0 0 0 -7.5 -7.5 -8 -2.66667 -7 -7 -8 -4.5 0 -9 -9 -9 0 -10 -10 -10 -10 0 -4.5 -4.5 -10 -11 0.5 -26.7 -10 -13 -10 -10 -10 0 -11 0 0 0 0 0 -12.5 -12 0 -13 -10 -12.6667 0 0 0 -11.5 -12 0 0 0 -12 0 -12 -12.5 -12.5 -13 -13 -12.5 -13.5 -12.1667 0 0 0 -19.8333 0 0 0 0 -11 -11 0 0 -13.25 0 -5 -8.66667 -27 0 -18 -8.5 0 0 -9 -25 -9.33333 0 11 0 -3 0 8.29167 0 0 0 0 0 0 0 0 0 1.69231 0 -5 1.5 0 0 0 0 0 0 0 0 0 0 0 5 0 0 17 6.7 6.7 0 0 9.75 0 0 0 0 0 0 0 0
0 0 0 0 0 0 0 0 0 0 0 0 0 -12 -11.5 -11 -11 -11 -11 -10.5 -10.5 0 -11.5 -11 -11 -10.5 -10 -10 -9.5 0 0 -10 0 -11 -10.5 -9 0 -9.5 -9 -9.5 -9.5 0 -9 -9 0 -10 -8 0 -9 -9 -9 -9 0 -9 -8.5 -8 0 0 0 0 0 -8.66667 0 -8.5 0 -8 -8 0 -7 -7 -6.5 0 -7 -7 -7 0 0 0 0 0 -6.5 -6 0 -7 -5.5 0 0 -7 -7 0 -6.5 -6 -6 0 -5.5 0 0 -5 -5 -5 0 0 0 0 0 0 0 0 -5 -17.5 0 0 0 0 0 0 0 0 0 0 0 0 0 0 0 0 0 0 0 0 0 0 0 0 0 0 0 0 0 0 0 0 0 0 0 0 0 0 0 0 -41.5 -41.5 -41.5 -41.75 -41.75 -41.75 -42.3333 -42.3333 -43.5 -42.5 -43 0 0 -44 0 -45.5 -45.5 -44.5 -44.5 -45.5 -45.5 -44.5 -44 -44 0 -45 -45 -44.5 0 0 0 0 0 0 -45 -45.5 -45.5 -45 -45.4 -45.4 -45.4 0 0 -45.5 -45 -44.25 0 0 0 0 0 -44 -44 0 -43.5 -43.5 -44 -42.3333 -34.7 -34.7 -34.5 -38.3 -42 -38.3 -44.4 -38.3333 -41.6667 -41.6667 -41.6667 -41.6667 -44.4 0 0 0 0 -38 0 0 -39.5 -39.5 -39 -37.5 -37.5 -37 -37.3333 -37.3333 -37.5 -37.5 -37.5 0 -36 0 0 0 0 0 0 -34 -34 0 -31.5 -31.5 -33.5 0 -33 -31 -30.5 -29 -29 -28 -28 -27.25 0 0 0 -25 -26 -25 -23.5 0 -24 -24 0 0 -24.5 -24.5 0 -23.75 -25 0 -22 0 0 0 0 -22 -22 0 0 -22.4 -23.3333 -23.6667 -24 -25.25 -25.25 -26 0 -25 0 0 0 -27 0 -28 -28.1667 -28.1667 -27 -27 -27.6667 -27.6667 -26.5 -28.4167 -28.4167 -28.5 0 0 0 0 0 -29 -28 -28 0 -28 -28 0 -29 -29 -28 -28 0 -29 -27 0 -27 -27 0 -27.3333 -27.3333 -28 -27 -27.5 -27.5 -28 -27.5 -27.5 0 -27.5 -25.5 0 0 0 0 0 -26 0 0 0 -25 0 -25 -26.5 -26.5 -27 0 -23 0 -18 -18 -17.5 -17.5 0 0 -11 0 -8.58333 -9.66667 -8.58333 -7.5 -9 0 -7.75 -7.75 -7.75 -8 0 -8 0 0 0 -6 0 0 -3.66667 0 -5.5 -5.5 0 -6.5 0 -5 4.875 6.5 -4 -4 0 -10.3111 -10.3111 -10.0238 -8.4 -2.11765 -4.5 -3.83333 3.16667 -2.75 -16.5 -16.5 -16.5 -16.1538 2.31579 2.31579 2.31579 0 -16.5 -2.5 -2.5 -2.5 -6.64286 -9.73684 -16.9306 -15.8308 -12.5 -25.75 -25.75 -19.5 -18.5 -18.5 -19 -19 -19 -19 -19.5 -19.5 -19.5 0 0 -19 -21 0 -21.75 -21.75 -21.75 0 -21.5 -21.5 0 0 -22.3333 -21.75 -21.5 -21.6667 -21.6667 -22 -22 -22 -21 0 -22 -21 0 0 -20.5 -20.5 -21 -21 -20.5 -20.5 -20 0 -20 -20 0 0 0 -20 -19 -18.5 -18.5 -17.5 -17.5 0 -17 0 -17 0 0 0 -15.5 0 0 -15 -14.5 -14.5 -18.5 0 0 -8 0 -6 -8.16667 -8.16667 -7.5 -7 0 0 0 0 0 -8.5 -8.5 -9 -9 0 0 0 -10 -10 0 0 -11 -22 0 0 -13 0 0 -10 -10 0 -11 -11 -12 -12 -12 -12 -12 -11.5 -11.5 -12.6667 -12 -12 -12.6667 -12.6667 0 -11 -11.5 -11.5 -11.5 0 0 -13 0 -12 0 0 -10.5 -10.5 -11.5 -11.5 0 -12 -5 -5 0 0 0 -11 -11 -11 0 -13.25 -14 -9.5 -9.5 0 -10 0 -9 0 0 0 0 -9.33333 0 -15 -3 0 0 7.33333 8.29167 8.29167 8.29167 0 0 0 0 0 0 0 0 0 0 0 -2 0 0 0 0 -8.5 0 0 0 0 0 0 0 0 0 6.7 0 0 0 0 0 0 0 0 0 0 0
0 0 0 0 0 0 0 0 0 0 0 0 -12 -12 -11.5 -12.1667 -11 0 -11.5 -11.5 -11.5 -12 -11.5 -11 -11 -10.5 0 0 0 0 0 -10 0 -11 -10.5 -10 0 -9.5 -9 -9.5 -9.5 0 -10.5 -9 0 0 0 0 0 0 0 0 0 0 0 0 0 0 -7 0 -8.66667 -8.66667 0 -7.5 -7.5 -8 0 -9 -8.66667 0 0 0 0 0 0 -8 -7.5 -7 -7 0 -6.5 -6 0 -7 -7 -7 -7 -7 -7 -7 0 -6 -6 0 -7 0 0 0 0 0 0 -6 -6 -6 -6 -5.66667 -41 -30 -5 -4.5 0 0 0 0 0 0 0 0 0 0 0 0 0 0 0 0 0 0 0 0 0 0 0 0 0 0 0 0 0 0 0 0 0 0 0 0 0 0 0 0 0 0 0 -42.6667 0 -42 0 0 -43.5 -43.5 0 -42.5 -42.5 0 -44.5 -44.5 0 0 0 0 0 0 -45.5 -44 0 -45 -45 -44.5 -44 -44 -44 -44 -44 -44 -44 0 0 0 0 0 0 -44.5 -44.5 0 -44 0 -44.5 -44.5 -44 -44.5 -44.5 0 -44.5 -43 -31 0 -31 -31 -34 -34 -34 -37.5 -38.3 -44.4 -44.4 -38.3333 -41.6667 -41.6667 -42.5 -42.5 0 -43.1667 -43.1667 -41 0 0 0 0 0 0 0 -37 -37 -37 -37.3333 0 -35.5 0 0 -37 -35.9 -37 -35 -34.5 -34.5 -35 -34 -34 -34 -34 0 0 0 -30 -34.5 -34.5 -30.5 0 0 -28 -28 -27.25 0 0 0 0 0 0 -25 0 -24.1667 -24.1667 0 0 -24 -24 0 -24.5 -24.5 0 0 0 0 -22.3333 -22.3333 0 -21.5 -20.8333 -20.8333 0 0 -23.3333 -23.3333 -25.25 0 -24 -25 0 -25 0 0 0 0 -24 0 0 -27 -27 -27 -27.6667 0 -28.4167 -28 -28.4167 0 -28.5 -28.5 -29 -28.5 -28 -28 0 0 0 0 0 -29 -29 -28 0 0 -27.5 0 0 0 0 -27 -27.3333 -28 -28 0 0 0 -28 -27.5 -27.5 0 -27.5 -25.5 -25.5 0 -26 -26 0 0 0 -24 -23.5 -23.5 -25.3333 -25.3333 -21.3333 -25.3333 -25.5 0 0 -22 -21.6667 0 0 0 0 0 -9 -8.58333 -8.58333 -9.66667 -9 -9 -9 -8.5 0 0 -7.75 -8 0 -8 -8 -6.5 0 0 -7 -6 -6 0 0 -6 3.79167 3.75 -5 -5 1.66667 -4 -4 -4 0 3.16667 -10.0238 0 -5.5 -5.5 0 -15.4429 -1.5 -10.5 -16.5 -2.75 -16.5 0 2.31579 2.31579 0 0 0 0 -2.5 -6.64286 -9.73684 -9.73684 -15.8308 -15.8308 -8.7 -10.0909 -10 0 0 0 0 0 0 -18.5 -18.5 0 -19 -19.5 -19.5 -20 -20 0 -21 -20.3333 -21.75 -21 0 0 -21.5 -21.6667 -22.3333 -20.5 -21.75 -21.75 -20.5 -22 -22 -22 0 -22 -22 -22 -21 -21 0 0 0 0 0 -20 0 -20 -20 0 -19.5 -19.5 -19.5 0 -19 0 0 -16.5 -17.6667 -17 0 -17 0 0 -16.8 -15.5 -16 0 0 -14 0 -18.5 -18.5 0 0 0 -8.5 -8.5 -8.16667 -8.16667 -8 -7 -7 0 -8 0 -8 0 -9 0 0 -9 -9 -9 -9 -10 -10 0 0 -11 0 -10.3333 -9.13333 -8.66667 -8.66667 -10.5 -8.5 0 0 0 -12 -11 0 -13 -13.6667 -11 -11 -11.5 -11.3333 -12.6667 -12.6667 -13 -13 -13 -11.5 -11.5 -11.5 -11.5 -11.5 -12 -12 -13 -13 0 -11 -11 0 0 -12.5 -8.66667 -8.66667 -1 -18.5 -18.5 -31.35 -10 -11 -5 -22 -16.5 -15 -18.2 -24 0 0 0 0 -8 0 0 0 -11.5 -11.5 -11.5 -3 0 -3 6.33333 6.33333 6.33333 6.33333 0 0 0 0 0 0 -2 0 0 0 0 0 0 0 -8.5 -4 -4 0 0 0 0 0 0 0 0 0 0 0 0 0 0 0 0 0 0 0 0 0
0 0 0 0 0 0 0 0 0 0 0 0 -12 -12 -12.1667 -12.1667 -11 0 -11.5 0 0 0 0 0 0 0 0 -10 -9.66667 0 0 -11 -10 0 -10.5 -10 0 -9.5 -9 0 0 0 -10.5 -9 -9 0 -9.5 0 -9 -8.5 -8.5 -8.5 -9 0 -8.5 -8 0 -9 -7 0 -8 -8.5 -8.5 -7.5 -7.5 0 0 0 0 -8 -8 -7.5 -7.5 -7.5 -8 -8 -7.5 -7 -7 0 -8 -6 0 -7 -7 -7 -7 0 -7 -7 0 -7.66667 -6 0 0 -5 0 -6 -6.5 -6.5 -6.5 -6 -6 -6 -6 -5.5 -5 0 0 -41.8333 -4 0 0 0 0 0 0 0 0 0 0 0 0 0 0 0 0 0 0 0 0 0 0 0 0 0 0 0 0 0 0 0 0 0 0 0 0 0 0 0 -24 -24 0 -42.6667 -42 -43 -43 -44 -43 -43 -43 0 0 0 0 0 -43.5 -43.5 -44.5 -44.5 -45.5 -45.5 0 -44 0 0 -45 0 -44 -44 -44.5 -44.5 -44.5 0 -44.6667 -44.6667 -44.25 -44.25 -44.25 -45.1333 -45.1333 -45 -45 -45 0 -44.5 -44.5 0 0 0 -45 0 -44.5 -43 -44.5 -14 -35 -35.8333 -35.8333 -34 -37.5 -38.3 -43.1667 -37 -37 0 -39 0 -43 -45 -41.9167 -40.3333 -40.3333 0 0 0 0 -38.5 -38.5 0 -37.5 -37 -37 -36.6667 -37.5 -37.5 -37 -35.9 -35.9 -36 0 0 -36 -35 -35 -34.5 -34 0 -34.6667 -33 -33.5 -33.5 -34 -30 -34.5 -34.5 -30.5 -29 -29 -28 -28.75 -26.3333 0 0 -27 -25 0 0 0 -24.8 -24 -24.5 -24.5 -25 -25 -25 -24 -24 -22 0 -22 -22 -22.3333 -22.3333 -22.3333 0 0 -21 -21.4889 -21.4889 -21.4889 -21.4889 -21.4889 -22.5833 0 0 -22.25 -25.25 -26 -26.5 -26.5 0 0 0 -27.8333 -27.8333 0 -27 -27.5 -27.5 -28 -28 -28 -28 0 0 -28.5 -29.1667 0 -29.5 0 -27.5 -27.5 -28 -27.5 -28.5 0 0 -28 -28 -28 0 -27 0 -27.5 -27.5 0 0 0 0 -28 -28 -28 -28 -27.5 -27.5 0 -26 -26 -26 0 -25.5 -25.5 0 -25 0 0 -24 0 -24.3333 -24.3333 -21.3333 -21.3333 -24 0 0 -22 0 0 -22.5 -22.5 0 -13 0 -9 -9.66667 -9.66667 -9 -9 0 0 0 0 -7 0 0 0 -6.5 -6 -6 0 -6 -6 -2.33333 0 -5 0 5.5 -5 4.5 -5 -4 0 0 0 3.16667 -2.75 -2.75 -5 0 -6 -15.4429 0 -1.5 -10.5 0 -10.5 0 0 -9.75 0 0 0 0 -0.666667 -6.75 0 -9.73684 0 -17.2 -8.5 -24 -11.7333 -11.4239 -18 -15 -17.1667 -17.1667 0 -19.5 -19.5 -18.5 -18.5 -19 -18 0 -19.5 -21 -21 -20.6667 -20.3333 -23 -20 -21.2 -21.2 -21.2 -24 0 -20 -21 -21.75 0 -20 -22 -21.5 -20.5 -23 0 -21 0 -20 -20 0 -20 -20.5 -20.5 0 0 -20 -20 -20 -20 -19.5 -19.5 -20 0 -18 0 -17.6667 -17.6667 -17 -17 -17 0 0 -17 -17 0 -35.2 0 -35.2 -12 0 -7 -7 0 0 -8.5 -8.5 -8 -8 0 0 0 0 0 0 -8 0 -9 -9.5 -9.5 -9 -9 -9.5 -9.5 -10 -10 0 0 -11.5 0 -12 -9.13333 -9.13333 -8.66667 -10.6667 -10.8333 -10.5 0 -13.5 -12 -7.2 0 -13 -12 -12 -12 -11.5 -11.3333 -11.3333 -12.5 0 0 -13 -11.5 -11.5 -12 0 0 0 0 0 -13 -12.6667 -11.1667 -11.1667 -11 0 0 0 -18.2 -5 -30.3333 -30.3333 -18.5 -11.5 -11.5 -12.75 -31.35 -34.1429 0 -18.8333 -29.3333 0 0 0 0 -7.33333 -7.33333 -18 0 0 0 7.33333 -3 -3 -3 6.33333 9.4 7.33333 7.33333 0 0 0 0 0 0 -1 6.33333 0 12 0 0 0 0 0 0 -4 -4 -8 0 0 0 0 0 0 0 0 0 0 0 0 0 0 0 0 0 0 0
0 0 0 0 0 0 0 0 0 0 0 -11.5 -11.5 -12 -12 -12 -11 0 -11.5 -11 -11.3333 -11.3333 -11.5 -11 -11 -10.5 0 -10 0 -10.8333 -10.8333 -11 -10 0 -10.5 -10 0 0 0 -9.5 -9.5 0 -10.5 -10 -9 0 -9.5 -9 -9 -8.66667 -8.5 -8.5 0 -10 -8.5 -8 -8 0 0 0 0 0 0 0 0 0 0 -7.66667 -7.66667 -8 -8 -7.5 0 -7.5 -7.5 -8 0 -8.5 -7 0 -8 -7.5 -7 -7 -7 -7 -7 -7 0 -8 -6.33333 0 -6.5 -6.5 0 -6.5 -6 -6 -6 -6 -6 0 -6 -6 -6 -5.5 -5 12 0 10 0 0 -37.4286 0 0 0 0 0 0 0 0 0 0 0 0 0 0 0 0 0 0 0 0 0 0 0 0 0 0 0 0 0 0 0 0 0 0 0 0 0 -30.5 -22.5 -41.5 -41.5 -42 -42.6667 -43 -43 -44 -43.5 0 -43.3333 0 0 0 -43.5 0 0 -44.5 -44.5 -45.5 -45.5 -45.6667 -45 0 -45.3333 -45.3333 -44.5 -44 -44 -44 0 -45 0 -43 -44.6667 0 0 -44.25 -45.1333 0 -45 -45 -45 -44 -43.5 0 0 0 -44.5 -44.5 -43.5 -44.5 0 -45 0 0 0 0 -23.5 -41 -43.1667 -40.3333 -41.9167 -39.75 -39.75 -40.5 -40.5 -41.75 -39.75 -41.25 -41.25 0 0 0 0 0 0 0 -38.3333 -37.5 -37 -36.6667 -36.6667 -37 -37.5 -37 -36.5 -35.9 -35.9 0 -37 -37 -36 -35 0 -34 0 -35 -34 0 0 0 -33.0833 0 -34 -32 -29 -29.5 -29.5 -28.75 -28.75 -28.75 0 0 0 -26 -25 -24.5 0 -24 -25 -25 -25 -26 0 0 -24 0 -22 0 -21 -21 -21.625 -22.3333 0 -21.5 -21 0 0 0 0 -21.4286 -30 -19.6667 0 0 0 -27 0 0 -26.75 0 0 0 0 -27 -27 0 0 0 -28 -28 -29 -29 -28.5 -29.1667 -29.1667 -27.3333 -28 0 -28 -28 -28 -28 -27.5 -28 0 -28 -28 -27.5 -27 -27 0 -27.3333 -28 -28 -28 -28 -28 -28 -28 -28 -28 -28 -28 -26 -26 -26 0 0 -25 0 0 -25 -24 -24 -24 0 -24.3333 0 -22.5 0 0 0 -22.3333 -22 0 -22 -22 -21.5 -21.5 -21.5 0 -9.5 -9.5 0 -9 -9 -9 0 0 0 0 -13.6667 0 -7 -6.5 -6 -6 0 -6 -6 -6 0 0 0 4.5 -4 0 -3.5 -3.5 0 -4 -4 -4 -11 -11 -5 -16.5 3.16667 1.66667 -2.16667 -2.16667 -10.5 -6.5 -10.5 -9.75 -8.83333 0 0 -13.9286 -13.9286 0 -0.666667 -3.83333 -6.64286 -6.64286 -6.64286 -17.2 -8.5 -11.7333 -16.9306 -11.7333 -15.8308 0 -16.5 -16.5 -15 -16.2381 -16.2381 -17.5 -17.5 -19 0 -20 -20.5 -20.5 -19.5 0 -20.6667 -20.6667 -21 -21 -21.2 -21.2 0 -22 -20 0 0 0 0 -21.5 0 -22 -20.5 -22 0 -21 0 -20 0 0 0 -20 0 -21 0 -21 -19.5 -19.5 -19.5 0 -19 0 -18 -17.5 -17 0 -16.6667 -16 -17 0 -16 -16.5 -16.5 0 -13.5 -13.5 0 0 0 -7.5 -7.5 -7.5 -7 -7 0 -7.5 0 -7 0 -8 -8 -7 0 0 -8.5 -8.5 -8.5 0 -9 -9 -9 0 -10 -10 -10 -10 -10 -10 -10 -8.5 -9 -11.5 -8.5 -10.8333 -10.6667 0 -10.8333 -10.8333 -12 0 -12.5 -11 0 0 0 -13.5 -13.5 -12.75 -12.75 -12.75 -12.5 0 -11.5 -11.5 -11.5 -12 -12.5 -12.5 -13 -12.6667 -12.6667 0 -12 -12 -12 0 -18.8333 -11 0 -3.5 -9.5 -9.5 -14 -12 -14 -14 0 0 -19.5 -5 0 -10 0 -3 -7.33333 -18 -18 -9 0 0 -9.16667 0 0 9.4 9.4 7.33333 7.33333 0 0 0 0 0 0 8.29167 0 0 0 6.33333 6.33333 12 0 0 0 0 0 0 0 0 0 0 0 0 0 0 0 0 0 0 0 0 0 0 0 0 0 0
0 0 0 0 0 0 0 0 0 0 0 0 0 0 0 0 0 0 0 -11 -11.3333 -11.6667 0 -12.5 -12 -10.5 0 -11 -11 0 0 -11 -11 -11 -10.6667 -10 -10 -9.5 -10.5 -10.5 -10.5 0 0 -10 -10 -10 -9.5 -9 0 -8.75 0 0 -9 0 0 -8.5 -8.5 0 0 -8 0 -9.5 -9.5 -8.5 -8 0 -9 -7.66667 -8.5 0 -8 -7.5 0 -8.5 -8.5 -9 0 -8.5 -8 -8 0 -7.5 -7 -7 -7 -7 -7 0 0 -8 0 0 0 0 0 -6.5 0 -6 -6 -6 -6 -6 0 -7 -6 0 -6.5 0 -6 0 -37.1667 -29.5 -37.4286 0 0 0 0 0 0 0 0 0 0 0 0 0 0 0 0 0 0 0 0 0 0 0 0 0 0 0 0 0 0 0 0 0 0 0 0 -43.75 -43.75 0 -42.8 -42.5 -42.5 0 -43.5 -43.5 -44 0 0 -43.3333 -43.3333 -44 -44 -43.5 -43.5 -43.5 -44.5 0 0 0 0 0 0 -45.3333 -45.45 -44.5 -44 -44 -44.5 -44.5 0 0 -44.5 0 0 -45 -44 0 0 0 -45 -45 0 0 0 0 0 -44 -44 -44 0 0 -44.5 0 0 0 0 0 -34.1667 -43 -42 -41.25 -41.9167 -39.75 -41 -41 0 -42 0 -40.5 0 -39.1667 0 0 0 0 0 -38.3333 -38.3333 -37 -37 -37 -37 -37.5 -37.5 -37.5 -37.5 -37.5 -37 -36 0 -36 -35 -35 0 0 -35 -33.2 -32 -33.5 -33.5 -33.0833 -33.0833 0 -33 -31 -30 -30 -29 -30 0 0 0 0 -26 0 0 0 -24 0 -25 -25 -26 -23 -23.25 -23.5 -22 -22 -21 -21 -21.625 -21.625 -21.625 0 -21.5 -21.4889 -21.4889 -21.4889 0 0 0 -21.7 -30 -40.6667 0 -27 -27 -26 -27 -26.75 -26.75 -26.75 -27.5 -27 0 0 0 -28 -28 -27.3333 -29 0 0 0 0 -28.5 -27.3333 -27.3333 -28 -28 -28 -28 0 -29 -28 0 -28 0 0 0 0 0 -27.3333 -27.3333 -28 -28 -28 -28 0 0 0 -27.5 -27.5 0 -26 0 -25.5 -25.5 0 -26 0 0 -25 -24 -24 -24 -24 -24 -22.5 0 0 0 -22.5 -22.3333 -22 -22 0 -19.3333 -19.3333 -22.5 0 0 0 0 0 -7 -9.33333 0 -11.5 0 0 -13.6667 -13.6667 0 0 0 0 0 -6 -6 -6 -6 0 -5 -5.5 -5 -6 -5 -3.5 -3.5 -4 -4 -4 0 0 0 -6 0 0 -5.66667 -5.5 -5.5 -6.5 -6.5 -6.5 -8.83333 -9.75 -9.75 0 -9.75 -9.75 0 -0.666667 -6.64286 -6.64286 -6.64286 -10 -9.73684 0 -13.7333 -16.9306 0 -16.2381 -16.2381 -16.9306 -15 -18 -27.2 0 -16.2381 -17 -18 0 0 -19.5 -19.5 -19.5 -20.1333 -20.1333 0 -20 0 0 -21 0 0 0 -22 0 -22 -21 0 -22 -21 -21 -21 -21 0 0 0 -21 0 0 -20.8333 -20 0 0 -21 -20 -19.5 -19.5 -19.5 -19 -19.5 -19.5 -19 -17 -16.6667 -16.6667 -18 -17.5 0 -16 0 -9 -20 0 -14 0 0 -6 0 -6 -6 -7 0 -8 -8.5 -8.5 -8 0 0 0 -8 -8 -8 0 -8 0 -8.5 -8.5 -9 -9 0 0 0 -10 -10 -11 -10 -10 0 -11.5 -11.5 0 0 0 -10.6667 -10.8333 -10.8333 -12 0 0 -10.5 0 -11 -10.5 -10.5 0 0 -12 -12.75 -13.5 0 0 0 -12.5 -12 -12 0 0 -12 -11.5 -11 0 0 0 0 0 -11.6667 -11.5 -11.5 -12 0 -11.5 -11.5 -11.5 -14 -11.2 -12 -19.5 -11.6667 0 -7.5 -7.5 -8.5 -8.5 0 0 -8.5 -7.5 -9.16667 -9.16667 0 3.33333 0 0 1 1 2 2.5 2.5 9.4 6.33333 0 7.5 10 9.5 9.5 6.33333 0 0 0 0 0 0 0 0 0 0 0 0 0 0 0 0 0 0 0 0 0 0 0 0 0 0 0 0
0 0 0 0 0 0 0 0 0 0 0 -11.5 -11.5 -12 0 -12.5 -12 0 -11.5 -11 -11.6667 -11.6667 0 0 -12 -10.5 0 0 -11 -10.5 -10.5 -10.5 -11 -11 -10.3333 0 0 0 0 -10 -10.5 -10.5 -10.5 0 -10 -10 -9.5 0 0 -9 0 0 -10 -9.5 -9.5 -9.5 -9 -9 -8.5 -8 -8 0 0 -10 -9.5 0 -9 -9 -8.5 0 0 -7.5 0 0 0 -9 -9 0 0 -8 0 0 0 0 -7.5 -7.5 -8 -8 0 -8 -8 -6 0 -36.5 -7 0 -6 -6 0 -6 -6 -6 0 -7 -7 0 -6.5 -6 -6 -6 -27.5 -5 0 0 0 0 0 0 0 0 0 0 0 0 0 0 0 0 0 0 0 0 0 0 0 0 0 0 0 0 0 0 0 0 0 0 0 0 0 -43.75 -43.75 -18.5 0 -42.8 -42.8 -42.8 -43.5 -43.5 0 -44 -44 0 -43.3333 -43.3333 -43.3333 -43.5 -43 0 0 -44.5 -45 0 0 -45 -45.45 -45.45 -45.45 -44.6667 -44 -44 0 0 0 0 -44.5 0 -44.5 -45 -45 -44.5 0 -44.5 -44.5 -45 0 0 -44.5 0 -44.3333 -44.3333 -44 -44.3333 -44 0 -44 0 -30.5 0 -43.5 -33.5 -33.5 -43 0 -40.3333 -40.3333 -37 -37 -42 -42 -42 -41.5 -40.5 -40.3333 0 -33.5 0 0 0 0 0 0 -38 0 -38 0 -38 -38 -36.6667 -37.5 -36.6667 -36.6667 0 0 -36 -35.5 -35.5 0 0 -34 0 0 0 0 -32 0 -33 -33 -31.5 -30 0 -29 -29 0 0 -27 -27 0 0 -24.5 0 -24 -24.5 -24.5 -26 0 -23 -23.25 0 0 0 -30 -21 -21.625 -21.625 -21.625 0 -20.6667 -23.25 -23.25 -23.25 -19 0 0 0 0 -34 -27 0 -27 -27 0 0 0 0 0 0 0 0 -26 -27 -26 -27.3333 -27.3333 -28 0 -29 -29 -28.5 -28 0 -28 -28 -28 -28 0 -28 -28 -28 -28 -28 0 -27 -27 0 -28 0 0 0 0 0 -28 -27 0 -27 -27.5 -27.5 -27.7 -27.7 0 -26 -26 -26 0 -25 -25 0 -24.5 0 0 0 0 -24.6667 -22 -22 0 -25 -23 -22 0 -19.3333 0 -19.5 0 -20 -7 -5.5 -4.5 -4.5 0 -7 -7 -7 -8 -4 -6 0 -7 0 -6 -6 -6 -6 -6 -6 0 -5.5 0 -5 -6 0 0 0 -4 -4 0 -5 -5.5 -5.5 -0.5 -6 0 -5 -6 -6 -6 0 0 -5.5 0 0 0 0 0 -5 -0.666667 -9.73684 -6.64286 -6.64286 -6.64286 -9.73684 -16.9306 -26 -26 0 -15 -15 -12 -16.2381 -18 -27.2 -34 -15 -18 -27.2 0 0 -19 -19 0 -20.1333 -20.1333 -20.1333 -20 0 0 0 0 -22.6667 -22 -22 -21 -22 -22 -22 -22 0 -21.6667 0 -21.6667 -23 0 0 0 -20 -20 -20.8333 -20.8333 0 -20 -21 -20 -20 0 0 -19 -19.5 -19.5 -19 0 0 0 -17 -17 -16.5 -16.5 -16.5 -16.5 -16.5 -17.1667 -11 0 -14 -6 -7 -7 -6 0 0 0 0 -9 0 0 -7 0 -6.5 0 -7.5 -7.5 -8 0 0 -9 -9.5 -9.5 -8.83333 -8.83333 -10 -10 -10 -11 0 0 0 -9.83333 -9.83333 0 0 0 0 0 0 0 -12 -11 -11 -11 -11 -11 -11 0 -12.5 -12.5 -12.5 0 -13 -11 -11 -11.5 -11.5 -12.5 -12.5 -12.5 -12 -11.5 0 0 0 -11.5 -11.5 -19.5 -5 -10.8 -10.8 -10.8 -11.2 -11.2 -12.5 -12.5 -13.5 -11.2 -11.2 -10.8 -10.8 -11.6667 0 0 0 0 -8.5 -8.5 -8.33333 -8.33333 -8.33333 0 -9 0 7 0 9.5 9.5 9.5 0 4.8 9.4 9.4 0 0 7.5 7.5 9.5 9.5 6.33333 6.33333 6.33333 6.33333 0 0 0 0 0 0 0 0 0 0 0 0 0 0 0 0 0 0 0 0 0 0 0 0
0 0 0 0 0 0 0 0 0 0 0 -11.5 -11.5 -12 0 0 0 -12 0 0 0 0 -11.5 0 -12 -12 -11.5 -11 0 -10.5 0 0 0 0 0 0 -11 -11 -9 0 -10.5 -10.5 -10.5 0 -11 -10 -9.5 0 -10 -10 -10 -10 -10 -10 -10 0 0 -9 0 -8.5 -8.5 0 0 -10 -9.5 -9 -9 -9 -8.5 -8 0 0 -8.5 0 0 0 0 -8.66667 -8 0 -8 -7.5 0 -7 0 -8 -8 -8 0 -8 -8 -7.5 -7 -7 -7 0 -6 -6 0 -7.5 -7.5 -7.5 0 0 0 0 0 0 0 0 0 -26.5 1.5 0 0 0 0 0 0 0 0 0 0 0 0 0 0 0 0 0 0 0 0 0 0 0 0 0 0 0 0 0 0 0 0 0 0 0 0 0 0 -14 0 0 0 -42.8 -42.6667 -44 0 0 -44.5 0 -43 -44 0 -43.5 0 0 0 0 -43.5 0 0 -44.5 0 -44 -45.3333 -44.6667 0 -44 -44.5 -44.5 0 -44.5 0 0 0 0 0 -44.5 -43.5 -43.5 -44.5 -44.5 0 -45 0 -43 -43.5 -43.5 -43.5 -43.5 0 0 -45 0 -44 -44 -21 -33.1667 -39.1667 -39.1667 0 -44 -39.3333 -39.3333 -42 -42 -42 -39.3333 -44 -42.8333 -44 0 -40.2667 0 0 0 0 0 -39 0 0 -38 0 -38 -38 -38 -37.2 -36.5 -36.5 0 -36 -35 -35.5 -35.5 -35 -34.5 -34 -32.5 -32 0 0 0 -33 0 0 -32 -30 -29 0 -29 -26.5 -26.5 -27 0 0 0 -24.5 -24 0 -24 -24 -24.5 0 -24.3333 -23 -23.25 -23.25 -22 -22.6667 0 -21 -21 -21.625 -21 -21.4889 0 -22.3333 -21 -19 0 0 0 -21.7 -22 -26.5 0 -27 0 -26 0 -27 -28 -27.5 -27 -27 -27 -27 0 0 -26 -29.5 -29.5 0 0 -29 -28.5 -28 -28 -28 -28 -28 -28 -28 -28 -28 0 -29 -28 0 -28.3333 -27.5 -27.5 0 -28 -28 -28 0 -28 -28 0 0 0 0 -28 0 0 0 -26 0 0 -26 -25 -25 -25 -25 -24.5 0 -24 -23 -23 -23 0 -22 -24.6667 -23 -23.5 -21 0 -20 -19.5 0 -20.3333 -27 -7.5 -7.5 -7.5 -6 -6.5 -6.5 -7 0 -7.5 -7.5 0 0 -6 -6 -6 -6 0 -5.5 -5.5 0 0 0 -3.66667 -10.5 -5 -4 -4 0 -5 -4 0 0 -5 -6 0 0 -5.5 -5.5 -6 -6 -13.6667 -13.6667 -13.0714 0 -9.75 -9.75 0 -5 -13.9286 -6.5 -9.73684 -9.73684 -9.73684 -9.73684 -16.9306 -15.8308 -12 0 -9.56818 -16.6667 0 -8.5 -17.5 -17.5 -18 -27.2 -18 -18 -19.5 -19 0 -20 -19 0 0 -20.5 -20.5 -28.5 -28.5 -20.5 -20.5 -22.6667 -22.6667 -22 -22 -22 -22 -22 -22 -22 -29.5 -21.6667 -21.5 -21.5 0 0 -21 0 -20 0 0 0 0 0 -21 0 0 -20 -20 -19 -19 -19 -18.5 0 0 -16 -16 -17 -15.5 -15.5 -17 -15.5 -15 -15 -11 -13.5 0 -6.5 -6.5 -7 -7 -7 0 -8 -8 0 0 0 0 -7 0 0 0 -8.5 -8.5 -9 -9 -9.5 -9.5 -9 0 0 0 0 0 0 -10 -10 -10.5 -10.5 -10.5 -10.5 -9.83333 -12 -12 -12 -11 0 0 0 -11 -11 -11 -11.5 -11.5 0 -13 -13 -13 -11 -11 -12 -12 -11 0 -11.1667 -11.1667 -12 -12 -12 0 0 -12 -12 0 3 -17.5 -9.8 -9.8 -10.5 -10.5 -11.2 -11.8333 -11.8333 -9.8 -10.5 -10.5 -9.8 -9.8 -17.5 -5.25 -8 0 0 0 0 -8 -8.5 -8.5 0 -7.66667 0 0 -7.66667 0 0 5.66667 5.66667 6.5 4.8 4.8 4.8 4.8 9.4 5 0 7.14286 7.14286 7.14286 6.33333 0 0 0 0 0 0 0 0 0 0 0 0 0 0 0 0 0 0 0 0 0 0 0 0 0
0 0 0 0 0 0 0 0 0 0 0 0 0 -13 -13 -13 -13 -12 -11.5 0 -12.5 -12.5 -13 0 -12 -12 -11.5 0 0 0 -10.5 -10.5 0 -12 -10.5 0 -11 -11 -10.5 0 -10.5 -10.5 -10.5 -10 0 -10 -9.5 0 -10 0 0 -9.5 -9.5 -10 0 0 -9.5 -9.5 0 -9.66667 -9 -9 -9.5 -9.5 -9.5 -9 -9 0 -8.5 -8 0 0 -8.5 -8.33333 -8.33333 -8.5 -9 -8.33333 -8 0 -8 -7.5 0 -8 0 -8 -8 -8 -8 -8 -8 -7.5 -7 -7 -7 0 0 0 0 0 0 0 0 0 -7 -7 0 -6 -6 -6.5 -6.16667 -6.16667 0 -27.6667 -27.6667 -27.6667 0 0 0 0 0 0 0 0 0 0 0 0 0 0 0 0 0 0 0 0 0 0 0 0 0 0 0 0 0 0 0 0 0 0 0 0 -14.5 0 0 -42.3333 -42.6667 0 -42.6667 -44 -44 0 0 -45 0 -44.6667 -43.3333 0 0 -44 -44.5 -44.5 -44.5 -44 -44 0 0 0 0 -44 -44 -45 0 -44.5 0 0 0 0 0 -44.5 0 0 -44.5 0 -45 -45 -44 -42.5 -44 0 0 0 -44.5 0 -45 0 -44.5 -31 -45 -33.1667 0 -33.5 -42.8333 -32 0 -41.5 0 -41 -41.5 0 -45.6667 0 0 -40.2667 -40.2667 -33.4167 0 0 0 0 0 -36.5 0 -38 -36 0 0 0 -37 -35.6667 -36.5 -36.5 0 0 0 -36.5 0 0 -33 -32.5 0 -31.5 -31.5 0 0 -32 -33 -30 -31 -29 0 -29.5 -29.5 0 -26.5 -26.5 -27.5 0 0 -24.5 -24.5 -24.1667 -24.1667 0 -25 0 -25 -23.5 -22 -22.6667 -22.6667 0 0 -14 -20.5 -21 0 0 -22.3333 0 0 0 0 -22.25 -22.25 -22 0 0 -27 -27 0 -26 0 0 0 0 -26.5 -26.5 0 0 0 -27.5 -27.5 0 0 -29 -29 -28.5 -28 0 -28 0 0 -29 -28 -28 -28 0 -28.5 -28.5 -29 0 -27.5 -27.5 -28 -28 0 -28 0 0 -27 -27 0 -27.5 -27.5 0 -27.5 -27 0 -26 -26 -26 0 -25 -25 0 -25 -25 0 -24 -22 -21.6667 -21.5 -21.5 0 -24.6667 -24 -23 0 0 -20 0 -20 -20.5 -20.5 0 0 -7 0 0 0 -7 -6.5 -6.5 -6.5 0 0 0 0 -5 0 -6 -5 0 -5 -5 -5 -5 -5 -5 -4 -4 -4.5 -4.5 -5 -5 -5 0 -6 -6 -6 0 0 0 -7 -8 -8 0 0 -9.75 0 0 -5 0 -6.5 -6.5 -9.73684 -8.5 -16.5 -6.6 -9.73684 -19.5 -18.5 -19.5 -26 -21.5 -14.4643 -13.7333 -16 -16 -18.5 0 -18.5 0 -19.5 -19.5 -19.3333 -19.3333 -20.5 -20.5 -21.5 0 -28.5 0 -21.5 -21.5 -21 -22 -40 -37 -22.5 -22.5 -21 0 -22.3333 0 0 -22 -22 0 0 0 0 0 0 0 -20 -20 0 0 0 0 -20 0 -22.3333 -19.6667 -19.6667 0 -16 -16 -16 -15.5 -15.5 -15.3333 -17.1667 -17 0 0 -14 -11 -14 -16 0 0 -7 -7.5 -7.5 -8 -6.5 -8 -8 -7 -7 -7.5 -7.5 -7 -7 0 -8 0 -9 -9 -9.5 -9.5 0 0 0 0 0 -9.5 0 0 0 -9.5 -10.4 -10.4 0 -11 -11.5 -11.5 0 0 0 -12.5 -12.5 -11 -11 -11 0 0 0 -12.3333 -12.3333 -12.3333 -13 -13.25 -11 -11 -11.1667 -11 0 0 0 0 -11 0 -11 -10.5 0 0 0 -5.25 -11.4 -11.4 -9.5 -9.33333 -9.5 0 0 -12.6667 -15 0 -11.5 -11.5 0 0 -8.5 -8.5 0 0 0 0 -8 -8.33333 -7.66667 -7.66667 0 0 0 0 0 0 4.83333 4.83333 9.4 4.8 4.8 4.8 9.4 0 0 5 0 0 0 0 0 0 0 0 0 0 0 0 0 0 0 0 0 0 0 0 0 0 0 0 0 0 0 0
0 0 0 0 0 0 0 0 0 0 0 0 0 -13 -13 0 0 -13 -11.5 0 -12 -12.5 -12.5 -12.5 0 0 0 0 0 -12 -10.3333 -10.3333 0 -12 -12 -10 0 -11 -10.5 -10 0 0 -10.5 -10 0 0 0 0 0 0 -10 -9.5 -9.5 -10 -10 0 -10.5 -10 -10 0 -9 -9 0 0 -9.5 -9 -9 0 -10 -9.5 -8 -9 -8.5 -8.33333 -8.5 0 0 -8.5 -8 0 -9 0 -8.5 -8 -8 0 -8 -8 -8 0 -8.5 -8.5 0 -8 0 0 0 -7 -7 0 -7.16667 -7.16667 -7 -7 -7 -7 0 -6 -6.5 -6.5 -6.5 -6.16667 -5.5 -16.25 -16.25 0 0 0 0 0 0 0 0 0 0 0 0 0 0 0 0 0 0 0 0 0 0 0 0 0 0 0 0 0 0 0 0 0 0 0 0 0 0 0 0 -43.3333 -42.3333 -43.5 -42.3333 -43.5 -44 -44 0 0 -44.6667 -44.6667 -43.3333 -43.3333 -44 -44 -44 -44 -44 0 -44 -44.5 -44.5 0 -44 -44 0 0 -45 -44.6667 0 -45 -45 0 0 0 0 0 0 0 -43.5 -43.5 -44 0 -45 -44 -44 0 -43.5 -9 -44 0 -16 0 0 -33 0 -43 -42.5 0 -33 0 -41.5 -42 -42 -40 -45.6667 0 -45.6667 0 0 0 0 0 0 0 0 0 -36.5 0 -37 0 0 -38 -35.6667 -35.6667 0 0 -35.6667 0 0 0 0 -34 0 0 -32 0 0 0 0 -32.3333 -32.3333 -32 0 -30 0 -29.5 -29.5 -28.5 -27 -27.5 -26 0 0 0 -24.6667 -24 -24.1667 0 0 -25 -25 -23 -22 -21.5 -21.5 -20.5 -21 -21.5 0 -19 0 0 0 -21 -21.7 -21.7 0 0 -22.25 -22 -26 0 0 -25 -21.7 0 0 0 -27.5 -27 -27 -27 -27 -27 0 -30 -28.25 0 0 -28.5 0 -28.5 -28 0 -28 0 -28 -28 -28 -27.6667 -28 0 -29 0 0 -27.5 0 0 0 0 0 0 0 -28 -28 -27 0 -27.5 -27.5 -28 0 0 0 -26 -26 -26 -25 0 -25 0 -25 -25 0 -24.3333 -22 -21.6667 -21.6667 0 0 0 0 -23 -23.5 -20 0 -19 -7 0 -6.5 0 0 0 0 -6 -5 -6 0 -6.5 -5.66667 -6 -6 0 0 -5 -4 -4.5 -4.5 -5 0 -5 -5.5 -5.5 -6.33333 -6 -4 -4 0 0 -5 0 -5 -5 0 -5.5 -5.5 -3.33333 -6 0 -6 -5 0 -7.16667 -6.2 -5.66667 -6.2 -6.5 -6.2 -9.22222 0 -9.22222 -9.56818 0 -16.1538 -9.22222 -9.73684 -7.2 -10.0238 -8.4 -16.5 -26 -14.4643 -14.4643 -13.7333 -13.7333 0 0 -15 0 -20 -19.5 -19.3333 -20 0 -21.5 -21.5 -21.5 -21 -21 -20.5 -20.5 0 0 0 0 0 -21.5 -21 0 -22.3333 -22.3333 -22 0 -22 0 -20.5 -20.5 -20.5 0 0 -20 -20 -22 -20 0 -24.3333 -24.3333 0 0 -22.3333 0 -19.6667 0 0 0 0 0 0 -15.3333 -15.75 -17.1667 0 0 0 0 0 -6.5 -6.33333 -7 -7 -7 -8 -8 -7.5 -7.5 -8 -8 -7.5 -7.5 -8 -8 -8 -8 0 -8 -8.5 -8.5 -9.5 -9.5 -9.5 -9.33333 -9.33333 -9.33333 0 -9 -8.5 -10 -7 -10 -9 -10.4 -10.4 -10.4 0 0 -10 0 -9 -10.5 -13 -11 0 0 -12.5 0 -12 0 -12 0 -12.6667 -12.6667 -12 -11.5 -11 0 -12.5 -12.5 -13 -12.5 0 -12 -11 -10.5 0 0 -5.25 -11.4 -11.4 -9.33333 -10.5 -10.3333 -12 0 -12.6667 -12.6667 -15 -9.5 -11.4 -5.25 -18 0 0 0 -0.791667 -0.791667 0 9.66667 -9 -9 0 0 -8 0 0 0 0 -7.66667 0 -7.66667 -12.25 -12.25 6.5 5.66667 0 0 0 0 0 0 0 0 0 0 0 0 0 0 0 0 0 0 0 0 0 0 0 0 0 0 0 -8.5 0 0 0 0
0 0 0 0 0 0 0 0 0 0 0 0 -12.5 -12.5 -13 -12.5 -12 0 -11.5 0 -12 0 0 0 0 -12 -11.5 -11 0 -12 -10.3333 -11.2 -11.2 0 -12 -11.5 -11 -11 -10.5 -10 0 0 -12 0 0 -11 -11 -10.5 0 0 -10 -9.5 -9.5 -10 -10 -9.5 0 -10 -10 -9.5 -9 -9 -9.5 -9.5 0 0 -9 0 -10 -9.5 -9 -9 0 0 0 0 0 -8.5 -8 0 -9 -9 0 -8 -8 -9 -9 -9 -8 0 0 -8 -7 0 -8.5 -7 -6.5 -7 -7 -8 -7 -7 -8 -8 -7.25 -7 0 -7.5 0 -8 -7 -6.5 0 -5.5 -16.25 0 0 0 0 0 0 0 0 0 0 0 0 0 0 0 0 0 0 0 0 0 0 0 0 0 0 0 0 0 0 0 0 0 0 0 0 0 0 -30.5 -41 0 0 -43.5 -43.3333 -43.7 -43.5 -43.5 -43.5 -43.6 -43.6 -43.6 -43.6 0 -44.5 -44.5 -44 -44 0 0 0 -44 -45.5 -44.5 -44 0 -44.3333 -44.3333 0 0 0 0 0 0 0 0 -45.5 -45 0 -43.5 -43.5 0 -45 -45 0 0 0 -43.5 0 -10.5 0 0 -44.5 0 -45 -33.5 -33.5 -40.2667 0 -31 -40 -40 -42 -42 -42 -41.25 -44.5 0 -44.5 0 -40 0 0 0 -38.5 0 0 -38.5 -38 -37 -37 0 -37.3333 -37.3333 0 -36 0 -35.6667 -35.6667 -35 0 -35 -35 -32.5 -32.5 -32.5 -32 0 0 -33 -30 -32.3333 -32 0 0 0 0 0 0 0 0 -27 0 -26 0 -25.5 -24.6667 -25 -24 0 -24.5 -24.5 0 -25 -24 -22 -22 -20.5 -20.5 -19.1667 -21.5 -19.3333 -19.3333 0 0 -21 0 -21.7 0 0 0 -21.7 0 -23.25 0 -21.7 0 0 -25.5 0 -26.5 -26.5 -27 0 0 -27 0 -28.5 -28.5 0 0 0 -29 -28 0 0 0 -28 -28 -28 -27.6667 -27.6667 -28 0 -28 -28 -27.5 0 -27.5 -28 -28 -28 -27 0 -28 0 0 0 -27 0 0 0 0 0 0 0 0 0 -25.5 -25 0 -25 -25 -25 0 -24.3333 -24.3333 -23 -22.6667 0 0 -23 0 -24 0 0 0 -6.5 -6.5 0 0 0 -7 -6 -6 -6 -6 0 0 -5.66667 -5.66667 -6 0 0 -5 0 -4.5 0 0 -5 0 -5 0 -6 -6.33333 -6.33333 -4 -4 0 0 -4 0 -5.5 -5.5 0 0 -6.5 -6.5 0 0 0 0 -7.16667 -7.16667 -6.5 0 -1.5 0 -6 -9.22222 -9.22222 -9.22222 0 0 -9.56818 -9.22222 0 0 0 -22.8333 -17 -17 -22.8333 -10.8 -26 -16.6667 -16.6667 -18 0 0 0 -19.5 -10 0 -19.5 0 0 -21 -20 0 -20.6667 -20.6667 -21.5 -21.5 -21 -21 0 0 -22 -22 -22.5 -22.5 -22 -21 -21 0 -21 -21 0 0 -18.5 0 -22 -22 -20 0 -19.3333 0 -19 -18.8333 -18.8333 0 0 0 0 0 -16 0 0 0 -15.75 -15.75 0 -15 0 0 -5.5 -5.5 -6.33333 -6.33333 -7 -7 -7.5 -7.5 -8 -8 -8.5 -24 0 -7.5 -7.5 -5 -8 -8 -8 0 -9.33333 -9.33333 -9.5 -9.5 -10.3333 -10.3333 0 0 -10 -11 -10 -8 -8 -10 -10 0 0 0 0 -11 -10 -10.5 -9 -12 -12 -11 -11 0 -10 0 -12 -12.5 -12.5 0 -12.6667 -12.6667 0 -11 -11 -11 0 0 0 -13 0 0 0 0 0 0 -11 -9.33333 -9.33333 -9.33333 -10.5 -10.3333 0 -23.5 -12 -10.3333 -10.5 -9.33333 -9.33333 -15 -32.6667 -26.5 0 0 -9 -9 18.5714 -14 0 0 0 -7 4.33333 3.1 0 0 0 0 0 -7.66667 -7.66667 -12.25 0 0 0 0 0 0 0 0 0 0 0 0 0 0 0 0 0 0 0 0 0 0 0 0 0 0 0 0 0 0 0 0 0 0
0 0 0 0 0 0 0 0 0 0 0 0 -12.5 -12.5 -13 -12.5 -12 0 -13 0 0 -12.5 -12.5 -12.5 -12 0 -11.6667 -11 0 -12 -11.2 -11.2 -11.2 0 -12 -11.5 -11 0 -10.5 -10 -10 0 0 -11.5 -11 -11 -11 -10.5 0 0 -10 -9.5 -9.5 0 -11 -11 0 -10 -10 -9.5 -9 0 -9.5 -9.5 -9.5 0 -10 0 0 -9.5 -9 0 -8.5 -8 -8.5 -8.5 0 -8.5 -9.5 -9 -9 -9 -8.5 -7.5 -7.5 -8 -7.66667 0 0 -9 -8 -8 -8.5 0 0 -8.5 -7 -6.5 -7 -7 -8 -8 -8 -8 -8 -8 -8 0 -7 -7 0 -8 0 -7 -6.25 -6.25 -6.25 4.5 -7 0 0 0 0 0 0 0 0 0 0 0 0 0 0 0 0 0 0 0 0 0 0 0 0 0 0 0 0 0 0 0 0 0 0 -14 -30.5 0 0 0 0 -43.3333 -43.7 0 0 -45 -45 -43.6 0 -44 0 -45 -44.1667 -44.1667 -44.5 -44.5 -45 -45 -45 -44.5 -44 -44 -44.3333 0 0 -44.3333 -44 -45 0 0 0 0 0 0 -44 -44 -44 -43.5 -43 0 -42.5 0 -43 -43 -21.6667 -23.6 -24 -34.3333 -24 0 -31.5 -33.4167 -33.4167 -40.2667 -41.6667 -41.6667 0 0 -39 -41 0 -45 -41 0 -41.6667 -41 0 0 0 -38.5 -38 -38 -37.5 -37.6667 -37.6667 0 0 0 -37.3333 0 0 0 0 -35 -35 0 -34.5 -34.5 -35 -32.5 -32.5 -32.5 0 -32 -32.5 -32.5 -30.5 -30.5 -30.5 -29 0 0 -29 -29 -29 0 -28 -27 0 -26 0 -25.5 -25 -26 -24 0 -25 -24.5 -24.5 0 -23 0 0 0 -21 -21 -19.1667 -19.3333 -38.5 0 0 -29 0 0 -22.3333 0 -22.5 0 0 0 0 0 -25.5 -25.5 -21.7 0 -26 -26 -27 0 -27.5 0 0 -28 -28 -28 0 -29 -28 0 -27 0 -28 0 0 0 0 0 -28 0 -28 -28 0 0 -28 -28 -28 0 0 -28 0 -28 -28 -28 -27 0 -28 -27.5 -27 -26 0 -26 -26 -24.5 -24.5 0 0 -25 -25 -24 0 -25 -25 0 -22.6667 0 0 -23 0 0 -22.5 -22.5 0 -23 -8 -6 -6 0 -6 -6 -6 -6 0 -5.5 -5.5 0 0 -6 -5 -4.5 -4.5 -5 -4 0 0 -5 -5 -5 -5 -6 -6 -6 -4 -4 -4 -4 -4 0 0 0 0 0 0 -5.5 -5 -4 0 -14.5 -3 -1.5 -6.5 0 -6.2 0 0 0 -9.22222 -9.22222 0 0 0 0 0 0 0 -33 0 -18.5 -19.5 -16.5 0 -18 0 0 0 -20 -20.5 -20 0 -20 -21 -21 -21 0 -22 0 0 -20.6667 -28.6667 -19.5 -19.5 -22 0 0 0 0 0 -29 -19.5 -21.5 -21.5 0 0 -21 -21 0 -20.3333 -19 -21 -20.3333 -20 -19.5 -19.3333 -19.3333 -19 0 0 -18.5 0 -18.5 0 -16.5 0 0 -15.1667 -15.1667 -15.75 -17 -13.8 0 0 -7 -6 -5 0 0 0 0 0 0 -8.25 -8.25 -8.25 -8.5 -7 -7.5 -7.5 -8 -8 -8 0 0 -9 -8.8 -9.33333 0 -10.5 -10 -10 -10 -9.5 -10 -10 -10 0 0 0 0 0 0 -10.5 -10.5 -10 -10.5 -10.5 0 -10.5 -11.5 0 -11 0 0 0 -12.5 0 -14 0 0 -12 -11 -10 0 0 0 0 -11 -11 -11.5 -11.5 0 0 0 -28.6 0 -18 -14.5 0 0 -11.5 -11.5 0 -13.5 -14.5 0 0 0 -8.5 0 0 0 -8.5 -8.5 -9 2.1 1.41818 1.41818 1.41818 -5 4.71429 4.71429 0 0 13 -7.66667 0 0 0 0 0 0 -12.25 0 0 0 0 0 0 0 0 0 0 0 0 0 0 0 0 0 0 0 0 0 0 0 0 0 0 0 0 0 0 0
0 0 0 0 0 0 0 0 0 0 0 0 0 0 0 0 0 0 0 0 0 0 0 -12.5 -12 0 -13 -12.3333 -12 0 -11.5 -11.5 -11.5 0 0 -13 -11 0 -12 0 0 0 0 0 0 0 -11.5 -11.5 -10 0 0 -11.75 -11.75 -11 0 -11 -10.5 -10 0 -9.5 -9 0 -10.5 -10.5 -9.5 0 -10 0 0 0 0 -9 0 -9.5 -9.5 -9.5 0 -10 -9.5 -9 -9 0 -8.5 -8 0 0 -7.33333 0 0 -9 -9 -9 -8.5 -8 -8 -8 0 -8.5 -7.5 -7.5 -8.5 -8.5 -8.5 -8 -8 -8 0 0 -7 -7 0 -8 -34 0 -7 -7.5 -7.5 -7.5 -7 0 0 0 0 0 0 0 0 0 0 0 0 0 0 0 0 0 0 0 0 0 0 0 0 0 0 0 0 0 0 0 0 0 0 0 0 0 0 -43.5 -43.5 -44 -44 -44 -44 -44 -44.5 -44.5 -44.6667 -44 0 0 0 -44.1667 -44.9 -44.9 -45.1667 -45.1667 -45.1667 -45.5 0 -44 -44 0 0 -44.5 -45 -45 -45 0 0 0 -45.5 -44 0 -44 -44 -43.5 -42.5 -42.5 0 0 -43 -43 -43 -28.0833 -28.0833 -44 -28.0833 -44 -21 0 -37.25 -37.25 0 -39 -41 -41 -41 -41 -40.5 -41 -41 -36 0 -40 -39 -39 0 0 0 0 -37.5 0 -37.6667 0 0 -38 -37.5 -35 0 -35 -35 -34 0 -35 0 -35 -35 -33 -34.5 0 0 -33 -31 -31 -31 -31 -30.5 0 -30 -29.6667 -28.6667 -29.5 -29.5 0 -29 -28 -26 -26 0 0 0 -24 0 0 0 -25 -25 0 -24.5 -24 -21 -22 0 -16.75 -22.5833 -22.5833 11.6667 11.6667 -21 -33.3333 0 0 0 -21 -24.5 -21.5 0 -24 0 -24.5 -24.5 0 -21.7 -25.5 -26 -26 -26.5 0 0 0 0 -27 -28 -28.5 -28.5 -28.75 0 0 -27 -27 0 0 -28.5 -28 0 -29 -28.5 -28.5 -29 -28.5 -28.5 -27.5 -27.5 -28 -28 -28 -27 0 -28 -28 -28 -28 -28 -27.5 -27.5 -27.5 0 0 -27 -25.5 -26 -25 -25 0 -25 -25 0 -25 0 0 -25 -24.5 -23 -23 0 -23.5 -23.5 0 0 0 0 -23 0 0 -6 0 0 0 0 0 -5 -5 0 -5.5 -5 -5 -5 0 0 -5.16667 0 0 -5 -5 -5 -5.5 -5.5 -5 -6 -6 12.5 12.5 -4 -4.33333 -4.33333 0 -11.1667 -6 -5 -5 0 3 0 -4.5 -4.5 0 -5 -5 -5 -5.66667 0 -6.2 0 0 0 0 0 -0.857143 -0.857143 -0.857143 -2.375 -0.857143 -14 0 -18 -18 -18.5 -18.5 0 -18 -18 0 0 0 -20 -18 -19.5 -19.5 -20 -20 0 0 -21.5 -20.5 -20.5 -20.5 -21.5 -19 -21.5 -22 0 -21 -21 -21 -21 -21 -22 0 0 0 -26 -21 0 -20 -20.3333 -20.3333 -21 -21 0 0 -19 0 -19 0 0 -18 -18.5 -18.5 -16.5 0 -16 -16.5 -16.5 -15.1667 -13.8 -13.8 -8 0 -8 0 -5 0 0 0 -7 -7 -7 0 -7 -8 -8.25 0 0 -7.5 -7.5 -7 -7 -7 0 0 0 -8.8 -8.8 -9 -10 -11 -10.5 -10.5 -10 -10.5 -10 0 -10.5 -10.5 0 -10 0 -10 -11 -9.5 -9.5 -10.5 -10.5 -14.25 -14.25 -14.25 -10 0 -11 -13.25 -13.25 0 -12.5 -12.5 -12 -12 0 -9.5 -9.5 0 0 0 -12 0 0 0 0 0 0 0 -28.6 -28.6 -17.5 -17.5 0 -11.5 -11.5 -11.5 0 -18.431 -12.3333 -12.3333 0 0 0 -7 0 0 0 0 2.1 2.1 0 1.41818 1.41818 0.75 -1 0.75 3.83333 3.83333 3.83333 6.25 0 0 6.25 6.25 0 0 0 0 0 0 0 0 0 2.75 4.8 0 4.8 9.4 0 -6 -0.6 7.14286 7.14286 0 13 0 0 0 0 0 0 0 0 0 0 0 0 0
0 0 0 0 0 0 0 0 0 0 0 0 0 0 -14 -14 -13.5 -13 0 -12.5 -12 -12.5 -12.5 0 -12 0 -13 -12.5 -12 -12 -11.5 -11.5 -11.5 -12 0 -13 -12.6667 0 0 -11.5 -11 -11.5 -11.5 0 -11 -11 0 -12 -11.5 0 0 -11 -11 -12 0 -11 -10.5 -10 0 -11 -10.5 0 -10 -10.5 -10.5 -10.5 0 -10 -10 0 -10.5 -9 0 -9.5 -9.5 -9.5 0 0 -9.5 -9 -9 -9 0 -8 -8 0 -9 -9 -9 0 -9.5 -9.5 -9.5 -9.5 -9 -9 -9 -8.5 -8 -8 0 0 0 -8 0 -9 -8 0 -8.33333 -8 0 -8 -7.5 -4.5 -7 -7 -7 -7 0 0 0 0 0 0 0 0 0 0 0 0 0 0 0 0 0 0 0 0 0 0 0 0 0 0 0 0 0 0 0 0 0 0 0 -22.5 0 0 0 0 -42.5 0 0 -44 -44 0 0 0 -43 0 0 -45 -45.1667 0 -45.5 -44.9 -44.9 -44.9 0 -45.1667 -45.5 0 -44.3333 -44.3333 0 0 -43 -45.6667 -45.6667 0 0 0 -45.5 0 0 0 0 0 -42 -43.3333 -43 -43 -43 -43 0 -12 -21.6667 -45 -44 -35.3333 -20.6667 -34.8 -37.25 -39 -39 -36 -41 -41 -41.5 -41.5 0 -41.6667 -40 -40 0 0 0 -37 0 -38 0 -38.5 -38.5 0 0 0 -38 -38 -36 -36 0 -35 -34 -35 -35 0 -34 -34 -35 0 0 -34 0 -32 -32 -32 -32 -32 -31.3333 0 0 -30 -29 -29.5 -29.5 -29 -29 0 0 -26 0 -25.3333 -25 0 -24.5 -24.5 -24.5 -24.5 0 0 -24 0 -21.5 -21.5 0 -39.5 -19.8333 -19.8333 -35.5 -26.4167 -22 -21.4286 0 -18 0 0 -21.5 -23.5 -23 0 0 0 -24.5 -24.5 -26 -24.5 0 -27 0 -26.5 -27.5 -26 -27 -27.25 -27.25 0 0 -28.75 -27.5 -28.5 0 -27.5 -27.5 -28 -28 -28 0 -28.5 -28.5 0 -28 0 -27 0 -28 0 0 0 0 0 0 0 -28 0 -27.5 0 0 0 0 0 -25.5 -26 -26 0 0 -25 -25 0 0 0 -24.5 -24.5 -25 -24.5 -24 -24 0 -23 -23 0 0 0 -5.5 -5.5 0 -6 -6 -6 -6 -4.5 -4.5 -5 -5 -5 0 0 0 0 -4.5 -4.5 -5.16667 -5.16667 0 0 -5 -4.5 0 -5 -5 0 0 0 -5 0 -4 -4 -4 0 0 0 -5 -4.5 0 -1.33333 -5 0 -5 -5.5 -5.5 -5 -5.66667 0 -6 -6 0 0 0 0 0 -0.857143 -2.375 -2.375 -2.375 -0.857143 -13 -13 0 0 -5.5 -14.3333 0 -18 -17 -16.5 0 0 2.31579 2.31579 -2.5 -2.5 -2.5 -6.75 -20 0 -21.5 -21.5 -22 0 -21 -21.5 0 -22 0 -21 -19.6667 -19.6667 0 0 0 -21.5 -21.5 -21 0 -22 0 0 -20 0 -21 0 0 0 -19.5 -19.5 -19 -18.5 -18.5 0 -18.5 -18.5 0 0 -17 -15.3333 -16 -15.5 -13.8 -13.8 0 -7 0 -6.5 0 -5 -5.33333 -8 0 0 0 0 -7 -7 -7 -7 -5 -7.5 0 -6 -7 -7 0 0 0 0 -8.8 -8.8 -10 -10.2 -10.2 -11 -10.5 0 -12 0 0 0 0 0 -10 -10 0 -10.5 0 0 0 -11 -11 -11 -11 -10 -11.5 -11.5 -12.6667 -12.6667 -11.5 0 0 -11 -10.5 -10.5 -10.5 0 0 0 0 -12 0 -11.3333 -11.3333 -11.5 0 -22.6667 0 -6.5 -6.5 -17.5 0 -11.6667 -11.6667 -11.6667 -4.5 0 0 -12.8333 -8 0 0 -8 0 -6 -25.25 0 4.75 2.1 2.1 1.41818 1.41818 1.41818 0.75 0.75 0 0.75 4.33333 3.1 6.25 4.33333 6.25 3.1 3.1 1.3 0 0 0 0 -12.25 -12.25 -12.25 1.33333 1.33333 2.75 2.75 3.5 0 -6 -6 -0.6 7.14286 7.14286 0 0 0 0 0 0 0 0 0 0 0 0 0 0
0 0 0 0 0 0 0 0 0 0 0 0 -12.5 -12.5 -13.5 -14 -13.5 -13 -13 0 -12 -12 0 0 -13.5 -13 0 -12.5 -12 -12 0 -11.5 -11.5 -12 0 -13 -12.6667 0 -12 0 -11 -11.5 -11.5 0 -12.5 -11 0 -12 -11.5 -11 -11 -10.5 -10.5 -10.5 -11 0 -12 -10 -10 0 -10.5 -10 -11 -10.5 -10.5 -10.5 0 -11 -10 0 -9.75 0 0 -9.5 -9 -9.5 -9.5 -10 -11 -9 -9 -9 0 -9.5 -9 -9.5 -9 0 0 -10.5 -10 -9.5 -10 -9.5 -9 -9 -9 0 -8 -8 -8 0 0 -8 -8 -9 -9 0 -8.5 -8 -8 -8 -7.5 -4.5 -7.5 -8 -7.5 -7.5 0 0 0 0 0 0 0 0 0 0 0 0 0 0 0 0 0 0 0 0 0 0 0 0 0 0 0 0 0 0 0 0 0 -43 -43 -43 -41 -41.5 -41.5 0 0 0 0 0 0 -44 -44.5 -44.5 0 0 0 -45.1667 -45.1667 -44.6667 -45.5 -44.6667 -44.6667 -45.5 -45.5 -45.5 -45.5 0 -44.3333 0 0 0 -44.3333 -44.3333 -45.6667 0 0 0 0 -44.6667 -44 0 -44 -43.3333 -42 -42 -43.3333 -44 -44 0 0 0 -44.5 0 -44 0 -20.6667 -34.8 -37.25 0 -30 -33.5 -33.5 -41.6667 -41.5 -41.5 -40.5 0 0 0 0 0 -38.6667 0 0 0 0 0 0 0 0 0 0 -36 -38 -35 0 -35 -34 -34 -33.5 -34 0 0 0 0 -35 0 0 0 -32 -31.5 -32 -32 0 0 -30 -29.6667 -30 -29 0 -29 -29 -26 -26 -26.5 -26.5 0 -24.5 0 -25 -25 -25 -25 -25 -25 -41.5 -22 -22 -22 0 -21 0 0 0 -26.4167 -22 0 0 0 -24 -24 0 -25 -23.5 0 -21.5 0 0 -25 -25 0 0 0 -26 0 -27.5 -27.5 0 0 0 0 0 0 -29 0 0 0 -28.5 0 -28.5 -28 -27.5 -27.5 -28.5 -28.5 -26.5 0 0 0 -27 0 0 -27 -27 0 -27.5 -27.5 0 -28 -28 0 0 -26 -26 -26 0 -26 -26 -25 -25 -25 -25 -25 0 0 -25 -25 -24.5 -23 -23.5 -23.5 0 0 -23 0 0 -6 0 0 0 0 -6 -5 -5 -5 -4 -6 -5.33333 0 -6 0 0 -4 -4 -4 -5.5 -5.5 0 -6 -5 0 -5 -5 -5 -5.5 -5.5 -5 -5 0 -4 -4.5 -4.5 0 -5 -5 0 0 0 -5 0 -4.5 -4.5 0 0 0 -5 -5 -6 0 0 0 0 0 0 0 -2 -2 -2.375 -8 -13.0714 0 0 0 -17 0 0 0 -17 0 19 0 -0.714286 -7.25 -7.25 -19 -20 -6.75 0 0 -18 -21.5 -21.5 -21 -21 -22.5 -22.5 0 -21 0 -20.5 -19.6667 -20 0 0 -21.5 -21.5 0 0 0 0 0 0 -21 -21 -20 -19 -19 0 -20 0 -19 -19 0 0 -19 -16 -16 0 -15.3333 0 0 -17 -16.5 -15.5 0 0 -7 0 0 -5.33333 -5.33333 -8 -7 0 -7 -8 0 -9 0 0 -6.33333 0 -6.33333 0 -7 0 -9.5 -9.5 -9.5 -9.5 -9.5 0 -10.2 0 -10.2 -10.2 0 0 0 0 0 -9 0 0 -10.5 -10.5 -10 -8 -9 0 -10.5 -10.5 -11 -11 0 -11.5 -11.5 -10 -11.5 -11.5 -11.5 -12 -11.5 -10.5 -10.5 -10.5 0 0 -12 -12 -10 -11 -11.3333 0 0 -11.5 -12.3333 -12.3333 -4.5 -4.5 -4.5 -6 0 0 0 -9 0 0 -9 0 -8 -8 -8 0 0 0 -6.09524 0 -5.26984 4.75 -0.5 2.1 1.41818 1.41818 1.41818 0.75 0.75 5 0.666667 4.71429 4.33333 3.83333 4.33333 3.83333 -6.16667 -6.16667 6.25 1.3 1.3 1.3 -12.25 0 0 4.83333 4.83333 1.33333 2.75 3.5 0 0.5 0.5 -6 -0.6 -0.6 0 0 0 0 0 0 0 0 0 0 0 0 0
0 0 0 0 0 0 0 0 0 0 0 0 0 0 0 0 0 0 -13 0 -13.5 -13 -13.5 -13.5 -13.5 -13 -13 -12.5 -12 -12 -11.5 0 0 -13 -13 0 0 -12 -12 0 -12.5 -12.5 -12.5 0 -12.5 -12 -12 -12 -11.5 -11 0 -11.7 -11.7 -11.7 -16 -11.5 0 -11.5 -11 -11 -10.5 -10 0 -11 -11 -10.5 -10.5 -10.5 0 -11 0 -10 -10 -9.5 -9 -9.5 -9.5 -10 -9.5 0 -10 -9 0 -9.5 -9 -9.66667 -9.5 0 0 -10.5 -10 0 -11 -9.5 -9 0 -9 -8.5 0 -9 -9 0 0 -9.5 -9 0 -9 -9 -8.5 0 -9 -9 0 -7 0 -7.5 -8 -8 -7.5 0 0 0 0 0 0 0 0 0 0 0 0 0 0 0 0 0 0 0 0 0 0 0 0 0 0 0 0 0 0 0 0 0 0 -41 0 0 -42 0 0 0 0 0 -44 -44 -44 -44 0 -44 0 -45 -45 -43 0 0 0 -45 -45 0 0 -44 -44 -44 0 -44.5 -44.3333 -44 0 0 0 0 -45.5 0 -44.6667 -45 -44.5 -43.3333 -43.3333 -43.3333 0 -43.5 -43.5 -44.5 -44.5 -44.5 -45 -44 -30 -44 -43.5 -43 0 0 0 -44.5 -40 0 -41 -41 -40.5 -40 -44.5 0 0 0 0 0 0 -37.5 0 0 0 0 0 -37 -37 -36.8333 -36.8333 -36.5 -36 -36 -36 -34.3333 -34.3333 0 0 0 -35 0 -35 -35 0 -32 -32 -33 0 -32 0 -30 -30 -29 0 0 -29 -29.5 -28 -27 0 -26 -26 -25.5 0 0 -25 -25 0 -25 -21.5 0 0 0 0 -21 0 0 0 0 -19 0 -29 -21.4286 -21.4286 0 11.6667 -21 -21.4286 0 0 -24 -21.5 -26 -21.5 -26 -26 -25 0 -27 0 0 -25 -25 0 -27.5 0 0 0 -28.5 0 0 0 0 0 0 0 0 0 0 -28 0 -27 -27 -28 0 -28 -28 -27.5 -27.5 0 0 -27.5 -27.5 0 0 0 0 -26.5 -26 -26 -26 0 -26 0 -25 -25 -24.5 -24.5 -25.5 -25.5 0 -25 0 -32.5 -32.5 0 -23 0 -20 -19 0 -13.6667 -7 0 -5 -5 0 -6 -5 -4.5 -4.5 -5.75 0 -5.33333 -5.33333 0 0 0 -4 0 0 -4.5 -4 0 -5 -5 0 -5 0 -5 -5 0 -5 0 0 -5 -5 0 0 0 0 0 -5 0 0 -5.5 -4.5 -4.5 0 -6 -6 -5 0 -5.5 -5.5 0 0 0 0 0 0 0 5 0 0 0 0 -23 -15.4429 -21.6667 0 -18 -18 -19.6667 -13.9286 -13.9286 0 -5 -12 0 0 0 -3.83333 -19 0 -19.5 -19.5 -20.1667 -20.1667 0 0 0 0 0 -22.3333 -21 -21 -21 0 0 0 0 -22 0 0 0 -21 0 -22 -21 -20 0 0 -20 -20 0 -19 -19 -18 -17.6667 -19 -17 -15.3333 0 -16 0 0 -15.5 -15.5 -16 -22 0 0 -7 -7 -7 0 0 0 -6.5 -6.5 -6.5 -6.5 -7 -7 -6 -6 -6.5 -6.5 0 -7 0 -7.5 -7.5 0 -9 0 -9.5 0 -10.5 -7 -8 -8 0 0 0 -12 0 -9 -10 -10 0 0 0 0 -11 -10 -9.5 0 0 -11 0 0 0 -11 0 -11 -11 0 0 0 0 0 -11 0 -12 0 -10 0 0 0 -12.8333 0 0 -4.25 -12 -12 -9.5 -9.5 0 0 -14.25 -14.25 -17.5 -9 0 -8 0 0 -12 -12 -1.07143 -1.07143 -1.07143 -1.07143 -5.26984 0 4.75 4.75 0 0 2.5 0 -1 0.75 4.71429 4.71429 4.71429 4.71429 4.33333 3.83333 3.1 3.1 3.1 0 1.3 1.3 1.3 0 0 4.83333 4.83333 1.33333 0 0 0 0 0.5 0.5 0 0 0 0 0 0 0 0 0 0 0 0 0 0
0 0 0 0 0 0 0 0 0 0 0 0 0 -13.5 -13.5 -14 0 -14.5 -14 0 -13.6667 -13 -13.5 -13.5 0 -13 -13 -12.5 0 -13 0 0 0 -12.6667 -13 0 -12.3333 -12 -12 0 -12.5 -12 -12.3333 -12.3333 -12.5 -12 -12 -12 0 -12.5 0 0 -11.7 -11.7 -12 -14.5 0 0 -11 -11 0 -11.5 -11 -10.5 -10.5 -12 -11.5 -10.5 -10.5 0 -10.5 -10 0 -11 -10 -10 -10 -10.5 -10.5 -10.5 -10 -10 -10 0 -9 -10 -9.66667 -10 0 0 -11.5 -10 0 -11 -10.5 0 -10 -10 -9.66667 -9 -9 -9.5 -9.5 0 -9 0 0 -10 -10 0 -9 -9 -9 -8.33333 -8 -8 -7 -7 0 0 0 0 0 0 0 0 0 0 0 0 0 0 0 0 0 0 0 0 0 0 0 0 0 0 0 0 0 0 0 0 0 0 -40.5 -40.5 -40.5 -40.5 0 0 -42.5 0 -43 0 -44 0 0 -43.5 0 -44.5 -44.5 0 0 -43 -45.3333 -44 -44.3 -44.3 -44.3 -44.5 0 0 -44.5 -44.5 -43.5 -44.5 -44 -44.3333 0 -45.5 -45.5 0 0 0 -44.6667 -45 -44 -44.5 -44.5 -43 0 -3 0 -31 -42.5 -42.5 -33 0 0 -44 -28 -43 -37 0 -38 -40.5 -42.6667 -38.5 -40 -40 0 -42.6667 -40.5 0 0 0 0 0 -37.5 -37 -37.5 -36.5 0 0 0 -37 -37 -37 -37 -36.5 -36 0 -36.5 -34.3333 -32.5 -32.5 0 -34 -34 -34.5 -34.5 -34 -32 -30 -31.5 -33 0 -32 0 0 -29.5 0 0 -29.5 -29.5 0 0 0 0 0 -27 0 0 0 -25 0 0 -25 0 -37.5833 -21 0 -21 0 0 -33 -19.6667 -19.6667 -19 0 0 -19.6667 -16 0 0 -21.4286 -13.25 -33.3333 0 0 0 0 0 0 -26 -26 0 0 -23 -27 -23 -24 0 -28 -28 0 -28.5 0 0 -28 -28 -27 0 -27.5 -28 0 -28 -28 -28 -28.5 -28 -26 -28.5 0 0 0 0 -27.5 -27.5 -27.5 -27.5 -28 -27 -27 -27 0 0 -26 0 -26 0 0 0 -21 -25.5 0 0 -26 -26 -25 0 -23.5 0 0 -23 -23 0 -23 -19 -19 -8.5 0 -6 -6 -5 0 0 0 -4 0 -5.75 -5.75 0 0 0 0 0 -4 0 0 -5.16667 -5.16667 0 0 -5 -6 -5 0 -5 -5.5 -5.5 0 0 -5 -5 -5 0 0 -4.5 -4 0 -4 -4.5 -4.5 0 0 0 0 0 -5 0 -5.5 -5.5 0 0 0 0 0 0 0 0 3 0 0 0 0 -23 -15.4429 -15.4429 -21.75 0 -18 -19.6667 -19.6667 -13.9286 -18 -5 -0.666667 -19.5 -19.5 0 -19 -20 -20 -19.5 -19.5 0 -20.1667 -20 0 0 0 0 -22.5 -22.5 -21 0 0 0 0 -21 -20.5 0 0 0 0 -22 -21 -21 0 0 0 -20 0 -20 0 0 0 -17.6667 0 -17.6667 -16 0 0 -16 -15.5 0 -15.5 0 -6.5 0 -7 -7 -6.5 -6.5 -6 0 0 0 -6 0 0 0 -7 -5 0 0 0 -6 -6 -6 -7.5 -7.5 0 -9 -8.5 0 0 0 -7 0 0 0 0 0 0 -10 0 0 -10 -10 -10 0 0 -11 -10.5 0 0 -12 -11 0 0 -12 0 0 0 -11 0 -10 -10 -10 -10.5 0 0 0 0 0 -10 -10 0 0 -10 -14.25 0 -14.25 0 0 0 0 -12 -19 -17.5 -12 0 0 0 -8 0 0 -6.66667 -2 -2 -1.07143 -1.07143 -5.26984 -5.26984 -6.09524 -4.5 0 0 0 2.5 2.5 0 0 0 -6.66667 0.5 0.5 -7 4.33333 3.83333 3.1 3.1 0 0 0 1.3 1.3 1.3 0 0 0 0 0 0 0 0 0 0 0 0 0 0 0 0 0 0 0 0 0 0
0 0 0 0 0 0 0 0 0 0 0 0 0 -13.5 -13.5 -14.5 -14.5 -14.5 -14 -14 0 -14 -14 -14 0 -14.6667 -13.5 -13.5 0 -13 -13 -12.5 -12.6667 -12.6667 -13 -13.5 -13 -13 -12.5 0 -12.5 -12 -12.3333 -13.25 -12.5 0 -13 -13 -13 -12.5 0 -12 0 0 -13.5 -12 -12 -11.5 0 0 0 0 0 0 0 0 -11.5 -11 -11 0 -12 -10 0 -11 -10.5 -10.5 -10.5 -11 -11 -10.6667 0 -11 -10 0 -10.5 -10 -9.66667 -10.6667 -10 -10 0 -11 -11 -11 -10.5 -10 0 -10 -9.33333 -9 -9 -9 -9 -9 0 -10 -10 0 -10.5 -9.5 -9.33333 -9 -9.5 0 -6.33333 -9 -8.5 -8.5 -8.5 0 0 0 0 0 0 0 0 0 0 0 0 0 0 0 0 0 0 0 0 0 0 0 0 0 0 0 0 0 0 0 0 0 0 0 -41 -42 -42 -42 -43.1667 -43.1667 -43 -43 0 -43.5 -43.5 -45 0 -43 0 -44 0 -45 -45 -45 -44.3 -44.3 0 -44.5 -44 -44 -44.5 -44.5 0 0 0 -44.3333 0 0 0 0 0 0 -45 0 -45 0 0 -44.5 0 -45 -44 0 -42.5 -42.5 -33 0 0 0 -45 0 -27 -37.6667 -41.6667 -41.6667 -42.6667 -41.5 -40.5 -40.5 -40.5 -40 -43 -41.7 0 0 0 0 -37 -37.5 -36 -36 0 0 0 0 -35.5 -35.5 0 -36.0833 0 0 -36.5 -36.5 -33.5 -33.5 -34 0 0 -35 -34.5 -34 -33.5 -32 -32 0 0 -32 -31.5 -31 0 0 -30 0 0 -27 0 0 -27 -26 -26 -25.5 -25 0 -26 -25 -24.5 -24.5 -20.5 0 0 0 0 -21 0 -21.5 -21.5 16 -19 -21 -19.6667 -19.6667 0 0 0 0 0 -24 -24 -23.6667 -23.6667 0 0 -32.75 -32.75 -30.1429 -26 -26 -23 0 -23 0 0 0 0 0 0 0 0 -28 -28 0 0 0 0 0 0 0 -28.5 0 -28 0 -28.5 0 -28 0 0 0 0 0 0 0 -27 0 -27 -26.5 -24 -22 -26.5 -32.6667 0 -25 0 -26 -21 -25.5 0 -19 0 -25 0 -23.25 -22.5 -22.5 0 -23.5 -23 0 0 -8.5 0 -7 -5 -6 -6 -5 -5 -6 -4 -3.5 -3.5 0 0 0 0 -4 -4 0 0 -4 0 -5.16667 0 0 0 -5 -6 -5 -5 -5.5 -5.5 -4 -4 0 -5 -4 0 0 -4 0 -4 -4 -4 0 0 -5 -5 -4 0 0 -4.5 -4.5 -5 0 0 0 0 0 0 0 0 0 0 0 0 0 -9.75 -9.75 -13.9286 -10.5 0 0 -13 -8.83333 -9.75 0 0 0 0 0 0 0 0 0 0 -20 -20.5 -20.5 -22 -20 0 0 0 -20.5 -19.6667 -19 -18.5 -18.5 -19.5 -20.5 0 -21 0 0 -22 -21.3333 -21.3333 -21 -21 -20 -20 -20 -20 -20 -20 0 -19 0 -17.3333 0 -20 -16 -16 -16 0 0 0 0 0 -15 0 0 -6 -6 -6.5 -6.5 0 -5 -5 -5 0 -6.5 -6.5 0 -5 0 0 -5 -5 0 0 0 0 0 0 0 0 0 0 0 -10 0 0 0 0 0 0 -10 -10 -12 -11 -9 -9.16667 0 -11 -10.5 0 0 0 0 0 0 0 0 -11 0 0 -13 0 -11 -9.83333 -9.83333 0 0 0 0 0 0 0 0 0 0 -11.5 0 0 -11.5 0 0 0 0 -18.5 0 0 -18 -18 -9 0 0 0 -1.64286 0 -2 -2 -9.66667 -1.07143 -1.07143 -6.09524 -5.26984 0 -6.09524 -4.5 2.5 0 0 0 0 0 1 0.5 0.5 0 3.83333 -3.55556 -3.55556 3.1 6.25 0 0 0 0 0 0 0 0 0 0 0 0 0 0 0 0 0 0 0 0 0 0 0 0 0 0
0 0 0 0 0 0 0 0 0 0 0 0 0 0 0 -15 -15 0 -15.5 -15 -13.5 0 -14.5 -14.5 -15 0 -14 -14 -13.5 0 0 -13 0 0 -14.5 -14 -13.5 -12.5 -13 -12.5 -12.5 -13.25 -13.25 -13.25 -12.5 -12 0 -13 -13 -12.5 -12 -12 0 0 -13 0 -12 -11.5 0 -12 -12 -11.5 -11 -11 -11.5 -11.5 0 -11.5 -11 0 -12 -11.5 -11 -11 -10.5 -10.5 -10.5 0 -12 -10.3333 -10 0 -11 -11 -10.5 -10 -10.6667 -10.6667 -11.5 -11.5 -11.5 -11 -11 0 0 -11 -10 -10 0 -9 -9 -9 0 0 -10.5 0 -10 -10 0 -10.5 -9.33333 -9.33333 -10 -9.5 -8.5 0 0 -9.5 -9.5 -9.5 -9 0 0 0 0 0 0 0 0 0 0 0 0 0 0 0 0 0 0 0 0 0 0 0 0 0 0 0 0 0 0 0 0 0 0 0 0 -42.1 0 -43.1667 0 0 -43 -43.5 -43.5 -43.5 0 -44 -43 -45 0 -44 -44.5 -44 -44 -44 -45 0 -44 -44 0 0 0 0 0 -45 0 -45 -45 -44.5 -44 -44.5 -44.5 -45 -45 0 0 -44 -43.5 -43.5 -44 -31 -27 -27 0 -37.8 0 -31 -31 -42 -43 -37.6667 -43 -41.6667 -43 -41.5 -40.5 -40.5 -40.5 -40 -39 0 0 0 0 -38 0 -37.3333 -36.25 0 0 -36.5 -36.5 0 0 -35.4667 -36 -36.0833 -36.0833 0 -36.5 -35 -34 -34.1667 -33.5 0 0 0 0 0 0 0 -32 -31 -31.5 -31.5 0 0 0 0 -28.5 -28.5 0 -27 -27 -27 -27 0 0 -27 -25 0 0 -25 -24 0 0 -23.5 0 0 -21 -21 0 0 -21.9167 -21.5 -21 0 0 -19 0 0 0 0 0 -38.25 0 -4 -23.6667 0 0 -32.75 -26.5 -26.1667 -30.1429 -30.1429 -30.1429 -30.1429 -34 -27 0 0 0 -35 0 -35.2 0 0 0 -39.5 -39 -39 -27.8333 -27.8333 -27.5 0 0 0 -40.25 -28 -28 0 -28 -28 -28 -28 -28 -27.5 -27.5 0 -33.5 -27 0 -33 0 -26 -28 -26.5 -26 -25 0 -24 -24 0 0 0 0 0 0 -20 -27 -23.25 -23 0 -23 -23 0 -17.0556 0 -7 0 -5 0 -5 0 0 0 -4 0 0 0 -4 -4 -4 -4 -3.5 -3.5 0 0 -4 0 -5 0 0 -5.5 -5.5 0 0 0 0 0 0 0 -3.5 -3 -3.5 -3.5 0 0 0 -4 -4 -4.5 -4.5 0 4 0 0 -3.5 0 -4.5 -4.5 0 -6 -5.5 0 0 5 1.33333 0 0 0 0 0 0 0 -14.5 0 -14.5 0 -5.5 -31 0 -14.5 0 0 -19.5 -19.5 -18 0 0 0 0 0 0 0 0 -18 -20 0 -20.5 0 -19.6667 -19.6667 0 0 0 -19.5 0 0 0 0 -21 -21.3333 -20.5 -21 0 0 -18.75 -18.75 -19 0 0 0 0 -18 -17 0 0 0 0 -16 -16 0 -13.5 -13.5 0 -15 0 0 0 0 -5 -5 -5 -5 -5.5 -5.5 -5.5 -5.5 0 -7 0 0 0 0 0 0 0 0 -6.5 -6.5 0 0 0 0 -9 -9 -10 0 0 0 0 -11 0 -9 0 -8 -10.5 0 0 0 -9.16667 -9.16667 0 0 0 0 0 -11 -11 -10 -10 0 0 -10 0 0 -9.83333 0 -11 0 -12 -12 0 0 -10.3333 0 0 0 0 0 0 -9.33333 -7.8 -10.5 0 -18.5 0 -3 0 -12 0 0 0 0 0 0 -1.64286 -2 -1 3 3 1.83333 1.83333 -2.16667 -2.36667 -2.36667 -6.09524 -4.5 -9.53846 -9.53846 0 0 -6.7 -6.7 -6.7 0 0 -6.66667 -6.66667 0 -3.55556 -3.55556 -3.55556 0 6.25 0 0 0 0 0 0 0 0 0 0 0 0 0 0 0 0 0 0 0 0 0 0 0
0 0 0 0 0 0 0 0 0 0 0 0 0 0 0 -15 0 -14.5 0 -15 -15 0 -14.5 -14.5 -15 -14.3333 -14 0 -13.5 -13 0 -14 -13.5 -13.5 -13.5 -14 -14 -13.5 -12.5 -13 -12.5 -12 0 0 -14 -12 -13 -13 -13 -12.5 -12 0 0 -12.8 -12.8 0 -13 -13 0 -12 -12 -11.5 0 -12 -12.5 -12.5 -11.6667 -12.5 -11.5 0 -12 -11.5 -11 -11 -11.1667 -11.1667 -10.5 -10.5 0 -12 -11.5 -11 -11 -11.5 -11.5 0 -11 -11 -11.5 -11.5 -11.1667 -11 0 -12 0 -11 0 -10 0 0 -10 -10 -10.5 -10.5 -10.5 -10 -10 0 -10 0 -10.5 -10 -10 -10 -11 -8.5 0 -9.5 -9.5 -9.5 -9 0 -10.5 -10 0 0 0 0 0 0 0 0 0 0 0 0 0 0 0 0 0 0 0 0 0 0 0 0 0 0 0 0 0 0 0 0 0 -43.6 -42.1 -42 -41.5 0 0 0 -44 -43.5 0 0 -43 -42.5 -42 0 -45.5 -44 -44.5 0 0 0 -44 -44 -44 -44 0 -44.5 -44 -44 0 -45 -45 -45 -45 0 -44.6667 -44.6667 -45 0 0 0 -43.5 -44.5 -44 -31 0 0 0 0 -43.5 -35 -32 -25 0 -35.5 -41.7 -39.25 -39.25 -41 -39.5 -41.5 -41.5 -43.5 -40.5 0 0 0 0 0 0 -37 0 -35 -35 0 0 -36.6667 0 -35.4667 -37 -36 -35 -35 -34 -34 -34 -34 -34.1667 0 -32.5 -32.5 -32.5 -32.5 -32 -32 -32 0 -31 -30.5 -30 -28 0 -28 -28.5 -28.5 0 -27 0 0 0 0 0 0 0 0 -25 0 -25 -38.8 0 -23.5 0 0 -21.3333 -21.3333 -22 0 -21.9167 -21.9167 -20 -19 -19 0 0 0 0 0 -20.5 -24.5 -24.5 -14.5 0 -23.5 -24.5 0 -17 0 0 -26.1667 -26.1667 -30.1429 -23 -27 -27 -27 0 0 0 -27 -35.2 -35.2 0 -39.5 0 -28 -27.8333 -28.5 -27 0 0 0 -33.6667 -33.6667 -28.5 0 -37 -28 -28 0 0 0 -35 -26.5 -32.8333 -34 0 0 -26 0 -28 -28 -25 0 0 -24 0 -25 -24.5 -25.75 0 -25.5 -25.5 -23 -25 -23 -23.25 -23.25 0 0 0 -24 0 0 -8 -6 -5 -5 -6 -6 0 -5 -4.33333 -5.2 -4 0 0 -3.5 -4 -3.66667 -3.66667 0 -5 -4.5 0 -4 -4.75 -4.75 -4.5 -4.5 0 -5.5 -5.5 -4.5 -4 0 -3.5 -3 -3 -3.5 -3.5 -4 -4 -4 -3.5 -3.5 0 -5 0 -5 -5 0 -4.75 -4.75 -4.75 -5.5 0 0 -6 -8 5 0 0 0 -7.83333 -9 0 0 0 0 0 -13.6667 -8 0 -22.5 -17.5 -17.5 0 0 0 0 0 -18.5 -18 -18 -18.5 0 -19 0 0 -20 -19.5 -19.5 -20 -20 0 0 -20 -19.5 -20 -20 -20 0 0 0 0 0 -21 -20.5 0 0 -20 -18.75 0 -18.75 0 0 0 -18 -18 -17.3333 0 0 0 0 -16 -16 -15 -4 -4 -17 0 -3 0 -3 0 0 0 0 0 0 -6.5 -6.5 -6.5 0 -6 -5 -5.5 -4.5 0 -6 -6 -6 -7.5 -7.5 0 0 0 0 0 0 0 0 0 0 0 -9 -9.5 -9.5 -8.5 -9 -8 -8.5 0 -9.5 -9.5 -9.5 0 0 -10 -10.5 -10.5 -11 0 0 0 0 0 0 0 0 -9 0 -11 -10 -11 -10.5 -10.5 -11 0 0 0 0 -3 0 0 -7.8 -9.33333 -9.33333 0 -10.3333 -9 -4 0 -14.5 0 -17.75 -17.75 0 -20 0 0 0 4.5 -1.75 -1.75 -1 3 1.83333 -2.16667 -2.16667 -2.36667 -4 -4 -4.85714 -4.85714 -9.53846 -7.38889 -9.53846 -9.53846 0 0 -6.66667 0 0 -6.66667 -3.55556 0 0 0 0 -9.66667 0 0 0 0 0 0 0 0 0 0 0 0 0 0 0 0 0 0 0 0 0 0
0 0 0 0 0 0 0 0 0 0 0 0 0 0 0 0 -15.5 -15.5 0 -15 -15 -14.5 0 -15.5 -15.5 -14.5 0 -15 -15 -13 -13 0 -14.5 -14.5 0 0 0 0 0 0 -14 -12 0 0 -14 -13.5 -13 -13 -13 -12.5 -12 0 -13 -12.8 -12.8 -12.8 -13.5 -13 -12.5 0 -12.6667 -12.6667 -12.5 0 -12.5 -12.5 -13 -12.3333 0 -13 -12 -13 -12.5 -12 0 -11.1667 -11.5 -11.5 -12 -12 0 -12.5 -11 -11.5 0 0 0 -11 -11 -11.1667 -11.1667 -11 -11 -12 -12 -11.5 -11 -11 -11 -10.5 0 -10 -11 -11 0 -10.5 -10.5 0 -11 -11 -10.5 0 -10 -10.5 -10.5 -10.5 -10 -10.5 -10.5 0 -10.5 -10 0 -10.5 0 0 0 0 0 0 0 0 0 0 0 0 0 0 0 0 0 0 0 0 0 0 0 0 0 0 0 0 0 0 0 0 0 -43.6 -43.6 -43.6 -42 -42 -42.5 0 -42.5 0 0 -43.5 -44 0 0 0 0 0 -44.5 0 0 -44.8 -44 -44 -44 -44 -43.5 0 -44 0 -44 -43.5 -45 0 0 -44 -44 -44.6667 0 -45 -43.8 0 -44 -43.5 0 -43.5 -26 -42.6667 -42.6667 -42.6667 0 -35 -23.6667 -23.6667 -42 -35.5 -42 -40.5 -43.5 -39.3333 -41.5 -41.5 -40.5 -45 -41.5 0 0 0 0 -37 0 0 0 0 0 -35 0 -36.6667 -35.4667 -37 0 -34.5 -34.5 -35 -34 -34 -34 0 -34 -33.5 -32.6667 -32 -32 -32 0 -32 -32 0 -32 -32.5 -28 0 0 0 -28.5 -28.5 0 -27 -40 0 0 0 -27.5 -27.5 0 -40.6667 -29.6667 -29.6667 -31 -24 -21 -22 -21 0 -21.3333 -22 -22 0 -21.9167 -21.9167 -21.9167 0 -19 0 0 0 0 0 0 -29 -21 0 0 0 -23 0 0 0 -26.5 -26.5 -26.5 0 -34.75 -27 -26 -27.5 0 0 0 -26 -27 -27 -27 -27 0 -28 -28 0 -27 0 -28 0 -28 -27.5 -27 -19.5 0 -28 -27.5 -27.5 -25 -27 -27 0 -27 -27 -27 0 0 -26 -26 -26 -24 -24.5 -24.5 0 0 -25.5 0 -25.75 -25.5 -25.5 -26 -25.25 -24 -25 -21.75 0 0 -5 1 0 0 0 -5 0 -5 -6 -5 -5 0 -5 -3 -3.5 -3.5 0 -5.45 -5.45 -3 0 -3.66667 -4 0 -3.5 -4 -4 0 0 -4.75 0 0 -6 0 -4 -4 0 -4.33333 -3.5 0 0 0 -4 0 -4.5 -4.5 -4.5 0 0 0 0 -5 -4.83333 -4.83333 -6.5 -4.75 -5.5 -5.5 -6 -6 0 0 0 6.5 6.5 0 0 0 0 0 0 0 0 0 -18.5 -17.5 -17 0 0 -18 -18 0 -15.5 -15.5 -18 -18 -19.5 0 -20 -17.5 -17.5 -20 -20 -20 0 0 -20 0 -20.5 0 0 0 -19.5 0 0 0 0 -21 0 0 -20 0 0 0 0 0 -19 -19 -19 0 0 -18 0 0 -16 0 0 0 0 -4 0 -19 -20.5 -8.44444 -8.44444 -9.5 0 0 0 -6 0 -7 -7.5 -7.5 -6 -6 -6 -5.5 0 0 -6 0 0 -6 -6 -6 -6 0 0 -8 -8 -8 -8 -9 0 -9 0 -11 -11 -4.66667 -9 -9 0 0 0 -10 -9 -9 -9 0 -10.5 -10.5 0 -10 -10 -10 -10 -10 0 0 -10.5 -10.5 -9.5 -9.5 0 0 0 0 0 0 -11 -3 0 -4 -17.75 0 0 -9.5 -9.5 -10.3333 0 -10.3333 -9 -8 -21 -9 0 0 -20 -11 0 -12.5 -12.5 -11 0 4.5 0 -6.37778 -4.8 3 -1.15152 0 -2.16667 -2.36667 -4 0 0 -4.5 -9.53846 0 -9.53846 0 0 0 0 0 -6.7 -6.66667 -6.66667 -6.66667 -7 0 0 -3.55556 0 0 0 0 0 0 0 0 0 0 0 0 0 0 0 0 0 0 0 0 0
0 0 0 0 0 0 0 0 0 0 0 0 0 0 0 0 -16 -16 -15.5 -15 -15 -14.5 -14 0 0 -16 -14 0 -15 -14.5 -13.5 -13.5 -14.5 -14.5 -14.5 0 -15 -13.5 -13 0 -14 -13.5 0 0 -14 -13.5 -13 -13 -13 -12.5 -13.5 -13 -13 0 0 -14 0 -13.5 -17 -13.5 0 -12.6667 0 -12 0 0 0 -14 -12 0 -13 -13 -12 -12 -12 0 -13 -13 -13 -12 -11.8333 -12.5 -12.5 -12 -11.5 0 -12.5 -11.5 -12 0 0 -11 -12.25 -12.8 0 -12 -11 -11 -12 -10.5 0 -11 -11.5 -11.5 -11 0 -10.5 -10.5 0 -11.5 -11.5 -11.6 -10.5 -11.5 -11.5 -10.5 -10 -11 -11 -11.5 -10.5 -11 -11 -11 -11 -12 0 0 0 0 0 0 0 0 0 0 0 0 0 0 0 0 0 0 0 0 0 0 0 0 0 0 0 0 0 0 0 -43.6 -42.3 -42.3 0 -41 -42.6667 -42.5 -44 0 -43.5 -44 -44.5 -43.2 -43.2 -43.2 -43.6667 -43 -44.5 0 0 -44.25 -44 -44 0 0 0 0 -44 -44 -43.5 0 0 -43.6667 -44 -44 -44.5 -44.5 -43.5 0 -43.5 -43.5 0 0 -44.4 -43.5 -31 -41.5 -41.5 0 0 0 -43 -23.6667 0 -29.5 -29.5 -33.5 -37.5 0 -41.5 -41.5 0 -40 -40 0 0 0 0 0 -37 -37 0 0 0 0 0 0 0 -37 0 -34 -34.5 -34.5 -35 0 0 0 -33 -32.6667 -32.6667 0 -32 -32 0 0 0 0 -32 -32.3333 -28 -28 0 0 0 0 -27 -27 -27 -27 -27 -26 0 -30.5 -24 -24 -24.5 -24.5 -29 -24 0 0 0 -22.3333 -22.3333 0 0 0 -21.5 -21.5 0 -22 -18 0 0 0 0 0 -7.5 -13 -18 -20 -25 0 0 -23.25 -22.5 0 -20.75 -26.5 -20.75 0 -31.55 -27 -31.75 -31.75 0 0 0 -26.5 -26.5 0 -28 -28 0 0 -28 -27 -27 0 -28 -28 -30 -29 -27 0 -29 -29 -28.6667 -28.6667 -28 0 -27.5 -27.5 0 -27 0 -27 -27 0 0 -26.8333 -24.5 -25 0 -24 -24 0 -24.5 -25.75 -25.75 0 -26 -25.25 0 0 -24 0 0 -5 0 -23 0 -5 -5 -4.5 -4.5 -5 -5 0 -4.5 0 -3 -5.2 -3 -3 -3.5 -5.45 -4.33333 0 -4.33333 0 0 -4.66667 -4 -4 -3.5 -5 -5 -5 0 -5.5 -5.5 -6 -5 -4.66667 -2.66667 -2.66667 -3.5 -4 0 -5 -5.5 -5.5 -5 -5 -4.5 -4.5 -4 0 -5 -5 0 -5 -5 -5 -6 -6 0 0 -7 0 0 0 0 0 0 -23 -14.5 0 0 0 0 0 -7.16667 0 -17 0 0 -18.5 -16 -26 0 0 0 -18.5 -18.5 0 -19.5 -20.5 -20.1667 -20.1667 -20.1667 -20.1667 0 0 -19.5 0 0 0 -19.5 -17.5 -17.5 -17.5 -20.75 -20.75 0 -19 -19 0 -20 -19 0 0 -19 0 -19 0 0 0 0 -17 -16 -16 0 0 0 -4 0 0 -13 -4.8 -10.25 -10 -10 -5 -10 0 0 0 0 -7.5 -4.83333 -4.83333 0 -5.5 -1 -11 0 0 0 -13.8333 -13.8333 0 -7 -6 0 0 -8 -8 -8 0 0 0 -9 -7.5 -7.5 0 0 -10 -9 -8.5 -8.5 0 -9.5 -8.5 -8.5 -8.5 0 0 -11 -11 -10 -11 -11 -10.5 -10.5 0 0 0 -9 -9.5 -9.5 -9.33333 0 -11 -11.5 0 0 10 5 1.5 1.5 -17.75 -13 0 0 0 -9.5 -9.5 -12.5 0 -12 -14.125 -14.125 -14.125 0 -9 -16.3333 -10 -16.3333 -10 0 0 0 0 0 0 0 0 -1.15152 -6.16667 -1.15152 -6.16667 -2.36667 -5.26984 -13.75 -9.66667 -5.26984 -6.09524 0 0 -9.53846 -9.53846 -9.53846 -6.7 -6.7 -6.7 -6.7 0 -3 0 0 0 0 0 0 0 0 0 0 0 0 0 0 0 0 0 0 0 0 0 0 0
0 0 0 0 0 0 0 0 0 0 0 0 0 0 0 0 0 -16 -15.5 0 -16 -16 -14 0 0 -16 -15.5 -14 0 0 0 -14 0 -14 -14 -14 0 0 -13.5 0 -14.5 -13.5 -13 0 0 -14 -14 -13 0 -14 -13.5 -14.1667 0 0 0 -14.7 -14.7 -14 -17 -13.5 -13 0 -13 0 -12.5 -12.5 0 -14.5 -13.5 0 0 -14 -12.5 -12 0 -13 -13 -13 -12.3333 0 -11.8333 -11.8333 -12.5 -12.5 -12 -12 -12 -12 -11.5 -12 -12 0 -12.25 -12.8 -12.8 -12.8 -12 -12 -12 -12.5 -12 -11 -12 -11.5 -11.5 -11.5 0 -12 -11.75 -11.5 -11.5 -11.6 -11 -10.5 -11.5 -11.5 -10 -8.33333 -11 -11 -11.5 0 0 0 0 0 0 0 0 0 0 0 0 0 0 0 0 0 0 0 0 0 0 0 0 0 0 0 0 0 0 0 0 0 0 0 0 0 -24 0 -41.6667 0 -42.6667 0 0 0 0 -44.1667 -44.1667 -44.5 -44.1667 -44.1667 -44 -43.6667 0 -44.25 -44.25 -44.25 -44 -44 -44 -44 0 -44.6667 0 -45.5 -45.5 -44 -43.6667 -43.6667 -43.3333 -43.3333 -44 -42.5 -44.6667 -44 -44 -43.5 -43.5 -43.5 -43.1667 -43.1667 -31 -31 0 0 0 -43 0 0 -34.5 -38.5 -38.5 -41.5 -33.5 -41 -39 -41.8333 -41.8333 0 -38 0 0 0 0 0 0 -37.5 -37.5 -36.4 0 0 0 -36 -35.5 -36.6667 -35.5 -34 0 0 0 -34 -34 0 -33 0 0 0 -31.8333 -31.5 -31.5 -32 -31 0 0 -32.3333 -32.3333 -29 -29 -28 -39 -27.3333 -34 -27 0 0 -30.5 0 -30.5 -27.5 -24 -24 -24.5 -24.5 0 -24 0 -23.6667 0 -20 -22 -22 -22.3333 -22.6667 -22.6667 -21.5 0 0 -18 0 -19 0 -15 0 -9.5 -9.5 0 0 -25 -26 -23.25 -23.25 -23 0 0 0 -13.25 0 -33.1333 -24 -26.5 -27 0 0 0 0 0 0 -28 -28 -28 -27 0 0 0 -28 0 -28 -27.5 -27 -27 -27 -27 -27 -27 -27 -27 0 -28 -28 -27 0 0 -25.5 -25.5 0 0 -26.8333 -26.8333 -25 -25 -20.5 -25 0 -25.5 -25.3333 0 0 0 0 -25.5 0 -18 0 0 -5.25 0 0 -4.4 -4.4 -4 -6 -6 -5.6 -5.6 -5.2 0 -4.5 -4.5 -4.07143 -5.2 -4.4 -4.4 -4.4 -4 -4.33333 -5 0 -5 -4 -2.66667 -2.66667 0 0 0 -5 0 -5.5 -5.5 -5.66667 -2 0 -4.5 -2.66667 -4.5 -4.5 -3.5 -3.5 -3.5 -3.5 0 -5 -5 -4 0 0 0 0 -4 0 0 -6 0 0 -4.5 0 0 0 0 0 0 0 0 0 0 0 0 0 0 0 -17 0 -15.5 0 -13 0 0 0 0 0 0 0 -18 -18.5 0 0 0 -20.6667 -20.6667 -20.1667 -20.1667 -20.5 -19 -19.5 -19.5 0 -20 -20 -19.6667 -20.75 0 -20.75 -19 0 -21 -19 0 0 -19 0 -20 -19 0 0 0 0 0 -17 0 -16.5 -16.5 0 -12.5 0 0 -3 0 -4.8 -4.8 -4.8 0 -7 -7 -6 -6 -8.33333 -6.5 -6.5 -6.5 -6.5 0 -6 -8.75 -4.5 -4.5 0 0 0 0 -10.5 -10.5 0 -7.5 0 0 -15.4 -8 -8 -9 -9 0 0 -7 0 0 -10 0 -8 -10 -9 -9 -8.33333 0 -9 0 -9 -11 -11 -11 -11 -11 0 0 -11 0 -8.5 -8.5 0 0 -9.33333 -9.33333 0 0 -11.5 -9.5 0 0 -8 0 -6 -9.66667 -5.16667 -7.16667 -7.16667 -7.1 -5.16667 0 0 -13 -3.71429 -8 -8 -8 -9.33333 -11.2 -5.5 -5.5 0 -11.2 -5.42857 0 -6.66667 -7 -11.25 -5.42857 -15 0 0 0 0 -6.16667 -6.16667 -6.16667 -2.16667 -5.26984 -6.09524 -5.26984 -4.85714 -7.38889 -9.53846 -9.53846 -6.7 -6.39286 -6.39286 -6.39286 0 0 0 0 0 0 0 0 0 0 0 0 0 0 0 0 0 0 0 0 0 0 0 0 0
