0 0 0 0 0 0 0 0 0 0 0 0 0 0 0 0 0 0 0 0 0 0 0 0 0 0 0 0 0 0 0 0 0 0 0 0 0 0 0 0 0 0 0 0 0 0 0 0 0 0 0 0 0 0 0 0 0 0 0 0 0 0 0 0 0 0 0 0 0 0 0 0 0 0 0 0 0 0 0 0 0 0 0 0 0 0 0 0 0 0 -104.5 0 -105 -104 -103.5 -103 -103 0 0 0 0 0 0 -103 -103 -102.5 0 -100.5 0 -101 -101 -101 -101 -101 -101.5 -101.5 -100.5 -101.5 0 -101 -100.5 -100 0 0 -99 0 -100 -99.5 -99 0 -100 -99.5 0 0 0 0 -98 -98 -97.5 -97 0 -98 -97.5 -97.5 -97.5 0 0 0 0 0 0 0 -96 -96 -95 0 -95.5 -95 -95 0 -95 0 0 -93.5 -93 0 0 0 0 0 0 -93.5 0 0 0 0 0 0 -91.5 -91 -91 0 0 -91 -91 0 -91.5 -91 -91 -91 0 -90 -90 -89.5 -89 -89 0 -89.5 0 0 0 0 0 0 0 0 -88 0 0 0 0 0 0 0 0 0 -86.5 -86 -86 -85.5 -85 0 -86 -85.5 -85 0 -86 0 -85.5 -85 -83.5 -83.3333 0 0 0 0 -83 -83 -82.5 -82 -83 -83 -82.5 -82 -82 0 -83 -82.5 -81.3333 -81.3333 0 -81 -80 0 0 0 0 0 0 -80 -79 -78.5 -78.3333 -78.3333 -79 -78.5 -78 -78 0 -79 -78.5 -78 0 -77.5 -77 -77 -77 -76.5 0 -76 0 -75 0 -76 -75.5 -74 0 -75 -75 -74.5 0 -74.5 0 -74.5 -73 -73 0 -73.5 -73 -73 -73 0 -72 -72 0 -72.5 -72 -72 -72 0 -72.5 -72 -71.5 0 -70 -70 -70 -69.5 0 -70 -68.5 0 -69 -69 -69 -68.5 -68 -68 -68 -67.5 -67 0 -68 -68 0 0 -67 -67 -66.5 0 -67 -66 -65.5 0 0 -66 -66 -65.5 -65 0 -65 -64.5 0 -65 -65 -63.5 0 -64 -64 -64 -63.5 -63 -63.5 -63.5 -62.5 -62 -62 0 -63 -61 0 -61 -60.5 -60.5 -61 -60.5 -60.5 -59 -60 -60 -60 -58 -58 0 -59 0 0 0 0 -58 0 -57 -57 -57 -56.5 0 -57 -57 -55.5 0 -56 0 0 0 -55.5 -55 -55 0 -56 -54 -54 -54 -54.5 -54.5 -53 -53 0 -54 -52 -52 0 -53 -51.5 0 -52 -52 -52 -51.5 -51.3333 -51.3333 -51 -51 0 -50 -50 -50 -49.6667 0 -49 -49 0 -50 -49.3 -49.3 -49.3 -49.5 -49 -49 -47.6667 -48.3333 0 -48 -47.5 0 -48 -48 0 0 -47.5 -46.5 -46.5 -47.3333 -47.3333 -46.5 -46 -45.5 -45.5 0 0 -45.3333 -45.3333 -45 -43.8333 -43.8333 0 -43.5 -43.5 0 -43 0 -43.5 -43.5 -43 -43 0 -42.3333 -42.3333 -42 0 -41.5 -41 0 0 -41.5 -41.5 -40.5 0 -39.5 -39.5 -40 0 -39.5 -39.5 -40 0 -40 -39.1667 -39.1667 0 0 -39 -39 -38.6667 0 -37.3333 0 -38 -36.5 -37.1667 -37 0 -37 0 -37 -36.5 -36 -36 -36 -36.5 -36.5 -34 -35 0 -34.6667 -34.6667 -35.3333 -34.3333 -34.3333 -34.3333 -34.6667 -34 -34 0 -34 -34 -33 -33.5 -33.5 -33 0 0 -32 -34 -32 0 -31 -31 -31 0 -31 0 -30.2 -30.2 -29.6667 -29.6667 -32 -31 -30.5 -30.5 0 -29.5 -29.5 0 -29 -31 -28.6667 -28.8333 0 -28 0 -29 -28 -27 -27 -27 0 -27.25 -27.25 -27.25 -27.5 -27.5 0 -26 -28.5 -26 -26 0 -26 -28 0 -25 -25.3333 -25.3333 -25 0 -24 -24 -23.5 -23.5 -26 -25 -24 -23.5 -23.5 -23.5 0 0 0 -22.5 -22.5 -23 0 -24 -22.5 -21.75 -21.25 -21.25 -21.25 -22 0 -21.6667 -21.5 -21.5 -21.5 -21 0 -22 0 -22 -22 -19 -19 0 -19.6667 -19.6667 0 0 -20 0 -19 -19 -18 -18.6667 -18.6667 -18 -18 -17.6667 -17.6667 0 0 0 -19.5 0 -19 -18 -17 -17 -16.6667 -16.6667 -19 -17.5 -16 -18 -15.8 -15.8 -16.5 -16.5 -16 -15 -17 0 -14 -16 0 -16 -16 -14 0 0 -14 -14.5 -15 -13.5 -13.5 -14 -13.5 -13.5 -14 -13 -15 -14 -13 -13 0 0 0 -12 0 -13 -13 -11 -11 0 -11 -11 -10.5 -10.5 -10.5 -11 0 -11 -11 -11.5 -11.5 -11 -10 -9 -9.5 -9.5 -11 -11 -11 -11 -10.5 -8 0 0 -8 -8 0 -8 0 0 0 -9 -9 -8.33333 -10 0 -7 -6 -6.33333 -6.33333 -7 0 0 -8 -8 0 -7.5 -7.5 0 0 0 0 -7.33333 -6.2 -6.2 -6.2 0 -5 0 0 0 -5 -4 -5 -5 -5 -5 -5 -4 -4.66667 -5 -4 -4.5 -4.5 0 -5 -5 -5 -4 0 -2.5 0 0 -2 0 -1 0 0 0 -2.33333 0 -1.5 -1.5 -2 -1 -1.8 -1.8 -1.66667 -1.66667 -2.4 -2.4 0 -2 0 0 0 0 0 0 0 0 0 -0.333333 -0.333333 0.333333 0.333333 0 0.5 0.5 -0.5 0.333333 0.333333 0 0.5 0.5 0 1 0.25 1.5 1.5 0.5 0.5 2 0 0 2 0 2 2 2 0 2 0 2.5 2.5 0 3 0 0 2.5 2.5 2 3 0 3.5 3.5 3 3 3 3 4 4 0 0 4 0 0 0 3 4.5 4.5 5.5 5.5 0 6 0 0 0 5 0 0 5 6.33333 6.33333 0 6.5 6.5 5.66667 6.33333 6.33333 6 7 7 0 7.16667 7.16667 0 7 0 0 7 0 8 5.66667 5.66667 0 5.5 6 0 0 0 0 0 0 0 0 0 0 0 0 0 0 0 0 0 0 0 0 0 0 0 0 0 0 0 0 0 0 0 0 0 0 0 0 0 0 0 0 0 0 0 0 0 0 0 0 0 0 0 0 0 0 0 0 0 0 0 0 0 0 0 0 0 0 0 0 0 0 0 0 0 0 0 0 0 0 0 0 0 0 0 0
0 0 0 0 0 0 0 0 0 0 0 0 0 0 0 0 0 0 0 0 0 0 0 0 0 0 0 0 0 0 0 0 0 0 0 0 0 0 0 0 0 0 0 0 0 0 0 0 0 0 0 0 0 0 0 0 0 0 0 0 0 0 0 0 0 0 0 0 0 0 0 0 0 0 0 0 0 0 0 0 0 0 0 0 0 0 0 0 0 -104.5 -104.5 0 -105.5 -106.5 -103.833 -103.5 -103 0 -103.5 -103 -103 -102.5 -118 -103 -103 -102.5 -102 -102 -102 -101.5 -101 -101 -100.833 -100.833 -101.5 -101.5 -102 -101.5 0 -102 -100.5 -100 -100 -99.5 -99 0 -100 -99.5 -99 0 -100 0 0 0 0 -98.5 -98 -98 -97.5 -97 0 -98 -97.5 -97.5 -97.5 -98.3333 -96.6667 -96.6667 -95.5 -95 0 -96.3333 0 0 0 0 0 0 0 0 -95.25 0 0 -95 -93 0 -94 -94 -94 -93 0 -93.5 -93 -93.5 -93.5 -92.5 0 0 0 0 0 0 0 0 0 0 0 -91 -91 -91 -90.5 0 0 -89.5 -89 -89 0 -89.5 -89 -89 0 -89.5 -89 -89 -89 0 0 0 0 0 -88 -87 -87 -86 -86 0 -86.5 -86 -86 -85.5 -85 0 -86 -85.5 -85 0 -86 -86 -85.5 -85 -83.5 -83.3333 -83.3333 -83.5 -83.5 0 0 -83 -82.5 0 -83 -83 -82.5 -82 -82 0 -83 -82.6667 -81.5 -81.5 0 0 0 0 0 0 0 0 0 -80 -80 -80 -79.5 -79 -79.5 -79.5 -78 -78 0 -79 -78.5 0 0 0 0 0 0 0 0 0 0 0 0 0 0 -74 0 -75 -75 -74.5 0 0 -75 -74.5 -73 0 0 0 0 0 0 0 0 0 0 -72.5 -72 0 0 0 0 0 0 0 0 -70 -70 -69.5 0 -70 0 0 0 0 0 0 -68 0 -68 -67.5 -67 0 -68 -68 0 0 0 0 -66.5 0 -67 -67 -65.8333 0 -66 -66 0 0 -65 0 -65 -64.5 0 -65 -65 -65 0 0 -64 -64 -63.5 0 -63.5 -63.5 0 0 0 0 0 0 0 0 0 0 -60.5 -60.5 -60.5 -59 -60 -60 -60 -58 0 -59 -59 -59 0 -58 -58 -58 0 -58.6667 0 0 -56.5 0 -57 -57 -55.5 0 -56 -56 -56 0 -55.5 -55 -55 0 -56 -54 -54 0 -54.5 -54.5 -53 -53 0 -54 -52 -52 0 -53 -53 0 0 -52 -52 -51.5 -51.3333 -51.3333 -51.3333 -51 -50.5 -50 -50 -50 0 -51 -49.5 -49.5 -50 0 -51 -50 -50 -50 -49.5 -49.5 -48 -50.5 -49 0 -47.5 0 -48 -48 0 0 -49 -46.5 -46.5 -47.5 -47.5 -46.5 -46 -45.5 -45.5 -45 -45 -45.5 -45.5 -45 -44 -44 0 0 0 0 0 -43.5 0 -44 -43.5 -43.5 -44 -42.5 -42.5 -42 0 0 0 0 0 -41.5 -41.5 -40.5 0 0 -40 0 0 0 -40 -40 0 -40 -40 -39.1667 0 -39.5 -39 -39 -39 0 -37.5 -37.5 -38 -37 -37 -37 0 -37 0 -36 -36 -36 -36 -36 0 -36 -34 -35 -35 0 -34.6667 -35.3333 -35.3333 -34.3333 -34.3333 0 0 0 0 0 0 -33 -33 0 0 0 0 0 0 -32 0 -31 -31 0 0 -31 0 -30.2 -30.2 -30.2 -29.6667 -32 -31 -30.5 -30.5 0 -29.5 -29.5 0 0 0 0 0 0 -28 0 -29 -28 -27 -27 -27 0 -28.5 -28.5 -27.25 -27.5 -27.5 0 -26 -28.5 -26 -26 0 -26 -28 0 0 0 -26 -25 0 -26 -25 -25 0 0 0 -24 -23.5 -23.5 -23.5 0 -23 0 -22.5 -22.5 -23 0 -23 -22.5 -21.75 -21.75 -21.75 -21.25 -22 -22 -22 -22 -22 0 0 0 -22 0 -22 -22 -19 -19 0 0 -19.6667 -21 0 0 -22 -19 -19 -18 -20 -18.6667 -18 -18 -19 -17.6667 0 0 0 0 0 0 0 -17 -17 0 -16.6667 -19 -17.5 -16 0 -15.8 -15.8 -15.8 0 -16 -15 -17 0 -16.5 -16 0 -16 -16 -14 -14 0 -14.5 0 0 0 0 0 -13.5 -13.5 0 -13 -15 -14 -13 -13 0 0 0 -12 0 -13 -13 -11 -11 0 -11 -11 -10.5 -10.5 -10.5 -11 0 -11 0 0 0 0 -10 -10.5 -10.5 0 0 0 0 0 -10.5 -8 0 0 -8 0 0 -8 -8.5 -8.5 0 -9 -9 -8.33333 -8.33333 -9 -7 -7 -6.33333 0 0 0 0 -8 -8 0 -7.5 -7.5 -6 0 0 0 -7.33333 -7.33333 -6.2 -6.2 0 -5 0 0 0 -5 -4 -5 -5 -5 -5 -5 -4.66667 -4.66667 0 0 0 0 0 0 0 0 -4 0 -2.5 0 0 -2 0 -1 0 0 0 -2.33333 -2.33333 -1.5 -1.5 -2 -1 -1.8 -1.8 -1.8 -1.66667 -2.4 -2.4 0 0 0 0 0 0 0 0 0 0 0 -0.333333 -2 0 0.333333 0 0.5 0.5 0 -0.5 0.333333 0 0.5 0.5 0 1 0.25 0.25 0.25 0.5 0.5 0 0 0 0 0 0 0 0 0 0 0 0 0 0 0 0 0 2.5 2.5 2 3 0 3.5 3.5 3 3 3 3 4 4 0 4 0 0 0 0 0 0 0 0 0 0 0 0 0 0 5 4.5 4.5 0 5 6.33333 0 6.5 6.5 5.66667 5.66667 6.33333 6 7 7 0 7.16667 7.16667 0 7 0 0 0 0 0 0 0 0 0 6 0 0 0 0 0 0 0 0 0 0 0 0 0 0 0 0 0 0 0 0 0 0 0 0 0 0 0 0 0 0 0 0 0 0 0 0 0 0 0 0 0 0 0 0 0 0 0 0 0 0 0 0 0 0 0 0 0 0 0 0 0 0 0 0 0 0 0 0 0 0 0 0 0 0 0 0 0 0 0 0 0 0 0 0
0 0 0 0 0 0 0 0 0 0 0 0 0 0 0 0 0 0 0 0 0 0 0 0 0 0 0 0 0 0 0 0 0 0 0 0 0 0 0 0 0 0 0 0 0 0 0 0 0 0 0 0 0 0 0 0 0 0 0 0 0 0 0 0 0 0 0 0 0 0 0 0 0 0 0 0 0 0 0 0 0 0 0 0 0 0 0 0 0 -104.5 0 0 0 -106.5 -103.833 -103.833 -103.5 0 -103.5 -103 -103 -102.5 -118 -103 -103 -102.5 -102 -102 -102 -101.5 -101 -101 -101 -101 0 -102 -102 -101.5 0 -102 -102 -100 -100 -99.5 -99 0 -100 -99.5 -99 0 -100 -99.5 -99 0 -99 -98.5 -98 -98 -97.5 -97 0 -98 -97.5 -97.5 -97.5 -98.3333 -98.3333 -96.6667 -97 -95 0 -96.3333 -96.3333 -96.5 -95 0 -96 -95.5 -95.5 -95.5 0 -94 0 -95 -93.3333 0 0 -94 -94 -93 0 0 -94.6667 -94 -94 -93 -93 0 -91.5 -91 -91 0 -91.8333 -91 -91 0 -91.5 -91 -91 -91 -90.5 0 0 -89.5 -89 -89 0 -89.5 -89 -89 0 -90 -89.5 -89 -89 -88.5 -88 0 -89 -88.5 -88 -87.1667 -87.1667 -86 -86.3333 0 -86.5 -86 -86 -86 -85 0 -86 -86 -85.5 0 -86 -86 -85.5 -85 -85 -84.5 -84 -83.6667 -83.6667 0 0 0 0 0 0 0 -82.5 -82 0 -83 -83 -82.3333 -82 -82 0 0 -81 -81 0 -80 -80 -79.5 0 -80 0 0 0 0 0 0 -78 -78 0 -79 -78.5 -78 -78 0 -77 -77.5 -77.5 0 -77.5 -77 0 -75.5 0 -76 -76 0 0 0 0 0 0 -75 0 0 0 -73 0 -73.5 -73 -73 -73 0 0 -72.5 -72.5 -72.5 -72 -72 -72 0 -72.5 -72 -72 -72 0 0 0 0 0 -70 -69.5 -69.5 -69.3333 -69 -69 -68.5 -68 0 -68 -67.5 -67 0 -68 -68 -67.5 0 0 0 -66.5 0 -67 -67 -65.8333 -65.8333 -66 -66 -66 -65.5 -65 0 -66 -64.5 0 -65 -65 -65 0 0 -64 -64 -63.5 0 0 -63.5 0 0 0 0 0 0 0 -62 -62 -61.5 0 -62 -61.5 -61.5 0 -61 -61 -59.5 0 -59 -59 0 0 0 0 0 0 0 0 0 -56.5 0 -57 -57 -57 0 -56.5 -56 -56 0 -55.5 -55 -55 0 -56 -54 -54 0 -55 -55 0 0 0 0 0 0 0 0 -53 0 0 -52 -52 -52 -51.5 -51.5 -51.5 -51 0 -50.5 -50.5 -51.5 -51.5 0 -52 -50 0 0 0 0 0 -50 -49.5 -49.5 -48 -50.5 0 -49 -47.5 0 -48 -48 0 0 -49 0 0 0 0 0 0 0 0 0 0 0 0 0 0 0 0 -43.5 -43.5 0 0 -43.5 0 -44 -43.5 -43.5 -44 -42.5 -42.5 0 0 0 0 0 0 0 0 0 0 0 0 0 0 0 0 0 0 -40 -40 -39.5 -39.5 -39.5 0 0 0 0 -37.5 -37.5 0 0 0 0 0 0 0 0 0 0 0 -36 0 0 0 0 -35 -35 -35 -35 -36 -34.5 -34.5 0 0 0 0 0 0 0 0 0 0 0 0 0 -33 -32 0 -30.5 0 -31 0 -31 -32 -32 -32 -31.5 -30 -32 0 0 0 0 0 0 0 0 0 0 0 0 0 0 0 0 0 0 0 0 0 0 -28 0 0 0 0 0 0 0 0 0 0 0 0 0 0 0 0 0 0 0 0 0 0 0 0 0 0 0 0 0 0 0 0 0 0 0 0 0 0 -22 -24 -22 0 0 0 0 0 0 0 0 0 0 0 0 0 0 0 0 0 0 0 0 0 0 0 0 0 0 0 0 0 0 0 0 0 0 0 0 0 0 0 0 0 0 0 0 0 0 -16 -16 0 0 0 0 0 0 0 0 0 0 0 0 0 0 0 0 0 0 0 0 0 0 0 0 0 0 0 0 0 0 0 0 0 0 0 -11 -11 0 0 0 0 0 0 0 0 0 0 0 0 0 0 0 0 0 0 0 0 0 0 0 0 0 0 0 0 0 0 0 0 0 0 0 0 0 0 0 0 0 0 0 0 0 0 0 0 0 0 0 0 0 0 0 0 0 0 0 0 0 0 0 0 0 0 0 0 0 0 0 0 0 0 0 0 0 0 0 0 0 0 0 0 0 0 0 0 0 0 0 0 0 0 0 0 0 0 -3 0 0 0 0 0 0 0 0 0 0 0 0 0 0 0 0 0 0 0 -1 -0.5 -0.5 0 0 0 0 0 0 0 0 0 0 0 0 0 0 0 0 0 0 0 0 2.5 2.5 0 2 2 2 2.5 2.5 2 3 2.5 2.5 3.5 0 0 2.5 2.5 4.16667 4.16667 0 4 0 0 0 0 0 4.5 4.5 0 5 0 6 0 0 0 5 4.5 4.5 0 5 6 6 6.5 6.5 5.5 5.5 6 6 6.5 6.5 6 7.16667 6.83333 0 0 0 0 7 0 0 0 0 0 0 6 0 0 0 0 0 0 0 0 0 0 0 0 0 0 0 0 0 0 0 0 0 0 0 0 0 0 0 0 0 0 0 0 0 0 0 0 0 0 0 0 0 0 0 0 0 0 0 0 0 0 0 0 0 0 0 0 0 0 0 0 0 0 0 0 0 0 0 0 0 0 0 0 0 0 0 0 0 0 0 0 0 0 0 0
0 0 0 0 0 0 0 0 0 0 0 0 0 0 0 0 0 0 0 0 0 0 0 0 0 0 0 0 0 0 0 0 0 0 0 0 0 0 0 0 0 0 0 0 0 0 0 0 0 0 0 0 0 0 0 0 0 0 0 0 0 0 0 0 0 0 0 0 0 0 0 0 0 0 0 0 0 0 0 0 0 0 0 0 0 0 0 0 0 -104.5 -104.5 0 -105.5 -104 -104 -104 -104 0 -103.5 -103 -103 -102.5 -103.5 -103 -103 -103 0 -103.133 0 -102 -101 -101.333 -100.833 -101.5 0 -102 -102 -101.5 0 -102 -102 -100 -100 -99.5 0 -100 -100 -99.5 -99 0 -100.333 0 -99.5 -99.5 -99 -98.5 -98 -98 0 -97 0 -98.3333 -97.5 -97.5 -97.5 -98.6667 -98.6667 -97 -97 0 0 0 -97 -96.5 -95.3333 0 0 0 -95.5 -95.5 0 -95.8 0 -95 -93.3333 -93.3333 0 -95 -94.5 -93.5 0 0 -95 -94.5 -94 -93.1667 -93.1667 -93 0 0 -91 0 -91.8333 -91.8333 -91 0 0 -91 -91 -91 -90.5 0 0 0 -89 -89 0 -89.5 -89 -89 0 -90 -89.5 -89 -89 -88.5 -88 0 -89 -88.5 -88 0 -87.1667 -86 -86.3333 -86.3333 -86.5 -86 -86 -85.5 -85 0 -86 -85.5 -85 0 -86 -86 -85.5 -85 -85 0 -84 -84 -83.6667 0 0 -83 -82.5 0 -83 -83 -83 -82.5 0 -83 -83 -82.5 -82 -82 0 0 -81 -81 -80.5 -80 -80 -79.5 0 -80 -80 -80 -79.5 -79 -79.5 -79.5 -78 -78 0 -79 -78.5 -78 -78 0 -78.5 -77.6667 -77.6667 0 -77.5 -77 -77 -77 -76.5 -76 -76 -74 0 -75 -75 -74.5 -74 -75 -75 -74.5 -74 -73.5 0 -73.5 -73 -73 0 -74 -73.5 0 -73 -73 -72.5 -72.5 -72.5 0 -72.5 -72 -72 -72 0 -71 -71 -71 -71 -70 -69.6667 -69.6667 -69.5 -69 -69 -68.5 -68 0 -68.5 -68.5 -67 0 -68 -68 -67.5 0 -68 -67 -66.5 0 -67 -67 -66 -66 -66 -66 -66 0 -65 0 -66 -64.5 0 -65 -65 -65 -64.5 0 -64 -64 -63.5 -63 -63.5 -64 -64 -62 0 -63 -63 -62.5 0 0 -62 -61.5 0 -62 0 0 0 -61 -61 -61 -60.5 0 -60 -60 -60 0 -59 -58 0 0 -58.5 -58.5 0 0 -57.5 -57.5 0 0 0 0 0 0 0 0 -55 0 -56 -54 -54 0 -55 -55 -53.5 -53.5 0 0 0 0 0 -53.5 -53.5 0 0 0 0 0 0 0 0 0 0 0 -52.5 -51.5 0 0 -52 -50 -50 0 -51 -51 -50.5 0 0 0 0 0 -49 0 0 0 0 0 0 0 0 0 0 0 -48 -46.5 0 -47 -46 -46 -45.5 -45.5 -45.5 -45 -44.5 -44.5 0 0 0 0 0 -43.5 0 0 0 0 0 -42.5 -42.5 -42 0 0 0 0 0 -42 -42 -40.5 0 0 -42 -41 0 -42 0 0 0 0 0 0 -39.5 0 0 0 0 0 -37.5 -37.5 -38 0 -38 0 0 -37.5 -37.5 -38 -36.6667 -36 -36 -36 -35.5 -35.5 0 0 0 0 0 0 0 0 0 0 0 0 0 0 0 -33 -35 -34 -34 0 0 -32.5 -32.5 -32 0 -31 -31 -31 0 -32 -32 -32 -33 0 0 0 0 -31 0 0 -31 -31 0 0 -30 -29 0 -29.5 -28 0 -29 -28 -28 -27.5 -28 -28 -28 -28 -28 0 -28 0 0 0 0 0 0 0 0 0 -25 -25.5 -25.5 -25 -26 -26 -26 -25.5 -24 -26 -25 0 -26 -24 -23.5 0 -23 -23 -22 -24 -23 0 -23.75 0 0 0 0 0 0 0 -22 -22.5 -22.5 -21 0 0 -22 0 0 -22 -19 -19.5 -19.5 -20 -20 -20 0 -21.5 -21.5 -21 0 0 0 0 0 0 0 0 0 0 0 -18 -17.5 -17.5 -18 -17 -17 0 -17 -19 -17.5 -16.5 -16.5 -15.5 -15.5 0 -16 -18 -16.5 -16.5 0 0 0 0 0 0 0 0 0 0 0 0 -13.3333 -13.3333 -14.5 -14.5 -14 0 -14 -14 -13 -13 -12.5 -12.5 -15 0 -12 -14 0 -14 0 0 0 0 0 0 0 0 0 0 0 0 0 0 -10 -10 -10.5 -10.5 -10.5 -10.5 -10 -12 0 0 -8.5 -8.5 0 -8 0 0 0 0 0 0 0 -9.66667 -8.66667 -8.66667 0 0 0 0 0 0 0 0 -8 -8 -6.5 -6.5 0 -6 0 0 -6.5 -6.5 0 -6.5 -6.5 0 -5 0 -6 0 0 0 -5.5 -5.5 0 0 0 0 0 0 0 0 0 0 0 0 0 -4 0 -3 -3 0 -2 0 0 0 -3 -3 -2.5 -2.5 -3 -2 -2.5 -2.5 -2 0 0 0 0 0 0 0 0 -0.666667 0 -0.5 -0.5 0 -0.5 -0.5 0 0 0 -1 0 -1 -1 -1 -1 -1 -0.5 -0.5 -1 0 0 0 0 0 0 0 0 2 0 0 2 0 2 2 2 0 0 0 0 0 0 2 2 2 2.5 2.5 2 3 2.5 2.5 3.5 0 0 2.5 2.5 0 0 0 0 0 0 4.2 4.2 0 0 4 0 5 0 5 5 5 0 5 4.5 4.5 0 5 6 5 5 5 5.5 5.5 0 0 0 6.5 0 6.83333 6.83333 0 7 0 0 7 0 0 6.5 6.5 4 5.5 0 0 0 0 0 0 0 0 0 0 0 0 0 0 0 0 0 0 0 0 0 0 0 0 0 0 0 0 0 0 0 0 0 0 0 0 0 0 0 0 0 0 0 0 0 0 0 0 0 0 0 0 0 0 0 0 0 0 0 0 0 0 0 0 0 0 0 0 0 0 0 0 0 0 0 0 0 0 0 0 0 0 0 0 0
0 0 0 0 0 0 0 0 0 0 0 0 0 0 0 0 0 0 0 0 0 0 0 0 0 0 0 0 0 0 0 0 0 0 0 0 0 0 0 0 0 0 0 0 0 0 0 0 0 0 0 0 0 0 0 0 0 0 0 0 0 0 0 0 0 0 0 0 0 0 0 0 0 0 0 0 0 0 0 0 0 0 0 0 0 0 0 0 0 -104.5 -104.5 0 -105.5 -105 -104 -104 -104 -104 -103.5 -103 -103 -102.5 -103.5 -103 -103 -103 -103 -103.133 -103.133 -103 -102 -101.333 -101.333 -101.5 0 -102 -102 -101.5 0 -102 -102 -101.5 -100 -99.5 0 -100 -100 -99.5 -99 0 -100.333 -100.333 -99.5 -99.5 0 -98.5 -98 -98.3333 -98.3333 -97 0 -98.3333 -98.3333 -97.5 -97.5 0 -98.6667 -98.5 -97 -96.5 0 0 -97 -96.5 -95.3333 -95.3333 0 -97 -95.6667 -95.6667 0 -96 0 -95 -93.5 -93.5 0 -95 -94.5 -94 -93.5 0 -95 -94.5 -94 -94 -93.1667 -93 -91.5 -91 -91.5 -91.5 -92 -92 -91 0 0 -91.25 -91 -91 -91 -91 -91.3333 -91.3333 -90.5 -89 0 -89.5 -89 -89 0 -90 -89.5 -89 -89 -88.5 -88 0 -89 -88.5 -88 0 -89 -86.6667 -86.6667 0 -87 -86.5 -86 -85.8333 -86 0 -86 -86 -85.5 0 -86 -86 -85.5 -85 -85 0 -85.5 -84 -84 0 0 -83 -82.5 0 -83 -83 -82.5 -82 0 -83 -83 -82.5 -82 -82 0 -83 -82.5 -81 0 -81.5 -81 -79.5 0 -80 -80 -80 -79.5 -79 -79.5 0 -78 -78 0 -79 -78.5 -78 -78 0 -78.5 -78 -77.6667 0 0 -77.5 -77.5 -77 0 -77.5 -76 -75.5 0 0 0 -74.5 -74 -75 -75 -74.5 -74 -73.5 0 -73.5 -73 -73 0 -74 -73.5 -73 -73 0 -74 -72.5 -72.5 0 -72.5 -72 -72 -72 0 0 -71 -71 0 -71 -70 -69.6667 -69.5 -69 -69 -68.5 -68 0 -69 -69 -67 0 -68 -68 0 0 -68 -67 0 0 -67 -67 -66 -66 -66 -66 -66 -65.5 -65 0 -66 -66 0 0 -65 -65 -64.5 0 -64 -64 -63.5 -63 0 -64 -64 -62 0 -63 -63 -62.5 -62 0 -62 -61.5 0 -62 -61.5 -61.5 0 -61 -61 -61 -61 0 -60 -60 -60 0 -60.5 -60 -59.3333 -59.3333 -59.5 -58.5 -58.5 -59 0 -57.5 -57.5 -57 -56.5 -56 -56 0 -57 -55 -55 0 -56 -54.3333 -54.5 -54.5 0 -55.5 -55.1667 -55.1667 -55 -55 -55 -54.5 -54 0 -53.5 -53.5 -53.5 0 -53 -53 -53 -52.5 -52.5 -52.5 -52 0 -52.5 -52 -52 0 0 -50 0 -51 -51 -51 -50.5 0 -50 -50 -50 -49.5 -49 -49 -49 0 -48.5 -48 -48 0 -49 -47 -47 0 -48 -46.5 -46 0 -46 -46 -45.6667 -45.8333 0 -45 0 0 0 0 -44 0 -45 -43.5 0 -44 -43.5 -43.5 -44 -42.5 -42.5 -42 -42 -43 -41.5 0 0 -42 0 -41.5 -41.5 -41.5 -42 -41 -42 -42 -40 -40 0 -40.5 -40.5 -39.5 0 -40 -40 -38.5 -38.5 0 0 -38 0 0 -38 0 -38.5 -37.6667 -37.6667 -38 -37 0 -36 0 0 -36 0 0 0 -36 -35.5 -35.5 0 -35 -35 0 0 -35 0 -34 -34 -33 -35 0 0 0 0 -32.5 -32.5 -32 0 -32 -31.5 -31.8 -31.8 -32 -32 -32 -33 -32 -34 -31 -31 0 -31 0 0 0 0 0 0 0 0 0 -28 0 -29 -28 -28.3333 -28.6667 -28.6667 -28.8333 -28.8333 -28 -28 0 -28 0 0 0 0 0 0 -26.5 -26.5 -26.5 -25 0 0 0 0 0 0 -25.5 -24.5 -25.5 -25 0 -26 -24 -23.5 0 -23 -23 0 -24 -23 0 -23.75 -23.75 -23.75 0 0 -22 0 -23 -22 0 0 0 0 0 0 0 0 -21 -19.5 -20.2 -20.2 -20.2 -20.3333 -22 0 -20 -22 -21 -19.5 -22 0 -19 0 0 0 0 0 0 0 -18 0 0 0 0 -17.5 -17.5 -17 -19 -17.5 -16.75 -16.75 -16.75 -16.6667 -16.6667 -16 -18 -16.6667 -16.6667 0 0 -16 0 -16 -16 0 0 0 0 -15 -15 -13.3333 0 0 0 0 0 0 0 0 0 0 0 0 0 -12.3333 0 0 -14 -11.5 -11.5 0 0 0 0 0 0 0 0 0 0 0 0 0 0 0 0 0 0 0 0 0 0 0 0 0 -8 0 0 0 0 -11 0 -9.66667 -9.66667 -10 -8.66667 -9 -7 -7.5 -7.5 0 0 0 -8.75 0 0 0 0 0 0 0 0 0 0 0 -6.5 -6.5 0 -5 0 -6 -4.66667 -4.66667 -5 -5 -5 -6 -5.5 -5.5 -6 -5 -5 0 0 -5.16667 0 0 -5.5 -5.5 0 0 0 0 0 0 0 0 0 0 0 -2.5 -2.5 -3 -2 -2.5 -2.5 -2.5 -2.5 -3 -2.5 -2.5 -3 -1.5 -1.5 -0.666667 -0.666667 0 0 0 0 0 0 0 0 0 0 0 0 0 0 0 0 0 0 0 0 0 0 0 0 -1 0 0 1.5 1.5 0 2 0 0 1.33333 1.33333 0 2 0 0 2 0 0 0 0 0 0 0 0 0 0 3.5 0 0 2.5 2.5 2 3.5 0 4 4 0 0 4.2 0 4.5 4 0 5 0 5 5 5 0 5 0 4.33333 5 0 0 0 0 0 0 0 0 0 0 0 0 0 7 0 7 6.33333 0 7 0 0 0 6 4 0 0 0 0 0 0 0 0 0 0 0 0 0 0 0 0 0 0 0 0 0 0 0 0 0 0 0 0 0 0 0 0 0 0 0 0 0 0 0 0 0 0 0 0 0 0 0 0 0 0 0 0 0 0 0 0 0 0 0 0 0 0 0 0 0 0 0 0 0 0 0 0 0 0 0 0 0 0 0 0 0 0 0 0 0 0
0 0 0 0 0 0 0 0 0 0 0 0 0 0 0 0 0 0 0 0 0 0 0 0 0 0 0 0 0 0 0 0 0 0 0 0 0 0 0 0 0 0 0 0 0 0 0 0 0 0 0 0 0 0 0 0 0 0 0 0 0 0 0 0 0 0 0 0 0 0 0 0 0 0 0 0 0 0 0 0 0 0 0 0 0 0 0 0 0 -104.5 -104.5 -105 -105 -105 0 0 -105 -104 0 -103 -103 0 -103.5 -103 -103 -103.333 0 0 0 0 -102.5 -101.5 -101.5 -101.5 0 -102 -102 -101.5 0 -102 -102 -101.5 -100 -99.6667 0 -100 -100 0 0 0 -100.333 0 0 0 0 0 -98 -98.3333 -99 -97 0 0 -99 -98.5 -98 0 -99 -98.5 -98 -96.5 -96 -97 -97 -96.6667 0 0 0 0 0 -95.6667 0 -96 0 -96 -94.5 -94 0 -95 -94.5 -94 -94 0 -95 -94.25 -94 -94 -93.5 -93.5 -93.5 0 -91.5 -91.5 -92 -92 -91 0 0 -91.25 -91 -91 -91 -91 -91.3333 -91.6667 -90.5 -90 0 -89.5 -89 -89 0 -90 -89.5 -89 -89 -88.5 -88 0 -89 -88.5 -88 0 -89 -89 -86.6667 0 -88 -87 -86.5 -85.8333 -85.8333 0 0 -86 -85.5 0 -86 -86 -85.5 -85 -85 0 -85.5 -85 -84 -83.5 0 -84 -82.5 0 -83 -83 -83 -82.5 0 -83 -83 -82.5 -82 -82 0 -83 -82.5 -81 0 -81.5 -81 -81 0 -80 -80 -80 -79.5 -79 0 -79.5 -78.3333 -78 0 -79 -78.5 -78 -78 0 -79 -78.5 -78 -78 -77.5 -77.5 -77.5 -77 0 -77.5 -77 -75.5 -75 0 -75 -74.5 0 -75 -75 -75 -74.5 -74.6667 -74.6667 -73.8333 -73.5 0 0 -74 -73.5 -73 -73 0 -74 -72.5 -72.5 0 -72.5 -72 -72 -72 -71.5 -71.5 -71 -71 0 -71.5 -71 -71 0 -69 -69.3333 -68.5 -68 0 -69 -69 -67 0 -68 -68 -67.5 0 -68 -68 -66.8333 -66.8333 -67 -67 -67 -66.5 -66 -66 -66 -65.5 -65 0 -66 -66 0 0 -65 -65 -64.5 0 -64 -64 -63.5 -63 0 -64 -64 -63.5 -62.5 0 -63 -62.5 -62 0 -63 -61.5 0 -62 -62 -62 -61.5 -61 -61 -61 -61 0 -60 -60 -60 0 -60.5 -60 -59.3333 -59.5 -59.5 -59 -59 -59 0 -58 -58 -57.5 0 -57.5 -57 -57 0 -58 -56 -56 0 -57 0 -54.5 -54.5 0 -55.5 -55.1667 -55 -55 -55 -54.5 -54.5 0 -54 -54 -53.5 0 -53 -53 -53 -52.5 -52.6667 -52.6667 -52 0 -52.5 -52 -51.5 0 0 -51.5 -50 0 -51 0 -50.5 0 -50 -50 -50 -49.5 -49 -49 -49 0 0 -48 0 0 0 -47.5 -47 0 0 -46.5 0 0 -46 0 -46 -45.5 -45.8333 -45 0 0 -46 -45.5 -44 0 -45 -43.3333 0 0 0 0 0 0 0 0 0 0 -41 0 0 0 0 -43 -41.5 -42.5 -42 -41 -42 -42 -40 -40 0 -40.5 -40.5 -39.5 0 -39.8333 -40.5 0 0 0 0 0 0 0 0 0 0 0 -37.6667 -38 -37 -36.5 -36 0 0 0 0 0 0 -36 -38.5 -36 -36 -35 -35 0 0 -35 0 0 0 0 0 0 0 -34 0 -34.5 -33 -32 0 -33 -31.5 -31.8 -31.8 -31.8 -32 -33 -33 -32.5 -32.5 -31 -31 -31 0 0 0 0 0 0 -30 0 0 0 -28 0 -29 -28 -28.3333 -28.3333 -28.6667 -28.8333 -29.5 -28 -28.5 -28.5 -28 0 -27.5 -26.6667 0 0 -28 -26.5 -26.5 0 0 0 0 -25.5 -25.5 0 0 -25.5 -25.5 -24.5 -25 0 -25 -24 -23.5 0 -23 -23 0 -23 0 0 -23.5 -23.5 -26 -24.5 -23 0 0 0 0 0 0 0 0 0 -21 0 0 -21 -20 -20 -20.2 -20.2 -20.3333 -20.3333 0 -20 -22 -21 -19.5 -22 0 -19 -19.5 -19.5 -19.5 -19.5 -19 -20.6667 0 0 0 0 0 0 -17.5 -17.5 -17 -19 -17.5 -16.75 -18.5 -18.5 -18 -16.6667 -16 -18 -17 -16.6667 0 0 -16 0 -16 -16 -14.8 -14.8 -14.8 0 0 0 0 0 0 0 0 0 0 0 0 0 0 0 0 0 -12.3333 -12.3333 0 -14 -11.5 -11.5 0 -11 -11.8 -11.8 0 -12 -14 -12.5 -11 -13 -10.3333 -10.3333 0 0 0 0 0 0 0 0 0 0 0 0 0 -8 0 0 -8.5 -8.5 -11 0 -9.66667 -9.66667 -10 -9 -9 -7 -7.8 -7.8 -7.66667 -7.66667 -8.75 -8.75 0 0 0 0 0 0 0 0 0 0 0 -6.5 -6.5 0 -5 0 -6 0 -4.66667 -5 -5 -5 -6 -5.5 -5.5 -6 -5 -5 0 -5.16667 -5.16667 -5.16667 0 0 -6 -4 0 -2.5 0 0 0 0 0 0 0 0 -2.5 -2.5 -3 -2 -2.5 -2.5 -2.5 -2.5 -3 -2.5 -2.5 -3 0 0 -0.5 -0.5 0 0 0 0 0 -1 0 -0.5 -0.5 -1 0 -1 -1 -1 -2 -1 -0.5 -0.5 -1 0 0 0 0 0 -1 0 0 1.5 1.5 0 1 0 1 2 1.33333 0 2 0 0 2 0 0 0 1 1 2 2 3 2.5 2.5 3 3 0 0 0 2 0 0 4.5 4.5 0 0 4.2 0 0 4.5 0 5 0 0 0 4 0 5 4.33333 4.33333 5 0 6 5 5 5 5 5 0 0 6.5 6.5 0 0 6.5 0 6.33333 6.33333 0 6.6 0 0 0 6 4 5.5 5.5 0 0 0 0 0 0 0 0 0 0 0 0 0 0 0 0 0 0 0 0 0 0 0 0 0 0 0 0 0 0 0 0 0 0 0 0 0 0 0 0 0 0 0 0 0 0 0 0 0 0 0 0 0 0 0 0 0 0 0 0 0 0 0 0 0 0 0 0 0 0 0 0 0 0 0 0 0 0 0 0 0 0 0 0
0 0 0 0 0 0 0 0 0 0 0 0 0 0 0 0 0 0 0 0 0 0 0 0 0 0 0 0 0 0 0 0 0 0 0 0 0 0 0 0 0 0 0 0 0 0 0 0 0 0 0 0 0 0 0 0 0 0 0 0 0 0 0 0 0 0 0 0 0 0 0 0 0 0 0 0 0 0 0 0 0 0 0 0 0 0 0 0 0 -104.5 0 0 0 -105 0 0 0 0 0 -103 -103 0 -103.5 -103 -103 -103.333 -103.333 -103.5 -103.5 0 0 -102 0 0 0 0 -102 -101.5 0 -102 -102 -101.5 -101 -99.6667 0 -100 -100 -99.5 -99 0 -100.333 -100.333 -100 -100 -100 -100 -98 0 0 0 0 0 -99 -98.5 -98 0 -99 -98.5 -98 -98 0 -97 -97 -97 -96.5 -96 0 -97 -96.5 -96 0 -96 0 -96 -94.5 -94 0 -95 -94.5 -94 -94 0 -95 -94.5 -94 -94 0 -93.5 -93.5 -94 -92 -92 0 -92.5 -91 0 0 -92 -91.6667 -91.6667 -91 -91 -91.6667 -91.6667 -90.5 -90 -90 -89.5 -89 -89 0 -90 -89.5 -89 -89 -88.5 0 -89 -89 -88.5 -88 0 -89 -89 -88.5 0 -88 0 -87 -87 -86.5 -86.5 -86.5 -86 -85.5 0 -86 -86 -85.5 -85 0 -86 -85.5 -85 -85 0 -84.5 -84 0 0 0 0 0 0 0 0 -83 0 -82 -82 0 -83 -82.5 -81.5 0 -81.5 -81.3333 -81 -81 -80.3333 -80 -80 0 0 0 0 0 0 0 0 0 -78 -78 0 -79 -78.5 -78 -78 0 -77.5 -77.5 -77 0 -77.5 -77 -77 -76.5 0 0 0 0 -75 -75 -75 -74.5 0 -74.6667 -73.8333 -73.8333 -73.5 0 -74 -73.5 -73 -73 0 -74 -72 -73 0 -72.5 -72 -72 -72 -71.5 -71 -71.5 -71 0 -71.5 -71 -71 -71 0 -69.3333 -69.3333 -68 0 -69 -69 -67 0 -68 -68 -67.5 0 -68 0 -66.8333 0 -67 -67 -67 -66.5 -66 0 -66 -65.5 -65 0 -66 -66 0 0 -65 -65 -64.5 0 -64 -64 -63.5 -63 0 -64 -64 -63.5 -62.5 0 -63 -62.5 -62 0 -63 -61.5 0 -62 -62 -62 -61.5 -61 -61 -61 -61 -60.5 -60 -60 -60 0 -60.5 -60 -59.5 -60 -59.5 -59 -59 -59 0 -58 -58 -58 -57.5 0 -57 -57 0 -58 -56 -56 0 -57 -57 -55 0 -56 -56 -55.5 -55 -55 -55 -55 -54.5 0 -55 -54 -53.5 0 -54 -53 -53 -52.5 0 -52.6667 -53 0 -52.5 -52 -52 0 -52 -51.5 0 0 -52 -50 -50 0 -50 -50 -50 -49.5 -49 -49 -49 0 0 -48 -48 0 -49 -47.5 -47 0 -48 -47 -46.5 0 -46.6667 -46.6667 -46 -46 -46 -45 0 0 -45 -45 -44 0 -44.6667 -43.3333 0 -44 -43.3333 -43.3333 -44 -42.5 -42.5 -42.5 -42.5 -43.3333 0 -43.1667 -43.1667 0 0 -43 -42 -42 -42 -41.5 -41.5 0 -40.5 -40 0 -40.5 -40.5 -39.5 -39.8333 -39.8333 -39.8333 -38.5 -38.5 0 0 -38 -38.6667 -38.6667 -38.5 -38.5 -38.5 -37.5 -37.5 -38 -37.5 -37.5 -36 -36.8 -36.8 -36.6667 -36.6667 -36 -36 -36 0 -36 -36 -34.8333 0 0 0 -35 0 -34 -34 -33.5 -35 -34.5 -34.5 -34 0 -34.5 -33 -32 0 -32.6667 -31.8333 0 0 -32.6667 -32.5 -32.5 -33 -32.5 -32 -31 -31 -31 0 0 0 -31.5 0 -30 -30 -29 0 -29.6667 -28 -28 -29.3333 -28.6667 -28.6667 -29 -29 -29.1667 -29.1667 -28 -28.5 -28.5 -28 0 -26.6667 -26.6667 0 0 -28 -26.5 -26.5 -27 0 -25.6 0 0 -26.3333 0 -27 -25.6667 -25.3333 -25 -25 0 -25 -24 -24 0 -23 -23 0 -23.75 -23 0 -23.5 -23.5 -26 -24.5 -23 0 0 0 0 0 -23 -21 -23.5 0 -21 0 0 -21.5 -21.5 -20.5 -20.6667 -20.6667 -20.5 -20.5 0 -20 0 -21 -19.5 -22 0 0 -19.5 -19.5 -19.5 -19.5 -20.6667 -20.6667 0 0 0 -17.6 -18 -17 0 -18 -17 -19 -18 -17 -17 -17 -18 -17 -16 -18 -17 -17 0 0 -16 0 -16 -16 -14.8 -14.8 0 0 0 0 0 0 -14.6 -15 -14.3333 -16 -13.6667 -13.6667 -14.5 -14.5 -14 0 -14.6667 -12.75 -12.5 -12.5 -12 -14 -14 -12 0 0 -11.8 -11.8 -11.8 -12 -14 -12.5 -11 -13 -10.3333 -12 0 0 -11.25 -11.6667 -11.6667 -11 -10 -12 -10 -10 0 -9 0 -8.66667 -8.66667 0 0 -9 -11 -10 -9.33333 -9.66667 -10 -9 -9 -7 -7.8 -7.8 -7.8 -7.66667 0 -8.75 0 -8.5 -6.66667 -6.66667 0 -6 -6 0 0 -8 0 -6.5 -6.5 -6.5 0 -7 -6 -5 -5.75 -5.25 -5.25 -5.25 -6 -5.5 -5.5 -6 -5 -5 0 0 -5.16667 -5.16667 0 0 -6 -4 0 -3.5 -3.5 0 -2 0 0 -4 -3 -3.33333 -3.5 -3.5 -3 -2 -2.8 -2.8 -2.66667 -2.66667 -3 -2.5 -2.5 -3 -1.33333 -2 0 -2 0 0 -1.33333 -1.33333 0 -1 0 -0.5 -0.5 -1 -0.5 -0.5 -1.5 -1.5 -1 -1 -0.5 -0.5 -1 0 -0.333333 -0.2 -0.2 -0.2 -1 0 1 1.33333 1.33333 0 1 1 1 2 1.33333 0 2 0 0 2 0 0 1.5 1.5 1 2 2 3 2.5 2.5 3.16667 3.16667 0 2.5 2.5 2 3.5 0 4 4 0 0 4.2 0 0 4 0 4.5 4.5 0 0 4 0 5 4.5 4.5 4.5 4.5 5.5 5.5 4.5 4.5 5 5 5.5 5.5 5.5 5.75 0 0 6.5 0 6.33333 6.33333 0 6.6 6.6 0 0 6 4 5.5 5.5 5.5 0 0 0 0 0 0 0 0 0 0 0 0 0 0 0 0 0 0 0 0 0 0 0 0 0 0 0 0 0 0 0 0 0 0 0 0 0 0 0 0 0 0 0 0 0 0 0 0 0 0 0 0 0 0 0 0 0 0 0 0 0 0 0 0 0 0 0 0 0 0 0 0 0 0 0 0 0 0 0 0 0 0 0
0 0 0 0 0 0 0 0 0 0 0 0 0 0 0 0 0 0 0 0 0 0 0 0 0 0 0 0 0 0 0 0 0 0 0 0 0 0 0 0 0 0 0 0 0 0 0 0 0 0 0 0 0 0 0 0 0 0 0 0 0 0 0 0 0 0 0 0 0 0 0 0 0 0 0 0 0 0 0 0 0 0 0 0 0 0 0 0 0 0 -104.5 -104.5 0 0 -105 0 -105 0 -105 -104.5 -103 0 -104 -103.5 0 0 0 0 -104 0 0 0 0 0 0 0 0 0 0 -102 -102 -101.5 -101 -101 0 -100 -100 -99.5 -99 0 -100 0 0 0 0 0 -99.3333 0 0 0 -98.5 -98.5 -99 -98.5 -98 0 -99 -98.5 -98 -98 0 -97 0 0 0 -96 0 0 0 0 0 -96 0 0 0 -94 0 -95 -94.5 -94 -94 0 -95 -94.5 -94 0 0 -94.5 0 0 -93.5 0 0 0 0 0 0 -93 -92 -91.6667 -92 0 0 -92 -90.5 -90 0 -89.5 0 0 0 0 0 0 0 0 0 -89 -89 -88.5 -88 0 -89 -89 -88.5 -88 -88 -87.5 -87 -87 -86.5 -86.5 -86.5 0 0 0 0 0 0 0 0 0 0 -85 -85 -85 -84.5 -84 -84 0 0 -83.5 -83.5 -82.5 0 -83 -83 0 0 -82 0 -83 0 0 -81.5 -81.5 -81.3333 -81.3333 -81 0 -80 -80 -79.5 -79 0 -80 -80 -78 0 -79 -78.5 -78 -78 0 -79 0 0 -78 0 -77.5 -77.5 -77 0 -77.5 -77 -77 -76.5 -76 -75 -74.5 0 -75 -75 -75 -74.5 0 -75 -75 -74.5 -74 0 -74 -73.5 -73 -73 0 -74 -73.5 -73 -73 -72.5 -72 -72 -72 0 -72.5 -72 -71 0 0 -71 -71 -71 0 -70 -70.3333 -69 0 -69 -69 0 0 0 -68 -67.5 0 -68 -68 -67 -67 -67 -67 -67 -66.5 0 -67 -67 -65.5 -65 0 -66 -66 0 0 0 -65 -64.5 0 -65 -64 -63.5 -63 0 -64 -64 -63.5 -63 -63 -63 -62.5 -62 0 -63 -61.5 0 -62 -62 -62 -61.5 -61 -61 0 0 0 0 -60 -60 -59.5 0 -60 -60 -60 -59.5 -59 -59 -59 0 -58.5 -58 -58 -58 0 -57.3333 -57 0 -58 0 0 0 0 0 0 0 -56 -56 -55.5 -55 -55 -56 -55 -54.5 0 -55 -55 -53.5 0 -54 -53.5 -53.5 0 0 0 0 0 -52.5 0 0 0 0 0 0 0 -52 -50 -50 0 -50 -50 -50 -49.5 -49 -49 -49 0 0 0 0 0 0 0 0 0 0 -47 -46.5 0 0 -46.6667 -46 -46 -46 -46 0 0 -45 -45 -44 -44.6667 -44.6667 -43.5 0 -44 -43.3333 -43.6667 -44 0 0 0 0 -43.3333 -43.3333 -44 -43.1667 0 0 -43 -42 -42 -42 -41.5 -41.5 0 -40.5 -40 0 -40.5 -40.5 -39.5 -39.8333 -39.8333 0 -40.5 0 0 0 -38 0 -38.6667 -38.5 -38.5 -38.5 -37.5 -37.5 0 -37.5 -37.5 -36 -36.8 -36.8 -36.8 -36.6667 -36 -36 -36 0 -36 -36 -34.8333 -34.8333 0 0 -35 0 -36 -34.5 0 -33.5 -34.5 -34.5 -34 0 -34.5 -34 -32 -32.6667 -32.6667 -31.8333 -31.8333 -32.6667 -32.6667 -32.5 -32.5 -33 -33 -32.5 -31 -31 -31 -31 0 0 0 0 0 -30 -29 0 -29.6667 -28 -28 -29.3333 -29.3333 -28.6667 -29 -29 0 -29.1667 -28 -28.5 -28.5 -28 0 -26.5 -26.5 0 0 -28 -26.5 -26.5 -27 -25.6 -25.6 0 0 -26.3333 -26.3333 -27 -25.6667 -25.3333 -25 -25 0 -25 -24 -24 0 -23 -23 0 -23.75 0 0 0 -24 -26 -24.5 -23 -22 -24 -23 -22 -24 -23 -21 -23.5 0 -21 0 0 -21.5 -21.5 -20.5 0 -20.6667 -20.5 -20.5 0 -20.5 -20.5 -20 -19.5 0 -20 -19 -20 -20 -20 -20 -20.5 -20.5 -18.5 -18 -17.6 -17.6 -18 -17 0 -18 -17 -19 -18 -17 -17 -17 -18 -17 -16 -18 -17 -17 0 0 -15 -17.5 -16 -16 -14.6667 -14.6667 -17 0 -15 -15 0 -14.6 -14.6 -15 -14.3333 -14.3333 -15 -13.6667 -14.5 -14.5 -14 -14.6667 -14.6667 -12.75 -14.5 0 -12 -14 -14 -12 -12 0 0 0 0 -12 -14 -12.5 -11 -13 -12 0 -10 -12 -11.25 -11.25 -11.6667 -11 0 -12 -10 -10 0 -9 -9 -9 -8.66667 0 0 -9 -11 -10 -9.33333 -9.33333 -10 -9 -9 -8 -8 -8.5 -8.5 -8 -7 -9 0 -8.5 -8.5 -6.66667 0 -6 -6 0 0 -8 0 -6.5 -6.5 0 -5 -4 -6 -5 -5.75 -5.75 -5.75 -5.25 -6 -5.5 -5.5 -6 -5 -5.5 -5.5 -4 0 0 0 0 -6 -4 0 -3.5 -3.5 0 -2 0 0 -4 -3 -3.33333 -3.33333 -3 -3 -2 -2.8 -2.8 -2.8 -2.66667 -3 -2.5 -2.5 -3 -1.33333 -1.33333 0 -1 0 0 -1.33333 0 0 -1 0 -0.5 -0.5 -1 -0.5 -0.5 -1 0 -1 -1 -0.5 -0.5 -1 0 -0.333333 -0.333333 -0.2 -0.2 -1 0 -0.5 -0.5 1.33333 0 1 1 1 1.33333 1.33333 0 0 0 0 0 0 0 0 0 0 0 0 0 0 0 0 0 0 2.5 2.5 2 3.5 0 0 4 4 0 3.5 3.5 0 4 0 4.4 4.4 0 0 0 0 5 4.33333 4.33333 4.5 4.5 5.5 5.5 4.66667 0 5 5 5.5 5.5 5.5 5.75 5.75 5.75 6.5 0 0 6.33333 0 6.6 6.6 0 0 6 0 0 0 5 0 0 0 0 0 0 0 0 0 0 0 0 0 0 0 0 0 0 0 0 0 0 0 0 0 0 0 0 0 0 0 0 0 0 0 0 0 0 0 0 0 0 0 0 0 0 0 0 0 0 0 0 0 0 0 0 0 0 0 0 0 0 0 0 0 0 0 0 0 0 0 0 0 0 0 0 0 0 0 0 0 0 0
0 0 0 0 0 0 0 0 0 0 0 0 0 0 0 0 0 0 0 0 0 0 0 0 0 0 0 0 0 0 0 0 0 0 0 0 0 0 0 0 0 0 0 0 0 0 0 0 0 0 0 0 0 0 0 0 0 0 0 0 0 0 0 0 0 0 0 0 0 0 0 0 0 0 0 0 0 0 0 0 0 0 0 0 0 0 0 0 0 -105.5 -105.5 -104.5 0 -105 -105 0 -105 0 -105 -104.5 -103 0 0 -103.5 -103 -103.5 -103.5 0 -104.5 -104 -104 -103.5 -102 -101.5 0 0 0 0 0 0 -102 -101.833 -101 -101 0 -100 -100 -99.5 -99 0 -100.5 -100.5 -100 -100 0 -101 -99.8333 -99 -99 -98.5 0 0 0 0 0 0 -99 -98.5 -98 -98 0 -97 -97 -97 -96.5 0 -97 -97 -96.6667 -96 0 -97 -96.5 -96 -96 0 0 0 0 0 0 0 0 -94.5 -94 -94 0 -94.5 -94 -94 -93.5 0 -93 -92.5 0 -92 0 -93 0 0 -92 -91.5 0 0 0 0 0 0 0 0 0 -90 -89.5 -89 -89 -88.5 0 -89 -89 -88.5 -88 0 -89 0 0 0 0 0 0 0 0 0 0 0 0 0 0 0 -85.5 -85 0 -86 0 -85.3333 -85 -85 0 0 0 0 0 0 0 0 0 0 0 0 0 0 0 0 0 0 -82 0 -81.5 -81.5 -81 0 -81.5 -80 -79.5 -79 0 -80 -80 0 0 0 0 0 0 0 0 0 0 0 -79 -78.5 -78 0 -78 -77.5 -77 -77 -76.5 -76 0 -77 0 -75 -75 0 0 0 0 0 0 0 0 0 -73.5 -73 -73 0 -74 -73.5 -73 -73 -73 -72.3333 -72 -72 0 -72.5 -72 -71 0 -71.5 -71 0 0 0 -70 -70.3333 -70.3333 -69 -69 -69 -68.5 0 0 -68 0 0 0 0 0 0 0 0 0 0 0 0 0 0 0 0 0 -66 -65.5 0 -65 -65 -64.5 0 -65 -65 -63.5 0 0 0 0 0 0 0 0 0 0 0 0 -61.5 0 -62 -62 -62 -61.5 0 -61 -61 -61 -60.5 -60 -60 -60 0 -60.5 -60 -60 0 0 0 0 0 0 0 0 0 -58 0 -57.3333 -57.3333 0 -58 -57.5 -56 0 -57 -57 -56.5 -56 -56 -56 -55.5 -55 -55.5 -55.5 -55 0 0 0 0 0 0 0 0 0 0 -53.5 -53 -53 0 -52.6667 -52.3333 -52 0 -52 -51.5 -50.5 -50.5 0 -52 -50.5 0 -51 -50 -50 0 0 0 0 -49 0 0 -49 0 -49 -49 0 -48 -48 -47 0 -47.5 -46.5 -46.5 -46 -46 -46 -46.5 -46.5 -46 -45 -45 -44 -44.5 -44.5 0 0 0 -43.6667 -43.6667 -44 -42.5 -42.5 -43 -43 -43 -44 -44 -43.5 0 0 -43 -42 -42 -42 -41.5 -41.5 0 -40.5 -40 0 -40.5 -40.5 0 -42 0 0 0 0 0 -39.5 0 0 -39 0 0 -38.5 -37.5 -37.5 0 0 0 -36.5 -36.5 -37.5 -37.5 0 0 -36.5 -36 0 -36 -36 -34.5 -35.5 0 0 -35 -35 0 -34.3333 -33.5 -33.5 -34.5 -34.5 -34 0 -35 -34.5 -32 0 0 0 0 -32.5 -32.5 -32.5 -32.5 0 -33 -33 -31 0 0 0 0 0 0 -29.5 -29.5 0 0 0 0 0 0 0 0 0 0 0 0 -29.5 0 0 0 0 0 0 0 0 0 0 0 0 -27 -25.6 -25.6 0 0 0 0 0 0 0 0 0 0 0 0 0 0 0 0 0 0 -23.75 -23.75 0 -24.5 -24.5 0 0 -22 -24 -23 -22 -24 -23 0 0 0 0 0 0 0 0 0 0 0 0 0 0 0 0 0 0 0 0 -19 -20 -20 -20 -20 -20.5 -20.5 -18.5 -18 -17.6 -17.6 0 0 0 0 0 0 0 0 0 0 0 0 0 0 0 0 0 0 0 0 0 0 0 -14.6667 -17 0 -15 -15 0 -14.6 -14.6 -15 0 0 0 0 0 0 0 0 0 0 0 0 0 0 0 0 0 0 0 0 0 0 0 0 0 0 -12 0 -10 -12 -11.25 0 0 0 0 0 -10 -10 0 -9 0 0 0 0 0 0 0 0 0 0 0 0 0 0 0 0 0 0 -7 -9 0 0 -8.5 0 0 0 0 0 0 0 0 0 0 0 0 0 0 0 0 0 0 0 0 0 0 0 0 0 0 0 0 0 0 0 -6 0 0 0 0 0 0 0 0 0 0 -3.5 -3.5 -3 -3 -2.33333 -2.33333 -3.5 -3.5 -3 0 0 0 0 0 0 0 0 0 0 0 0 0 0 0 0 0 0 0 0 -1.5 -1.5 -1 -1 0 0 0 0 0 0 0 0 -1 0 -0.5 -0.5 1 0 1 1 1 0 0 0 0 0 0 1 1 1 1.5 1.5 1 2 1.5 1.5 2 2 3 3 0 0 2 2 3.5 0 0 0 0 0 3.5 3.5 0 4 0 4.4 4.4 0 0 4 0 5 0 4.33333 4.5 4.5 5.5 5.5 4.66667 4.66667 5 4.5 4.5 5 5.5 5.5 5.5 5.5 6.5 0 0 6 0 0 5.5 5.5 0 0 0 0 0 5 0 0 0 0 0 0 0 0 0 0 0 0 0 0 0 0 0 0 0 0 0 0 0 0 0 0 0 0 0 0 0 0 0 0 0 0 0 0 0 0 0 0 0 0 0 0 0 0 0 0 0 0 0 0 0 0 0 0 0 0 0 0 0 0 0 0 0 0 0 0 0 0 0 0 0 0 0 0 0 0 0 0 0
0 0 0 0 0 0 0 0 0 0 0 0 0 0 0 0 0 0 0 0 0 0 0 0 0 0 0 0 0 0 0 0 0 0 0 0 0 0 0 0 0 0 0 0 0 0 0 0 0 0 0 0 0 0 0 0 0 0 0 0 0 0 0 0 0 0 0 0 0 0 0 0 0 0 0 0 0 0 0 0 0 0 0 0 0 0 0 0 0 0 -105.5 -105.5 0 -105 -105 0 -105 0 -105.5 -105.5 -104 0 0 -103.5 -103.5 -103.5 -104 0 -104.5 -104 -104 -103.5 -103 -101.5 -102.5 -102 -102 -101.5 -102.5 -102 -102 -101.5 0 -101.5 0 -100.5 -100 -100 -99.8333 0 -100.5 -100.5 -100 -100 0 -101 -99.8333 -99.8333 -99 -98.5 0 -99 -99 -98.5 -98 0 -99 -98.5 -98 -98 0 -99 -97 -97 -96.5 0 -97 -97 -96.3333 -96 0 -97 -96.5 -96 -96 -95.5 0 -95 -94.75 -94.4 -94 0 -95 -94.5 -94 -94 0 -94.5 -94 -94 -93.5 -93 -93 -92.5 -92 -92 0 -93 -92.5 -92 -92 -91.5 0 -92 -92 -90.3333 0 0 -92 -89 0 -90 -89.5 -89 -89 -88.5 0 -89.3333 -89 -88.5 -88 0 -89 -89 -88.5 -88 0 -89 -87 -87 -86.5 0 -87 -87 -87 0 0 -86.3333 -85.5 -85 0 -86 -86 -85.5 -85 -85 0 -85.5 -84.5 0 0 -84 -84 -82.5 0 -83 -83 -82.4 -82 0 0 0 0 0 -82 -81.5 0 -82 -81 0 -81.5 -81 0 -80 0 -80 -80 -79.5 0 -79 -79 -79 0 0 -79 -78.5 -78 0 -79 0 0 0 0 0 -77 -77 -77 -76.5 0 -77 -77 -75 -75 -75 -74.5 0 -75 -75 -74.5 0 0 0 0 0 0 0 0 -73.5 -73 0 -73 -72.5 -72 -72 0 -72.5 -72 -71 0 -71.5 -71 -71 -71 0 0 0 0 0 -70.5 0 0 0 0 0 0 0 0 -68 -68 -67.5 0 -68 -67 -66.5 0 -67 -67 -67 -66.5 0 -66 -66 -65.5 0 0 0 -64.5 0 0 -65 0 0 -64 -64.3333 -64 -63.5 -63 0 -63 -62.5 -62 0 -63 0 0 -62 -62 -62 0 0 0 0 -61 -60.5 0 -61 -60 0 -60.6667 -60 0 0 0 0 -59 -59 -59 -58.5 -58 -58 -58 0 -58.5 -58 0 0 0 0 0 0 0 0 -56 0 0 0 0 0 0 0 0 -54 0 -55 -53.5 0 -54 -54 -54 -54 0 -53 -53 0 -53 0 0 0 0 0 0 0 0 -52 0 0 0 0 0 0 -49 -49 -49 0 -50 0 -49 0 -49 -49 -47 0 -48 0 0 0 0 0 0 0 -46.5 0 0 0 0 0 0 0 0 -44 -44 0 -43.5 -43.5 -44 -44 -44 -44 -44.5 -44.5 -44 -44 -43.5 0 0 0 -42 -42 0 0 0 0 0 0 0 0 0 0 0 0 -40.5 -41 0 -40 -39.5 -38 0 -39 0 0 0 0 0 0 0 0 0 0 0 0 0 0 -36.5 0 0 0 0 0 0 0 0 -35 -35 0 -34.5 -34 -34 -34 0 0 0 0 -34.5 0 0 0 0 0 0 0 0 0 0 0 0 0 0 0 0 0 0 -32 0 0 -30 -29.5 -29.5 -30 -28 0 0 0 0 0 0 0 0 0 0 0 0 0 0 0 0 0 0 0 -27 -27 0 0 -26.6667 0 -28 -27 0 -26 0 0 0 0 0 0 0 0 0 0 0 0 0 0 0 0 0 0 0 0 0 0 0 0 0 -21 -23.5 0 0 0 0 0 0 0 0 0 0 0 0 0 0 0 0 0 0 0 0 0 0 0 0 0 0 0 0 -18 0 -17.3333 -17.3333 -18 0 0 -18.5 -18.5 -17 0 0 0 0 0 0 0 0 0 0 0 0 0 0 0 0 0 0 0 0 0 0 -15 0 -14.5 0 0 0 0 0 0 0 0 0 0 0 0 0 0 0 0 0 0 0 -12 -14 0 0 0 0 0 0 0 0 0 0 -13 -11.5 0 0 0 0 0 0 0 0 0 0 0 0 0 0 0 0 0 0 0 0 0 0 0 0 0 0 0 0 0 0 -6 0 0 0 0 0 0 0 0 0 -7.5 -6 -5 0 0 0 0 0 0 0 0 0 -5.5 -5.5 0 0 0 0 0 0 0 -4.66667 0 -4 0 -2.5 -2.5 -4 -4 -3 -3.5 -3.5 -3 -3 -2.33333 0 0 0 0 0 0 0 0 0 0 0 0 0 0 0 0 0 0 0 -0.5 -0.5 -1.5 -1.5 -1 -1.5 -1.5 -1 -1 -0.5 -0.5 0 0 0 0 0 0 0 0 0 0 0 0 0 0 0 0 0 0 0 1.33333 0 1 1 1 1.5 1.5 1 2 1.5 1.5 2 1 1 1 1.5 0 1.5 1.5 0 0 0 0 0 0 0 0 0 0 0 0 4.4 3.4 0 0 0 0 4 4 4.5 4.5 5.5 5.5 0 4 5 4.5 4.5 0 5 5.5 5.5 5.5 0 0 0 0 0 0 0 0 0 0 4 6 0 5 0 0 0 0 0 0 0 0 0 0 0 0 0 0 0 0 0 0 0 0 0 0 0 0 0 0 0 0 0 0 0 0 0 0 0 0 0 0 0 0 0 0 0 0 0 0 0 0 0 0 0 0 0 0 0 0 0 0 0 0 0 0 0 0 0 0 0 0 0 0 0 0 0 0 0 0 0 0 0 0 0 0 0
0 0 0 0 0 0 0 0 0 0 0 0 0 0 0 0 0 0 0 0 0 0 0 0 0 0 0 0 0 0 0 0 0 0 0 0 0 0 0 0 0 0 0 0 0 0 0 0 0 0 0 0 0 0 0 0 0 0 0 0 0 0 0 0 0 0 0 0 0 0 0 0 0 0 0 0 0 0 0 0 0 0 0 0 0 0 0 0 0 0 0 0 0 -105 -105 0 -105 0 -111.75 -111.75 -104.5 0 0 -103.5 -104.5 -104 -104 0 -104.5 -104 -104 -103.5 -103 -103 -102.5 -102 -102 0 -102.5 -102 -102 -101.833 -101.833 -101 -101.5 -101.5 -100.5 -100 -99.8333 -99.8333 -100.5 -100.5 -100.167 -100.167 0 -101 -101 -100.5 -100 -98.5 0 -99 -99 -98.5 -98 0 -99 0 -98 -98 0 -99 -97 -97 -96.5 0 -97 -97 -96.3333 -96 0 -97 -96.5 -96 -96 0 0 -95 -94.75 -94.4 -94 0 -95 -94.5 -94 -94 0 -94.5 -94 -94 -93.5 -93 0 -92.5 -92 -92 0 -93 -92.5 -92 -92 -91.5 0 0 -92 -90.3333 -90.3333 0 -92 -91.6667 0 -90 -89.5 -89 -89 -88.5 0 -89.3333 -89.3333 -88.5 -88 0 -89 -89 -88.5 -88 0 -89 -88.5 -87 -86.5 0 -87 -87 -86 -86 0 -86.3333 -86.3333 -85 0 -86 -86 -85.5 -85 -85 0 -85.5 -85 -85 0 -84 -84 -82.5 0 -83 -83 -82.4 -82 -82 0 -83 -82.5 -82 -82 -81.5 0 -82 -81 0 -81.5 -81 -81 0 0 -80 -80 -79.5 -79 -79 -79 -79 -78 0 -79 -78.5 -78 0 -79 -78.5 -78 -78 -78 -77.5 -77 -77 -77 -76.5 0 -77 -77 -76.5 -76.5 -75.6667 -75.6667 0 -75 -75 -74.5 0 0 0 -73.5 -73 0 -74 -74 -73.5 -73 0 -73 -72.5 -72 -72 0 -72.5 -72 -72 0 -71.5 -71 -71 -71 0 -70.5 -70.6667 -70.6667 0 -70.5 0 0 -70 -69.3333 -69 -69 0 -68 -68 -68 -67.5 0 -68 -67 -66.5 -66 0 -67 -67 -66.5 0 -66 0 -65.5 0 -66 -66 0 0 0 0 -65 -64.5 -64 -64.5 -64.5 -63.5 -63 0 -64 -62.5 -62 0 -63 -63 -62.5 0 -62 -62 0 -61.5 -61.5 -61.5 0 0 0 0 0 0 0 -60 -60 -60 0 -59 -59 -59 -59 -58.5 -58 -58 -58 0 0 -58 0 -58 -57.5 -56.5 -56.5 -57 -57 -56.5 0 0 0 0 0 0 0 -55 -54.5 -54 0 -55 -53.5 0 -54 0 -54 -54.3333 -55 -53 -53 0 -53 -52.5 -52 0 -52 -51.5 -51 0 0 0 0 0 0 0 0 -51 -49.5 -49.6667 -49.6667 0 -50 -49.5 -49 0 0 -50 -47.5 -47.5 -48 -47 0 -47.5 -47 -47 -47 0 0 0 0 0 0 0 0 -45 -46 -44 -44 0 -44 -44.6667 -44.6667 0 -44.5 -44 -44 -44 -44 -44 -43.5 -43.5 -43.5 -43 0 0 0 0 -42 0 0 0 0 -41 -41 -41.5 -41.5 -40.5 -41 -40 -39 0 -39.5 -38 0 -39 -38.6667 -38.6667 -38.5 -37.75 -38.5 0 -38.2 -38.2 -38.2 -37.3333 0 -38 0 0 0 0 0 0 -36.5 -36.5 -35.5 0 0 -35 -35 0 -35 -34 -34 -34.5 -34.5 -34 0 0 -33.5 0 0 0 -34 0 0 -33 -32.5 -32.5 0 -32.5 -32.5 -31 -31.5 -31.5 -31 0 0 0 -33 0 -30 -32 -30.25 -30.5 0 0 -30 0 -31 -30 -30.75 -30.75 -29.5 -28.25 -30 0 -28 -30 0 -27 0 0 -28 -26.5 -26.5 -27.5 -27.5 -26.6667 -26.6667 -27 0 -27 -26 0 -27 -25 -25.6 -25.6 -25 -25.5 -25.5 0 -23.7143 -23.7143 -24.5 0 0 -25 -25 -24.5 -24.5 0 -23 -22 -24 -23 -22 -24 -23 -21 -23.5 0 0 -23.5 -23.5 0 -24 -24 -21.5 -21 -20.6667 -20.6667 0 -20.6 -20.6 0 -20 -20 0 -19.5 -19.5 -19 -21 -20 -20.5 -20.5 -18.5 -18 0 0 0 -17.3333 -18 -18 -18.3333 -18.3333 -18.3333 -19.5 -17.75 -17.75 -18 -17.4 -19 -18 0 0 0 0 -15 -17.5 -15.5 -15.5 0 -15 -17 -16 -15 -17 -16 -15 -15 -15 -14.5 -16 -15.5 -15.5 -15 -15.6667 -14.75 -14.75 -14 -12.75 -12.75 0 -12 -14 0 -12.4 -12.75 -12.75 0 -13 0 -12.5 -12.5 -12.5 -11.5 -11.5 -12 -11 0 -12.5 -12.5 -12 0 -13 -11 0 -10.5 -10.5 0 -9 -9 0 -9.5 -9.5 0 -9.66667 -9.66667 -10 0 -11 0 -9 -9.5 -9.5 -9 -9 -9 -7.5 0 0 0 0 -9 -7 0 -6.75 -6.75 -6.75 0 -7.5 -7.5 0 -7.5 -7.5 -8 -6 -6.25 -5.6 -5.6 -6.6 -6.6 -6 0 0 0 -6 0 0 -6.5 -6.5 -5 0 0 0 -6 -4.66667 -4.66667 0 -4 0 0 -3.66667 -3.66667 -4 -3 -3.5 -3.5 -3.5 -3.5 -3 -3 -3 -4 -3 -3.5 -3.5 -3.25 -3.5 -1.66667 0 0 -1.5 -1.5 0 -1.5 -1.5 0 -1 0 -0.6 -0.6 -2 -2 -2 -1.66667 -1.66667 -1 -1.5 -1.5 -1 -1 -0.5 -0.5 -0.5 0 -1 -1 0 0 0 1 0 0 0.666667 0.666667 0 0 0 1.33333 1.33333 0 1.25 1.25 1.25 1.5 1.5 0 2 1.5 1.5 2 1 1 1 1.5 0 2 2 0 0 0 3.5 3.5 0 0 3 0 3.5 3.5 0 3.4 3.4 0 0 0 0 0 0 0 0 0 3 4 4 5 4.5 4.5 5 5 5.5 5.5 5.5 0 5.5 0 6 0 0 5.5 5.5 0 6 4 6 0 5.66667 0 0 0 0 0 0 0 0 0 0 0 0 0 0 0 0 0 0 0 0 0 0 0 0 0 0 0 0 0 0 0 0 0 0 0 0 0 0 0 0 0 0 0 0 0 0 0 0 0 0 0 0 0 0 0 0 0 0 0 0 0 0 0 0 0 0 0 0 0 0 0 0 0 0 0 0 0 0 0 0 0 0 0
0 0 0 0 0 0 0 0 0 0 0 0 0 0 0 0 0 0 0 0 0 0 0 0 0 0 0 0 0 0 0 0 0 0 0 0 0 0 0 0 0 0 0 0 0 0 0 0 0 0 0 0 0 0 0 0 0 0 0 0 0 0 0 0 0 0 0 0 0 0 0 0 0 0 0 0 0 0 0 0 0 0 0 0 0 0 0 0 0 0 -105.5 0 0 -105 -105 0 -105 0 -111.75 -111.75 -104.5 -104 0 -105 -104.5 -104 -104 0 -104.5 -104 -104 -103.5 -103 -103.667 -102.5 -102 -102 0 -102.5 -102 -102 -102 -102 -101.5 -101.5 -101.5 -101 -100 -99.8333 -99.8333 0 -101 -101 -100.167 0 -101 -101 -100.5 -100 -98.5 0 -99 -99 -98.5 -98 0 -99 -98.5 -98 -98 -99 -99 -98.5 -97 -96.5 0 -97 -97 -96.5 -96 0 -97 -96.5 -96 -96 0 -96.5 -96 -95 -94.5 -94 0 -95 -94.5 -94 -94 0 -94.5 -94 -94 -93.5 0 -94 -94 -92.5 -92 0 -93 -92.5 -92 -92 -91.5 0 -92 -92 -91.5 -91 0 -92 -92 -90 0 -89.5 -89.3333 -89 0 -89.5 -89.5 -89.5 -89 -88.5 0 -89 -89 -88.5 -88 0 -89 -88.5 -88 -87 0 -87.5 -87 -86.6667 -86.6667 0 -87 -87 -85 0 -86 -86 -85.5 -85 0 0 -85.5 -85 -84.5 -84.5 -84 -84 -82.5 0 0 -83 -83 -83 -82 -83 -83 -82.5 0 -82.3333 0 -82.5 -82 -81 0 -81.5 -81 -81 0 -81.2 -80 -80 -79.5 -79 0 -79 -79 -78 0 -79 -78.5 -78 0 -79 -78.5 -78 -78 -78 -77.8333 0 -77 -77 -76.5 0 -77 -77 -76.5 0 -76.5 -75.6667 0 -75 -75 -74.5 -74 0 -75 -75 -73 0 -74 -74 -73.5 -73 0 0 -72.5 -72 -72 0 -72.5 -72 -72 -72 0 -71 -71 -71 0 -71.5 -70.5 -70.6667 0 0 -70 -70 -70 0 0 0 0 0 -68 -68 -67.5 0 -68 -67 -66.5 -66 0 -67 -67 -66.5 0 0 -66 -65.5 0 -66 -66 -64.5 0 -65 0 -65 -64.5 0 -64.3333 -64.3333 -63.5 0 0 -64 -62.5 -62 0 -63 -63 -62.5 0 -63 -62 -62 0 -61.5 -61.5 -61 -60.5 0 -61 -60 0 0 0 0 -60 0 -59 -59 -59 -59 0 -58 -58 -58 0 -58.5 -58 0 -58 -57.5 -56.5 -56.5 -57 -57 -56.5 -56 0 -56 -55.5 -55 0 -56 -56 -54.5 -54 0 -55 -53.5 0 -54 -54 -54 -54.3333 -54.3333 -53 -53 -53 -53 -52.5 -52 0 -52 -51.5 -51 0 -52 -52 -50.5 0 -51 -50.5 -50.5 -51 0 -49.5 -49.6667 0 -50 -49.5 -49 0 0 -50 -47.5 -47.5 -48 -47 -46.5 0 -47 -47 0 0 0 -46 -46 0 -46 -45.5 0 -45.3333 0 -44 -44 0 0 -46 -44.6667 -45 -45 -44.5 -44 -44 -44 -44 -43.5 0 0 -44 0 0 0 0 -42 0 0 -41.5 0 -41 -41 -41 -40.5 -40 -41 -40 -39 0 -39.5 -38 0 -39 -38.5 -38.5 -38.5 -37.75 -37.75 -37.75 0 -38.5 -38.5 -37.5 -37.5 -38 -38 -38 -36.5 0 0 0 0 -37 -35.5 0 0 -35 -35 0 -35 -35 -34 -34.5 -34.5 -34 0 0 -33.5 -33.5 0 0 -34 -33 -33 -33 -32.5 -32.5 0 -32.5 -32.5 -31 0 0 -31 0 0 0 -32.5 -30 -30 -32 -30.25 -30.5 -30.5 0 -30 0 0 -30 0 -30.75 -29.5 -28.25 -30 -29 -28 -30 0 0 0 0 -27 -29 -27.3333 -27.6667 -27.6667 -26.5 -26.5 -27 0 -27 -26 -28 -27 -25 -25.6 -25.6 -25 -25.5 -25.5 -25 -23.7143 -23.7143 -24.5 -24.5 0 0 0 0 0 0 0 0 0 -23 -23.6667 -23.6667 -23 -21 -23.5 0 0 0 -24 0 -24 -24 -21.5 -21 0 0 0 -20.6 -20.6 0 -20 -20 -20 0 0 -19 0 -20.3333 -20.5 0 -18.5 -21 0 -18.5 -18.5 0 -18 -18 0 -18.3333 -18.3333 0 -19.5 -17.75 0 -17.4 -17.4 -17 -17 -17.5 -17.5 0 0 0 0 0 0 0 -16 -16.5 -16.5 -16 -16 -15 -15 -15 -14 -16 -15.5 -15.5 -15.5 -15.5 -15.6667 -14.75 -14 0 -12.75 0 -12 -14 0 -12.4 -12.4 -12.75 0 0 0 0 0 0 0 0 -12 -11 -10.5 -10.5 -13 -12 -11 -13 -11 0 -10.5 -10.5 0 -9 -9 0 0 -10 0 0 -9.66667 -10 -9 -11 0 0 0 0 0 0 0 0 0 0 -7.5 -7.5 0 -7 0 -6.75 0 -9 0 -7.5 -7.5 0 -7.5 -7.5 -8 -6 -6.25 -5.6 -5.6 -6.6 -6.6 -6 -6.5 -6.5 0 0 0 0 0 0 0 0 0 0 -6 -4.5 -4.5 0 -4 0 0 0 -3.66667 -4 -3 -3.5 -3.5 -3.5 -3.5 -4 -3.5 -3.5 -4 -3 -3 0 -3.25 -3.5 -3.5 -1.66667 0 0 0 0 0 0 0 0 0 -0.6 -0.6 -2 -2 -2 -2 -1.66667 -1 -1.5 -1.5 0 0 -0.5 -0.5 -0.5 0 -1 -1 0 0 0 1 0 0 0.5 0.5 0 0.5 0.5 0 0 0 1.25 0 0 0 1 1 1.5 1.5 1 2 1 1 1 1.5 0 2 2 0 3 0 0 3 0 0 3 0 3.5 3.5 0 3.4 3.4 0 0 0 0 0 0 0 0 0 3 4 4 5 4.5 4.5 4 4 4 5 5 0 6 0 6 0 0 5.5 5.5 0 6 4 6 0 5.66667 0 0 0 0 0 0 0 0 0 0 0 0 0 0 0 0 0 0 0 0 0 0 0 0 0 0 0 0 0 0 0 0 0 0 0 0 0 0 0 0 0 0 0 0 0 0 0 0 0 0 0 0 0 0 0 0 0 0 0 0 0 0 0 0 0 0 0 0 0 0 0 0 0 0 0 0 0 0 0 0 0 0 0
0 0 0 0 0 0 0 0 0 0 0 0 0 0 0 0 0 0 0 0 0 0 0 0 0 0 0 0 0 0 0 0 0 0 0 0 0 0 0 0 0 0 0 0 0 0 0 0 0 0 0 0 0 0 0 0 0 0 0 0 0 0 0 0 0 0 0 0 0 0 0 0 0 0 0 0 0 0 0 0 0 0 0 0 0 0 0 0 0 0 0 -106.667 0 -105 -105 0 -105 0 -105.5 -105.5 -104.5 -105.5 0 -105 -104.5 -104 -104 0 -104.5 -104 -104 -103.5 0 -104 -102.5 -102 -102 0 0 0 0 0 0 -101.5 -101.5 -101.5 -101 -101 -99.8333 0 -101.5 -101 -101 -100.5 0 -101 -101 -100.5 -100 -100 0 0 0 0 0 0 0 0 -98 -98 -99 -99 -98.5 -98 -96.5 0 -97 -97 -96.5 -96 0 -97 -96.5 -96 -96 0 -96.5 -96 0 -94.5 -94 0 -95 -94.5 -94 -94 0 -94.5 -94 -94 -93.5 0 -94 -94 -92.5 -92 0 -93 0 -92 -92 0 0 -92 -92 -91.5 -91 0 -92 -92 -91.5 0 0 -89.3333 -89.3333 0 0 -89.5 -89.5 -89 -88.5 0 0 -89 -88.5 -88 0 -89 -88.5 -88 -88 0 -87.5 -87 0 -86.6667 0 -87 -87 -85 0 -86 -86 -85.5 -85 0 -86 -85.5 -85 -85 -84.5 0 -84 -83 -83 0 -83 -83 -83 -82 -83 -83 -82.5 0 -82.3333 0 -82.5 -82 -82 0 0 -81 -81 0 -81 0 -80 -79.5 -79 0 -80 -79.5 -78 0 -79 -78.5 -78 0 -79 -78.5 -78 -78 -78 -77.8333 -77.8333 -77 -77 -76.5 -77.5 -77 -77 -76.5 0 -77 -76.5 -76.5 -75 -75 -75 -74.5 0 -75 -75 -73 0 -74 -74 -73.5 -73 0 -74 -72.5 -72 -72 0 -72.5 -72 -72 -72 0 -72.5 -72 -71 0 -71.5 -71 -71 -71.6667 -71.6667 -70 -70 -70 0 -70.5 -70 -70 0 -68 -68 -67.5 0 -68 -67 -66.5 0 -67 -67 -67 -66.5 -66.5 -66.5 -66 -65.5 0 -66 -66 -64.5 0 0 -65 -65 -64.5 0 -64.6667 -64.6667 -63.5 0 -64 -64 -64 -62 0 -63 -63 -63 0 -63 -62.3333 -62 0 -61.5 -61.5 -61 -60.5 0 0 0 0 0 -60 -60 -60 0 0 -59 -59 -59 -60 -58 -58 0 -59 -58.5 -58 -58 0 -57.6667 -57.3333 0 0 -57 -56.5 0 0 0 0 -55 0 -56 -56 -54.5 0 -55 -55 -53.6667 0 -54.3333 -54 -54 0 0 -53 -53 -53 -53 -52.5 -52 -52 -52 -51.5 -51 0 0 -52 -50.5 0 0 -50.5 -50.5 -51 -49.6667 -49.6667 -50 0 -50 -49.5 -49 0 0 -49 0 0 -48 -47 0 -47.5 -47 -47 -47 0 0 0 0 0 0 -45.5 0 -45.3333 -45.3333 -44.7 -44.7 -44.7 0 -46 -45.5 -45.5 -46 -44.5 -44 -44 -44 -44 -43.5 0 0 -44 0 0 0 0 -42 0 0 -41.5 0 0 -41 -41 -40.6667 -41 -41 -40 -39.5 -39.5 -39.5 -38 0 -39 -39 -38.6667 -38.5 0 0 -38.5 0 -38.2 -38.2 -37.3333 -37.3333 -38 -38 0 0 -36.5 -36.5 -36 -38 -37 -35.5 0 0 -35.3333 -35 0 -35 -35 -34 -34.5 -34.5 -34 0 0 0 -33.5 0 0 -34 0 0 0 0 0 0 -32.5 -32.5 -31 -33.5 -32 -31 -31.5 -31.5 -32.5 -31.5 0 -30 -32 -30.25 -30.25 -30.5 0 -30 0 0 -30 -32 -30.75 -29.5 -28.25 -28.25 -29 -28 -30 0 0 0 0 -27 -29 -27.3333 -27.3333 -27.6667 -26.5 -26.5 0 -28 -27 -26 -28 -27 -25 -25.5 -25.6 -25 -25.5 -25.5 -25 -23.7143 -23.7143 -23.7143 -24.5 0 0 0 0 0 -24.5 -23 0 -24 -23 -23 -23.6667 -23 -21 -23.5 -22.75 0 0 -24 0 0 -23 -21.5 0 0 -20.6667 0 -22 -20.6 0 -20 -20 -23.5 -23.5 0 0 0 -20.3333 -20.3333 -20.5 -18.5 -21 0 -18.5 -18.5 0 -18 -18 0 0 -18.3333 -19.5 -19.5 -17.75 0 -17.4 -17.4 0 -17.5 -17.5 -18 0 0 0 0 0 0 0 -16 -16.5 -16.5 -16 0 -15 -15 -15 -14 0 0 -16 -15.5 -15.5 -15.6667 -14.75 -14 -16 -12.75 0 -12 -14 0 -12.4 -12.4 -12.75 0 0 0 0 0 0 0 0 -12 -11 0 0 -13 -12 -11 -13 -11 0 -10.6667 -10.6667 0 -9 -9.33333 0 0 -10 0 0 -10 -10 -9 -11 0 0 0 0 0 0 0 0 0 0 -7.5 -7.5 0 -7 -7 0 0 -8 0 -7.5 -7.5 0 -7.5 -7.5 -8 -6 -6.25 -6.25 -5.6 0 -6.6 -6 -6.5 -6.5 0 -6 0 0 0 0 0 0 0 0 -6 -4.5 -4.5 0 -4 0 0 0 -4 -4 -3.33333 -3.66667 -3.66667 -3.5 -3.5 -4.33333 -3.66667 -3.66667 -4 -3 -3.5 -3.5 -3.25 -3.25 -3.5 -1.66667 0 0 0 0 0 -2 0 0 0 0 -0.6 -1.83333 -2.6 -2.6 -2 -2 -1.33333 0 0 0 0 0 0 0 0 0 -1 0.5 0.5 0 0.25 0 0 0.666667 0 0 0.5 0.5 0 1 0 0 0 0 0 1 1 1.33333 1.33333 1 1.5 1.5 0.333333 0.333333 1.5 0 1.83333 1.83333 0 3 0 0 3 0 0 3 0 3.5 3.5 0 0 3 0 4 0 3.33333 4 4 4 4 4 3 4 4 5 4.5 4.5 5 4.5 4.5 5.5 5.5 0 6 0 6 0 0 0 5 0 6 4 5.2 5.2 5.66667 0 0 0 0 0 0 0 0 0 0 0 0 0 0 0 0 0 0 0 0 0 0 0 0 0 0 0 0 0 0 0 0 0 0 0 0 0 0 0 0 0 0 0 0 0 0 0 0 0 0 0 0 0 0 0 0 0 0 0 0 0 0 0 0 0 0 0 0 0 0 0 0 0 0 0 0 0 0 0 0 0 0 0
0 0 0 0 0 0 0 0 0 0 0 0 0 0 0 0 0 0 0 0 0 0 0 0 0 0 0 0 0 0 0 0 0 0 0 0 0 0 0 0 0 0 0 0 0 0 0 0 0 0 0 0 0 0 0 0 0 0 0 0 0 0 0 0 0 0 0 0 0 0 0 0 0 0 0 0 0 0 0 0 0 0 0 0 0 0 0 0 0 0 0 -106.667 0 -105 -105 0 -106 -105.5 -105.5 -105.5 0 0 0 -105 0 0 0 0 -104.5 0 0 -103.5 0 -104 -104 -102 -102 0 0 -102 -102 -102 -102 -102 -102 -101.667 -101.5 -101.5 0 0 -101.5 -101 -101 -100.5 0 -101 -101 -100.5 -100 -100 -99.5 -99 -99 -98.5 -98 0 -99 -98.5 -98 0 -99 -99 -98.5 -98 -98 0 -97 -97 -96.5 -96 0 -97 -96.5 -96 -96 0 -96.5 -96 -96 -94.5 0 -95 -95 -94.5 -94 -94 0 -94.5 -94 -94 -93.5 0 -94 -94 -94 -92 0 -93 -92.5 -92 0 -92 0 -92 -92 0 -92 0 -92 -92 -91.5 -91 0 -89.5 -89.5 -90 0 -89.5 -89.5 -90 -88.5 -89.8333 -89.8333 -89 -88.5 -88 0 -89 -88.5 -88 -88 0 -87.5 -87 0 -87.25 0 -87 -87 0 0 -86 -86 -85.5 -85 -85 0 -85.5 -85 -85 -85 0 -85.5 -84 -83.5 0 -83 -83 -83 -83.5 -83 -83.3333 -82.5 -82 0 -83 -82.5 -82 -82 0 0 -81 -81 0 -81 0 -81 -79.5 -79 0 -80 -79.5 -79 -79 -79 -78.5 -78 0 -79 -79 -78.5 -78 0 -79 -78.5 -77.6667 -77.6667 0 0 -77 -77 -76.5 0 -77 -76.5 -76.5 0 -75 -75 -74.5 0 -75 -75 -73 0 -74 -74 -73.5 -73 0 0 0 0 0 0 -72.5 -72 -72 -72 0 -72.5 -72 -71 0 -71.5 -71 -71 0 -71.6667 -70 -70 -70 0 -70.5 -70 -70 0 0 0 0 0 0 -68 -66.5 0 -67 0 -67 -66.5 -66.5 -66.5 -66 -65.5 0 -66 -66 -64.5 0 -65 -65 -65 -64.5 0 -65 -64.6667 -63.5 0 -64 -64 -64 -62 0 -63 -63 -63 -63 -62 -62.3333 -62.3333 0 -61.5 -61.5 -61 -60.5 0 -61 -61 0 0 -60 -60 -60 0 0 0 0 0 0 -58 -58 0 -59 -58.5 -58 -58 0 -57.6667 -57.3333 -57 0 -57 -56.5 -56 0 -57 -55.5 -55 0 0 -56 0 0 -55 -55 -53.6667 0 -54.3333 -54 -54 0 0 -53 -53 -53 -53 -52.5 -52 -52 0 -53 -51.3333 0 -52 -52 -51.1667 -51.1667 -51 -50.5 -50.5 0 0 -49.6667 -50 0 -50 -49.5 -49 0 0 -49 0 0 -48 -48 -48 -47.6667 -47 -47 -47 -47 -47.1 -47.1 -46 -46.5 -46.5 -45.8333 -45.2 -45.2 -45.2 -47 -44.7 -44.7 0 -46 -45.5 -45.5 -46 -44.5 -44 -44 -44 -44 -43.5 0 0 -44 -42 -42 -43 -43 -42 -43 -43 -41.5 0 0 -41 -41 -40.6667 -41 -41 -40 -39.5 -39.5 -39.5 -38 0 -39 -39 -39.5 -39.5 0 0 -39 -39.5 -39.5 -39 -37 0 -38 -38 -38 -36.5 -36.6667 -36.6667 -36.5 -36.5 -37 -35.5 -35.5 0 -35.3333 -35.3333 0 0 -35 -34 -34.5 -34.5 -34 -36.5 -36.5 -36 -34 0 0 -34 -33.1667 -33.1667 -33 -32.6667 -32.6667 0 -34 -33 -31 -33.5 -32 -31 -33 -32.3333 0 -31.5 -30 -32 -32.5 -32.5 -31 -31 0 -30 -30.5 -30.5 -30.5 -30.5 -31 -29.5 -28.5 -28.5 -29 -28.6667 -28.6667 0 -27.8333 -27.8333 0 0 -29.5 -29.5 -28 -28 0 -27 0 -28 -27 -26 -28 -27 -25 -27.5 -25.5 -25 0 -26 -25 -24.25 -24.25 -24.25 -25 -24.5 -24.5 -25 -24.5 -24.5 -24.5 -23 -23.3333 -23.3333 -23.3333 -23 -23 -23 -22 -22 -22.75 -22.75 -22.75 -24 0 0 -24 -21.5 0 0 -21 0 -22 -21 0 -20.5 -20.5 -23.5 -23.5 -20.6667 -20.6667 -20 -20 -20 0 -19 -21 0 -18.5 -18.5 0 -18 -18 -18.5 0 -19 -19.5 -19.5 -18 -17 -17.5 -17.5 -17 -17.5 -17.5 -18 -15.5 -15.5 -15.5 0 -16.5 -16.5 0 -16 -16.3333 -16.3333 -16 0 -15 -15 -15 -15 -15 -15 -16 -15.5 -15.5 -16 -15 -14 -16 -13.3333 0 -12 -14 0 0 -13 -13 0 -13 0 0 0 -14 -11.6667 -11.6667 -12 -12 -12 -12 -13 -12 -11 -13 -11 0 0 -10.6667 0 -9 -9.33333 -9.33333 0 -10 0 0 -10 -10 -9.5 -9.5 -10 -9.5 -9.5 -10.5 -10.5 -9.4 -9.5 -9.5 -8.5 0 -7.5 -7.5 0 -7 -9.5 -9.5 0 -8 0 -7.5 -7.5 0 -7.5 -7.5 -8 -6 -6.5 -6.5 -6.5 -6.5 -7 -6.5 -6.5 -7 -6 -6.5 -6.5 0 0 -7 -5.33333 0 0 -5 -6.33333 -4.66667 -4.66667 0 -5 -5 -5 0 -4 -4 -3.33333 -3.33333 -3.66667 -3.5 -3.5 -4.33333 -4.33333 -3.66667 -4 -3.5 -3.5 -4 0 0 -4 -2 0 0 -2 0 0 -2 -2.5 -2.5 -2 -2 -1.83333 -1.83333 -2.6 -2.6 -2 -2 -1.33333 -1.33333 -2 -1 -1.5 -1.5 -1.5 -1.5 -2 0 0 0.5 0.5 0 0.25 0.25 0.25 0 0 0 0.5 0.5 0 1 0 0 0 0 0 0 0 0 1.33333 1 1.5 1.5 2 0.333333 1.5 0 1.83333 1.83333 0 3 0 0 3 0 0 3 0 3.5 3.5 0 0 2 3 4 3.33333 3.33333 4 0 0 0 0 0 0 0 0 0 0 5 0 0 0 0 0 6 0 6 0 0 0 5 0 6 4 5.2 5.2 5.2 0 0 0 0 0 0 0 0 0 0 0 0 0 0 0 0 0 0 0 0 0 0 0 0 0 0 0 0 0 0 0 0 0 0 0 0 0 0 0 0 0 0 0 0 0 0 0 0 0 0 0 0 0 0 0 0 0 0 0 0 0 0 0 0 0 0 0 0 0 0 0 0 0 0 0 0 0 0 0 0 0 0 0
0 0 0 0 0 0 0 0 0 0 0 0 0 0 0 0 0 0 0 0 0 0 0 0 0 0 0 0 0 0 0 0 0 0 0 0 0 0 0 0 0 0 0 0 0 0 0 0 0 0 0 0 0 0 0 0 0 0 0 0 0 0 0 0 0 0 0 0 0 0 0 0 0 0 0 0 0 0 0 0 0 0 0 0 0 0 0 0 0 0 0 -107 0 0 -105 0 -106 0 0 -106 -106 -105.5 -105 0 -104.5 -104 0 -105 -104.5 -104 -104 -103.5 0 -104 -104 0 0 0 0 0 0 0 0 0 0 0 0 -102.5 -101 0 -101.5 -101 -101 -100.5 0 -101 -101 -100.5 -100 -100 0 -99 -99 0 0 0 0 0 0 0 0 0 0 0 0 0 -97 -97 -96.5 -96 0 -97 -96.5 -96.5 -96.5 0 -96.5 -96 -96 -96 0 0 0 0 0 -94 0 -94.5 -94 -94 -93.5 0 -94 -94 -94 -93.5 0 -93 0 0 0 0 0 0 0 0 0 0 0 0 -91.5 0 0 -89.5 -89.5 -90 0 -89.5 -89.5 -90 -88.5 -89.8333 -90.5 -89 -88.5 0 0 -89 0 0 -88 -88 -87.5 -87 0 -87.25 0 -87 -87 -86.5 0 0 -86 -85.5 -85 -85 -86 -85.5 -85 -85 -85 0 0 0 0 0 0 0 0 0 -83.5 -83.3333 -83.3333 -82 0 -83 -82.5 -82 -82 0 0 -81 -81 0 -81.5 -81 -81 -81 0 -80 0 0 0 -79 -79 -78.5 -78 0 -79 -79 -78.5 -78 0 -79 -78.5 -78 -77.6667 0 -77.5 -77 -77 -76.5 0 -77 -76.5 -76.5 -76.5 -76 -76 -74.5 0 -75 -75 -73 0 -74 -74 -73.5 -73 0 -74 -74 -73.5 -72.5 -72.5 -72.5 -72 -72 -72 0 -72.5 -72 -71 0 -71.5 -71 -71 -71 0 -70 -70 -70 0 -70.5 -70 -70 0 0 -69 -69 -68.5 0 -68 -66.5 0 -67 -67 -67 -66.5 0 -67 -66 -65.5 0 -66 -66 -64.3333 0 -65 -65 -65 -64.5 0 -65 -65 -65 0 -64 -64 -64 -62.5 0 -63 -63 -63 0 -63.5 -62.5 -62.5 0 -62.5 -62 -61 0 -61.5 0 0 0 0 -60 -60 -60 0 -61 -59 -59 0 -60 0 -59 -58.5 -58.5 -58.5 -58 0 0 -58 -57.5 -57 0 -58 -56.5 -56 0 -56.5 -56.5 0 0 -56 -56 -54.6667 0 0 -55 -54 0 -54.5 -54 -54 -54 0 -53 -53 -53 -53 -52.5 -52 -52 0 0 -51.5 0 -52 -52 0 -51.1667 -51 0 -51 -51 -50.5 -50 -50 0 -50 0 0 0 0 -49 -47.6667 -47.6667 -48 -48 -48 -47.5 -47 -47 -47 -47 -46.6667 -47.5 -46 0 0 -45.8333 -45.8333 -45.2 -45.2 -46 -45 -45 0 -46 -45.5 -45.5 -46 -44.5 -44 -44 -44 -44.5 0 0 0 0 0 0 0 -43 0 0 -43 0 -41 0 -41 -40.6667 -40.6667 -41 -41 -40 -39.5 -39.5 -39.5 0 0 -40 -40 -40 0 0 0 0 0 0 0 0 0 -38 -38 -38 -36.5 0 -36.6667 -36.5 -36.5 -37 -35.5 -35.5 0 -35.5 -35.5 0 -35.5 -35.5 -34 -34 0 0 0 -37 -36 -34 0 0 -34 -33 -33.1667 -33 0 -32.6667 0 -34 -33 -31 -33.5 -32 -31 -33 -32.3333 -32.3333 -31.5 0 -31 -31 -31 -31 -31 0 0 0 0 0 0 0 0 0 0 0 0 -28.6667 0 -27.8333 -27.8333 0 -28 -28 -28 -28 -28 0 -27 -29.5 0 0 0 0 -27 0 0 0 0 0 0 0 0 0 -24.25 -25 -24.5 -24.5 -25 -24.5 -24.5 -24.5 -23 -23.3333 -23 -23.3333 -23.3333 -23 -23 -22.5 -22 -22 0 0 0 0 0 0 0 0 0 0 0 0 0 0 0 0 0 0 0 -20.6667 -20 -20 -20 0 0 0 0 -18.5 -18.5 0 -18 -18.5 0 0 0 0 0 0 0 0 0 0 0 0 0 -15.5 -15.5 -15.5 0 -16.5 -16.5 0 -17 -16.3333 0 -16 0 -15 -15 0 -15 -15 -15 -16 0 0 0 0 0 0 0 0 0 0 0 0 0 0 0 0 0 0 0 0 0 -11.6667 -12 -12 -12 -12 -13 -12 -11 -13 -11 0 0 0 0 0 0 0 0 0 0 0 0 0 0 -10.3333 0 0 0 0 0 -9.4 -9.5 -9.5 -8.5 0 -7.5 -7.5 0 -7 -9.5 -9.5 0 -8 0 0 0 0 0 0 0 0 0 0 0 0 0 0 0 0 0 0 0 0 0 -7 -5.33333 -5.33333 0 -5 -6.33333 -6.33333 -4.66667 0 -5 -5 -5 0 0 0 0 0 0 0 -4 -4.5 -4.5 0 0 0 0 0 0 0 0 0 0 0 0 0 0 0 0 0 0 0 -1.83333 -1.83333 -1.83333 -2.6 0 0 -1 0 0 0 -2 -2 -2 -1.5 0 0 0 0.5 0.5 0 0 0 0 0 0 0 0 0 0 0 0 0 0 0 0 0 1 1.5 1.5 1 1.5 1.5 0.5 0.5 1.5 0 0 0 0 0 0 0 3 0 0 3 0 3.5 3.5 0 0 3 3 0 0 0 0 0 0 0 3 3 4 4 5 4.5 4.5 4 4 4 5.5 5.5 0 6 0 5.5 5.5 0 0 5 0 6 0 0 0 0 0 0 0 0 0 0 0 0 0 0 0 0 0 0 0 0 0 0 0 0 0 0 0 0 0 0 0 0 0 0 0 0 0 0 0 0 0 0 0 0 0 0 0 0 0 0 0 0 0 0 0 0 0 0 0 0 0 0 0 0 0 0 0 0 0 0 0 0 0 0 0 0 0 0 0 0 0 0 0 0 0 0 0
0 0 0 0 0 0 0 0 0 0 0 0 0 0 0 0 0 0 0 0 0 0 0 0 0 0 0 0 0 0 0 0 0 0 0 0 0 0 0 0 0 0 0 0 0 0 0 0 0 0 0 0 0 0 0 0 0 0 0 0 0 0 0 0 0 0 0 0 0 0 0 0 0 0 0 0 0 0 0 0 0 0 0 0 0 0 0 0 0 0 -105 -106.5 -106.5 -105 0 0 -106 -105.5 -105.5 -105.5 -106 -105.5 -105 0 0 -104 0 0 0 -104 -104 -103.5 0 -104 -104 -103.5 -103 0 0 -103.5 -102 -102 -102 0 0 -103 -102.167 -102.167 0 0 0 -101 -101 -100.5 0 -101 -101 -100.5 0 -100.5 0 -100.5 -99 -98.5 0 0 0 0 0 0 0 0 -98.5 -98 0 0 0 0 0 -96 0 -97.5 -97.5 -96.5 -96.5 0 -97 -96.6667 -96 -96.5 -96.5 0 0 0 0 0 0 0 0 0 -93.5 0 -94 0 0 -93.5 -93 -93 -92.5 -92 0 -93 -92.5 -92 -92 -91.5 -92 0 -92 -92 -91.5 0 0 0 -90 -90 0 -89.5 -89.5 -90 0 0 0 0 0 0 -89 -89 -88.5 -88 0 -88.5 0 -87 -87 0 0 0 0 0 0 0 -86 -85.3333 0 -86 -86 -85.5 -85 -85 -85 0 -85.6667 -85 -85 0 -84 -83 -83 -83.5 -83.5 -83.5 -83.5 -82 0 0 0 0 -82 -82 0 -81 -81 0 0 0 0 0 0 0 -80 -79.5 -79 -79 -79.5 -79.5 -78 0 -79 -79 0 0 0 0 0 0 0 0 -77.5 0 0 0 0 0 0 0 0 0 -76 -76 0 -75 -75 -74.5 -74 0 -74.5 -74.5 -73 0 0 0 0 -72.5 0 -73 0 0 0 0 0 0 0 0 -71.5 -71 -71 -71 0 -70 -70 -70 0 -70.5 -70 -70 -70 0 0 0 0 0 0 0 0 0 0 -67 -66.5 0 -67 -66 -65.5 0 -66 -66 -64.3333 0 -65 -65 -65 -64.5 0 -65 -65 0 0 0 0 0 0 0 0 0 0 0 0 0 0 0 -62.5 -62 -62 0 -61.5 -61 -61 0 0 -60 0 0 0 0 0 0 0 0 0 0 0 0 0 0 0 0 -58 -57.5 -57 0 -58 -56.5 -56 0 -56.5 -56.5 -56.5 0 -56 0 0 0 0 0 0 0 0 0 0 0 0 0 0 0 0 0 -52 -52 0 -52 -51.5 0 -52 -52 -52 -51.5 -51 -51 0 0 0 0 0 0 0 0 0 0 0 -49 -48.5 -47.6667 0 -48 -48 -47.4 0 -47 -47 -47 -46.6667 -46.6667 -46.5 -46.5 -47.5 -47.5 -48.5 -48.5 0 -46.3333 0 0 0 0 0 0 0 0 0 0 0 0 -44.5 0 0 -44 0 0 0 0 -42 0 -43 -41.5 -41 0 -41.5 -41.5 0 -41 0 0 0 0 0 0 0 0 0 0 0 0 0 0 0 0 0 0 -38 -38 -38 -38 -36.5 0 -37 -36.5 -36.5 0 0 0 0 0 0 0 0 0 0 0 0 0 0 0 0 0 0 0 0 0 0 0 0 0 0 0 -33 -31 0 0 0 0 0 -31 -31 0 0 -31 0 0 0 0 0 0 0 0 0 0 0 -28.5 -28.5 -29 0 -29 -29 0 0 0 0 -28 0 0 0 0 0 0 0 0 0 0 0 0 0 0 0 0 0 0 0 0 0 -25 0 -25 0 0 0 0 0 0 0 0 0 0 0 0 0 0 0 0 0 0 0 0 0 0 0 0 0 0 0 0 0 0 0 0 0 0 0 0 0 0 0 0 0 0 0 0 0 0 0 0 0 0 0 0 0 0 0 0 0 0 0 0 0 0 0 0 0 0 0 0 0 0 0 0 0 0 0 0 0 0 0 0 0 0 0 0 0 0 0 0 0 0 0 0 0 0 0 0 0 0 0 0 -13 -13.6667 -13.6667 -13 -13 -12 0 0 0 0 0 0 0 0 0 -10 0 0 0 0 0 0 0 -10.3333 -10.3333 0 0 0 -11 -9.5 -9 0 0 0 0 0 0 0 0 0 0 0 0 0 -7.66667 -8 0 0 0 0 0 0 0 0 0 0 0 0 -5.5 0 0 0 0 -7 0 0 -7 0 0 0 0 0 0 0 0 0 0 0 0 0 0 0 0 0 -5 -4 0 0 0 0 0 0 0 0 0 0 -2 0 0 -2 -2.5 -2.5 -2 -2.5 -2.5 0 0 0 0 -2 0 0 0 -2 -2 -2 -3 0 0 0 0 0 0 0 0 0 0 0 0 0 0 0 0 0 0 0 0 0 0 1 1 0 1 0.5 0.5 1 0.5 0.5 1.33333 0 2 2 0 2.5 2.5 0 2.5 2.5 0 0 0 0 0 0 0 3 3 3.5 3.5 3 4 0 0 4.3 4.3 0 4 4 5 5 0 4 4 4 3 0 0 6 0 5 5 5 4 0 4.5 4.5 0 0 0 0 0 0 0 0 0 0 0 0 0 0 0 0 0 0 0 0 0 0 0 0 0 0 0 0 0 0 0 0 0 0 0 0 0 0 0 0 0 0 0 0 0 0 0 0 0 0 0 0 0 0 0 0 0 0 0 0 0 0 0 0 0 0 0 0 0 0 0 0 0 0 0 0 0 0 0 0 0 0 0 0 0 0 0
0 0 0 0 0 0 0 0 0 0 0 0 0 0 0 0 0 0 0 0 0 0 0 0 0 0 0 0 0 0 0 0 0 0 0 0 0 0 0 0 0 0 0 0 0 0 0 0 0 0 0 0 0 0 0 0 0 0 0 0 0 0 0 0 0 0 0 0 0 0 0 0 0 0 0 0 0 0 0 0 0 0 0 0 0 0 0 0 0 0 0 -107 -107 0 -105 0 0 -105.5 -105.5 -105.5 -106 -105.5 -105 0 -106 -104 0 -105 -104.833 -104 -104 -103.5 0 -104 -104 -103.833 -103.5 0 0 -103.5 -103 -102 -102 0 -103 -103 -103 -102.167 -102 0 -101.5 -101 -101 -100.5 0 -101 -101 -100.5 0 -100.5 0 -100.5 -100 -98.5 0 -99 -99.3333 -99 -99 -99 -99 -99 -99 -99 -98.5 -98.5 -98.5 -97 -96.5 0 -97.5 -97.6667 -97.6667 -96.5 -96.5 0 -97 -96.8333 -96.8333 -96.5 -96.5 0 -95 -94.5 -94 0 0 -94.5 0 0 0 0 -94.25 -94 -94 -93.5 0 -94 -92.5 -92 0 -93 -92.5 -92 -92 -92 0 -92 -92 -92 -91.5 -91 0 -92 0 0 0 0 0 0 -90 -90 -90 0 -90 0 -89 -89 -88.5 -88.3333 0 -89 -89 -88.5 -87 -86.5 0 -87 -87 -86.5 -86 0 0 0 0 0 0 0 -85 -85 0 -86 -85.5 -85 -85 -84.5 -84 -84 -84 -84.1667 -84.1667 -83.5 -83.5 0 -83 -83 -82.5 0 0 0 0 0 0 0 0 -82.5 -81 -81 -80.5 0 -81 -80 -79.5 0 -80 -80 -78.5 -78.5 -79 -79 -78.5 -78 0 -79 -78.5 -78 0 0 0 -77 -77 -76.5 0 -77 -77 -77 -76.5 -76 -76 -76 -75.5 0 -75 -74.5 -74 0 -74.5 -74.5 -73 0 -74 0 0 0 -72.5 -73 -72.5 -72 -72 0 -72.5 -72 -72 -72 -71.5 -71 -71 -71 0 -70 -70.5 -70 0 -70.5 -70 -70 -70 0 0 0 -69 0 0 -69 -67.5 0 -68 -67 -66.5 0 -67 -66 -65.5 0 -66 -66 0 0 0 -65 -65.3333 -64.5 0 -65 -65 -65 0 -64.5 0 -64 0 -63.5 -63 -63 -63 0 -63.5 -62.5 -62.5 0 -62.5 -62 -62 0 0 0 -61 -61 0 -61.5 -60 -60 0 0 -60.5 -60 0 -60 -59.5 -59 0 -59 -58.5 -58 -58 0 -59 -57.5 -57 0 -58 -56.5 -56 0 -56.5 -56.5 -57 -56.5 -56 -56 -56 0 0 0 0 0 0 -54 -54 0 -55 -53.5 -53.5 -53 0 -52.5 -52 0 -53 -52.5 -52.5 0 0 0 0 0 0 0 -51 0 0 -50 -50 -50 0 -50 -50 -48.5 -48.5 -49 -48.5 -48 0 -47.5 -47.5 -47.5 0 -47.5 -47.5 -47 -47.5 -47.5 -47.5 -47 -47.5 -47.5 -48.5 -48.5 0 -46.3333 -46.3333 0 0 0 -45.5 -45.5 0 -45 -45 -45 -44.5 -44.5 -45 0 0 -44.5 -44.5 -43 0 -43.5 -42 0 0 0 0 0 0 0 0 0 0 0 -40 0 -40 -39 -39 -39 -40.5 -40.5 -40 -39.5 0 -39 -39.5 -39.5 -39 -37.5 -37.5 -38 -38 0 0 0 0 0 0 0 0 0 0 0 -35.5 0 -35.5 -35.5 -35.5 -35 -35 -35 -35 -37 0 -34 -36.5 0 -34.5 -34.5 -34 -33.5 0 0 0 0 0 0 0 0 0 0 0 0 0 -31.75 -31 -33 0 -31 -31.5 -31.5 -30 -30.5 -30.5 -30 -30 -30 -29.5 0 -29 -29 0 -29 -29 0 0 0 0 0 0 0 0 0 0 0 0 -27 -26 -28 -27 -27 -27 -26 -25 -27 0 -25.5 -25.5 0 -25 -25 0 0 0 0 0 0 0 -24 0 0 0 0 0 0 0 0 0 0 -23 0 -24 -23 -21.5 0 -22 -21 -23 -22 -21 -21 0 0 -23 -20 -22.5 -21 0 0 0 0 0 0 0 0 0 0 0 0 0 0 -19 -21 -20 -18 -20.5 -19 -18 -18.5 -18.5 0 -17 -16 -16 0 0 -16.5 -16.5 0 -17.5 -17.5 0 -16 0 0 0 0 0 0 0 0 0 0 -16 -15 -14 -16 -13.5 0 0 -13.5 -13.5 -16 0 0 0 -13.5 -13.5 -14 -13 -15 -14 0 0 0 -13.6667 -13 -13 -12 -11 -13 0 0 0 0 0 0 0 0 0 -10.5 -10.5 0 -10 0 -11 -10.5 -10.5 -11.5 -11.5 -11 -11 0 -10 -10 -8.33333 0 -7.5 -7.5 0 0 0 -9 0 -9 0 -7.66667 -7.66667 0 0 0 0 0 0 0 0 0 -6 -6.5 -6.5 -7 -6 -6 0 0 0 -7 0 -7 -7 0 0 0 -5 0 0 -5.5 -5.5 -6 0 0 0 0 0 0 0 0 0 0 -4.5 -4.5 0 -4 0 0 -4 -2.5 -2.5 0 -2.5 -2.5 0 -2 -2.5 -2.5 -2 -2.5 -2.5 -2.5 -2.5 -3 -2 -2 -1 0 0 0 0 0 0 0 0 0 0 0.5 0.5 0 0 0 -1 0 -0.666667 -0.666667 0 0 0 0.5 0.5 -0.5 -0.5 0 0 1 0 0 1 0.666667 0.666667 0.5 0.5 0 0 0 0 0 0 0 0 0 2.5 2.5 0 0 0 3 3 3 0 2.5 2.5 4 3 3 4 4 4.3 4.3 4.3 0 0 4 4.5 4.5 4 4 4 4 3 0 0 0 0 0 0 0 0 0 0 0 0 0 4.25 3.5 3.5 0 0 0 0 0 0 0 0 0 0 0 0 0 0 0 0 0 0 0 0 0 0 0 0 0 0 0 0 0 0 0 0 0 0 0 0 0 0 0 0 0 0 0 0 0 0 0 0 0 0 0 0 0 0 0 0 0 0 0 0 0 0 0 0 0 0 0 0 0 0 0 0 0 0 0 0 0 0 0 0 0 0
0 0 0 0 0 0 0 0 0 0 0 0 0 0 0 0 0 0 0 0 0 0 0 0 0 0 0 0 0 0 0 0 0 0 0 0 0 0 0 0 0 0 0 0 0 0 0 0 0 0 0 0 0 0 0 0 0 0 0 0 0 0 0 0 0 0 0 0 0 0 0 0 0 0 0 0 0 0 0 0 0 0 0 0 0 0 0 0 0 0 0 -107 -107 0 -105 0 0 -106.167 -106.167 -106 -106 -105.5 0 -106 -106 -105.5 0 0 -104.833 -104.833 -104 -103.5 0 -104 -104 -103.833 -103.833 -103.5 0 -103.5 -103 -102 -102 0 -103.5 -103 -103 -102.5 -102 0 -101.5 -101 -101 -100.5 0 -101 -101 -100.5 0 -100.5 0 -100.5 -100 -98.5 0 -99 -99.3333 -99.3333 -99 -99 -99 -99 -99 -99 -99 -99 -98.5 0 0 0 0 -97.5 -97.6667 -96.5 -96.5 -97 -97 -96.8333 -96.8333 -96.5 -96.5 0 -95 -94.5 -94 0 0 -94.5 -94.5 -94.5 0 0 -94.25 -94 -94 -93.5 0 -94 -92.5 -92 0 -93 -92.5 -92 -92 -92 0 -92.5 -92 -92 -91.5 -91 0 -92 -91.5 -91 0 -90.5 -90 0 -90 -90 -90 -90 -90 0 -89 -89 -88.5 -88.3333 -88.3333 -89 -89 -88.5 -88 -86.5 0 -87 -87 -86.5 -86 0 -86.5 -85.5 0 0 0 -86 -86 -85 0 -86 -85.5 -85 -85 -84.5 0 -84 -84 0 -84.3333 -83.5 -83.5 0 -83 -83 -82.6667 -82.5 -82 -82 0 -82.5 0 0 0 0 -81 -81 -80.5 0 -81 -81 -79.5 0 -80 -80 -78.5 -78.5 -79 -79 -79 0 0 -79 -78.5 -78 -78 0 -77.5 -77 -77 -76.6667 0 -77.3333 -77 -77 -76.5 -76 -76 -76 -75.5 0 -76 -74.5 -74 0 -74.5 -74.5 -73 0 -74 -74 -73.5 -73 -73 -73 -72.5 -72 0 -73 -72.5 -72 -72 -72 -71.5 -71 -71 -71 0 -70 -70.5 -70.5 0 -70.5 -70 -70 -70 0 -70.5 -69 -69 0 -69.5 -69 -69 -69 -68.5 -68 -68 0 -68 -67 -65.5 0 -66 -66 -66 -66 0 -66.5 -65 -65 0 -65.5 -65 -65 0 -64.5 -64 -64 0 -63.5 -63 -63 -63 0 -63.5 -63 -63 0 -62.3333 -62 -62 -62 -61.5 -61 -61 -61 0 -61.5 0 -60 0 -61 -60.5 -60 -60 -59 -59 -59 -59 0 0 0 -58 -58 0 -57.5 -57 0 -58 -56.5 -56 0 -57 -57 -57 -56.5 -56.6667 -56.6667 -56 0 0 -55 -55 -55 0 -55.5 -54 0 -55 -53.5 -53.5 0 0 0 -53.5 0 -53 -53 -53 0 0 -52 -52 -51.5 -51 -51 -51 -51 -50.5 -50 -50 -50 0 -51 -50.1667 -48.6667 -48.6667 -49 -48.5 0 0 0 -48 -47.5 0 -48 -48 -48 -48 -48.1667 -48.1667 -47 -47.6667 -47.6667 -48.3333 -48.3333 -47 -47 -47 -46 0 -46.5 0 -45.6667 0 -46 -45.5 -45 -44.6667 -44.6667 -45 0 -44 -44 -44 -43 0 -43.5 -42 0 -43 -41.5 -41.3333 0 -41.3333 -42 -42 0 -41.5 -41 -40 0 -40.6667 -40.6667 -39.6667 -39.6667 -40 0 -40 -40 -40 -39.5 -39.5 -40 -39 -37.5 -38 -38.5 -38 -38 -37.2 0 -37 -36.3333 -36.3333 -37 -36 -36 0 -35.5 0 0 -37 -36.3333 -36.5 -36.5 0 0 -35 0 -36 0 0 0 -34.5 -34.5 -34 0 -34.5 -33 0 0 -33 -31 0 -32 -31.6667 -31.6667 0 -31.75 -31.75 -31.75 -31.3333 -31.3333 0 0 0 0 -30 0 0 0 -30 -30 -29.8333 0 -29 -29.5 -29.5 -29 -29 -28.5 -30.1667 -30.1667 0 0 -29 0 0 0 -27.5 -27.5 0 -27 0 0 0 0 0 0 -25 0 0 0 -26 -28 -25 -25 0 -25 0 0 -25 0 0 0 -24 -23.5 -23.5 -23.25 -25.6 -25.6 -24 -24 0 0 0 0 0 0 -21.8333 0 -22 -21 -23 0 -21 -21.5 -21.5 -21.25 0 -20.3333 -22.5 -21 -20 -22 -20.5 -20 0 0 0 0 0 0 0 0 0 0 0 0 0 0 0 0 0 -18.6667 -18.6667 0 -17.5 -17.5 -17 -17 0 -16.5 -16.5 0 -17.6667 -17.6667 0 -16 0 -17 0 -14.5 -14.5 -17 -16 -15 -17 -16 -16 0 0 0 0 0 0 0 -14 -16 0 -14 0 -13.5 -13.5 -14 0 -15 -14 -13 -13 -13 -14 -13 -12 0 0 -13 -11.5 -11.5 0 -11 0 0 0 -11 0 0 0 0 0 0 -11 -10.75 -10 -10 -10 -10 0 -10.5 0 -10.5 0 0 0 -8 0 -7.66667 -7.66667 -9 -9 0 0 0 0 0 -7.33333 -7.33333 -8.5 -8.5 0 0 0 0 -6 -6.66667 -6.66667 -7 -6.3 -6.3 0 0 -6 0 -5 -7 0 -5.66667 -5.66667 0 -5 -5.8 -5.8 -5.66667 -5.66667 0 -4 0 0 0 0 0 0 0 0 -4 -4.5 -4.5 0 0 0 0 -4.5 -4.5 -3 0 0 -3 0 -2 -2.5 -2.5 -2 -2.5 -2.5 -2.5 -2.5 -3 -2 -2 -1 0 -2 -2 -2 -2 -3 -1 0 0 -2 0 0 0 0 0 -1 0 0 -0.666667 0 0 0 0.5 0.5 -0.666667 -0.666667 0 0 0.5 0.5 0 1 0.666667 -0.25 -1 0 0 2 0 2 2 0 0 2 0 0 0 0 2.5 2.5 0 2.5 2.5 1.5 0 2 3.33333 3.33333 3 4 3 3 3 3.5 0 0 4 4.5 4.5 4 0 0 0 3 5 0 0 0 5 5 5 3.5 3.5 0 0 0 0 4.25 4.25 4.25 0 0 0 0 0 0 0 0 0 0 0 0 0 0 0 0 0 0 0 0 0 0 0 0 0 0 0 0 0 0 0 0 0 0 0 0 0 0 0 0 0 0 0 0 0 0 0 0 0 0 0 0 0 0 0 0 0 0 0 0 0 0 0 0 0 0 0 0 0 0 0 0 0 0 0 0 0 0 0 0 0 0
0 0 0 0 0 0 0 0 0 0 0 0 0 0 0 0 0 0 0 0 0 0 0 0 0 0 0 0 0 0 0 0 0 0 0 0 0 0 0 0 0 0 0 0 0 0 0 0 0 0 0 0 0 0 0 0 0 0 0 0 0 0 0 0 0 0 0 0 0 0 0 0 0 0 0 0 0 0 0 0 0 0 0 0 0 0 0 0 0 0 0 0 0 0 -108 0 0 -107 -106.167 -106 -106 -105.5 0 -106 -106 -105.5 0 -105 -105 -105 -104 -103.5 0 -104 -104.5 -104.5 -104.5 -104 0 -103.5 -103 -103 -103 0 -103.5 -103 -103 -102.5 -102 0 -103 -101 -101 -100.5 0 -101 -101 -100.5 0 -100.833 0 -100.5 -100.333 -100 0 -99.5 -99.5 -99.5 -98.8333 -98.8333 -99 -99 -99 -99 -99 -99 0 -98 -97 -97 0 -98 -98 -97.5 -97 -97 -97 -97 -97 -96.6667 -96.6667 0 -96.3333 -95.1667 -95.1667 0 0 -96 -94.5 -94.5 -94 -95 -94.5 -94.5 -94.5 0 0 -94 -94 -92 0 -93 -92.5 -92 -92 -92 0 -92.5 -92 -92 -91.5 0 -92 -92 -91.6667 -91 0 -90.75 -90.4 -90 -90 0 -90.5 -90 -90 0 -89.6667 -89.6667 -88.5 -88.3333 0 -89.5 -89.5 -88.5 -88 -88 -87.5 -87 -87 -86.5 -86 0 0 -86.5 0 0 0 -87 -86.5 -85 0 -86.3333 -85.5 -85 -85 -84.5 0 -85 -84 0 -84.5 -83.5 -83.5 0 -83 -83 -82.5 0 0 -82 0 -82.5 -82 -82 0 -82.6 -81 -81.6667 0 -81.5 -81 -81 -81 0 -80 -80 -79.5 -79 -79.3333 -79 -78.5 -79 0 -79 -78.5 -78 -78 0 -77.5 -77 -77 -76.6667 0 -77.3333 -77 -77 -76.5 0 -76 -76 -75.5 0 -76 -76 -76 0 0 0 -73 0 -74 -74 -73.5 -73 -73 -73 -72.5 -72 0 -73 -72.5 -72 -72 -72 -71.5 -71 -71 0 -72 -71.5 -71 -70.5 0 -70.5 -70 -70 -70 0 -70.5 -70 -69 0 -69.5 -69 -69 -69 0 -68 -68 -68 0 -68 -67 0 0 -66 -66 -65.5 0 -66 -65.3333 -65.3333 0 -65 -65 -65 -65 -64.5 -64 -64 -64 -63.5 -63 -63 -63 0 -63.5 -63 -63 0 -62.3333 -62 -62 -62 -61.5 -61 -61 -61 0 -61.5 -61 -60 0 -61 -60.5 -60 -60 -59 -59 -59 -59 0 -60 -58 -58 -58 0 -57.5 -57 0 -58 -56.5 -56 0 -57 -57 -57 -56.5 -56 -56.6667 -56 0 0 -55 -55 -55 0 -55.5 -54 0 -55 -53.5 -53.5 -53 0 -54 -53.5 -53 -53 -53 -53 0 0 -52 -52 -52 -51.5 -51 -51 -51 0 -50 0 -50 0 -50.1667 -50.1667 -49 -48.6667 -49 0 0 0 0 -48.5 -48.5 -48.5 0 -48.5 -48.5 -48 0 -48.5 -47 -47.3333 -47.6667 -48.3333 -47.5 0 -47 -47 -46 0 -46.5 -45.6667 -45.6667 0 -46 -45.5 -45 0 -44.6667 -45 0 0 -44 -44 -43 0 -43.5 -42.3333 0 -43 -41.5 -41 0 -41.5 -41.5 -41 0 -41.5 -41 0 0 0 -40.6667 0 -39.6667 0 0 -40 -40 -40 -39.5 -39.5 -40 -39 -38.5 -37.5 -38.5 -38.5 -38 -37.25 -37.25 -37 -36.6667 -36.6667 -37 -36 -36 0 0 0 0 -37 -36.3333 -36.3333 -36.5 -36.5 -36 -35 -37 0 -34 -36.5 0 -34.5 -34.5 -34 0 -34.5 -33.5 -33.5 0 -33.5 -33.5 -32 -32 -32 -32 -33.25 -33.25 -33.25 -32.5 -31.3333 0 0 0 0 0 0 0 0 -30 -30 -30 -29.8333 -29.8333 -30 -29.5 -29.5 -29 -29 -30.1667 -30.1667 -30.1667 0 0 -29 -28 0 0 0 0 0 0 0 0 0 -26.5 0 -26 0 -27.5 -27.5 0 -27.5 -27.5 -25 -25 0 -25 0 0 -25 -27 0 -24 0 -23.5 -23.5 -23.25 -25.6 -25.6 -24.1667 -24.1667 0 0 0 0 0 0 -21.8333 -21.8333 -22 -21 -23 0 -21 -21.25 -21.25 -21.25 -22 -20.3333 -20.3333 -21 0 -22 -20.5 -20 0 0 -21.5 -21.5 0 0 0 0 0 0 0 0 0 0 0 0 0 0 -18.6667 0 -17.5 -17.5 -17 -17 0 -16.5 -16.5 0 0 -17.6667 0 -16 0 -17 0 0 0 0 0 0 0 0 0 0 0 -15 -13.5 0 -14.5 -14.5 -14 -16 -15 -15 0 -13.5 -13.5 -14 -13 -15 0 -13 -13 -13 -14 -13 -12 -14 0 0 0 0 0 0 0 0 0 0 0 0 0 0 0 0 -11 -10.75 -10.75 -10.75 -10 -11 -11 -10 -10.5 -10.5 -8.5 0 0 -8 0 0 -7.66667 -9 0 -8 0 0 -8 -8 -7.33333 0 0 0 0 0 0 0 -6 0 -6.66667 -7 -6.3 -6.3 -6.3 0 -6 0 -5 -7 0 -5 -5.66667 0 -5 -5.8 -5.8 -5.8 -5.66667 0 -4 0 0 0 -4 -3.71429 -3.71429 -3.71429 -5 -4 -4.5 -4.5 0 0 0 0 -4.5 -4.5 -3.5 -3.5 0 -3 0 -2.5 -2.5 -3 -2.5 -2.5 -3 -2.5 -2.5 -3 -2 -2.5 -2.5 0 -2 -2.16667 -2.16667 -2.16667 -3 -1.5 0 0 -1 0 0 0 0 0 -1 0 0 0 0 0 0 0 0 0 -0.666667 0 0 0.5 0.5 0.5 -0.25 -0.25 -0.25 -1 0 -0.25 1.5 0 2 2 0 0 2 0 2.33333 2.33333 0 2.5 2.5 0 2.33333 2.33333 1.66667 1.5 2 2 3.33333 2.5 2.5 3 3 3 3.5 0 0 4 3.33333 4.33333 0 0 3.5 3.5 3 5 0 0 0 5 5 5 0 0 0 0 3.66667 0 0 3.8 3.8 3.66667 0 0 0 0 0 0 0 0 0 0 0 0 0 0 0 0 0 0 0 0 0 0 0 0 0 0 0 0 0 0 0 0 0 0 0 0 0 0 0 0 0 0 0 0 0 0 0 0 0 0 0 0 0 0 0 0 0 0 0 0 0 0 0 0 0 0 0 0 0 0 0 0 0 0 0 0 0 0 0 0 0
0 0 0 0 0 0 0 0 0 0 0 0 0 0 0 0 0 0 0 0 0 0 0 0 0 0 0 0 0 0 0 0 0 0 0 0 0 0 0 0 0 0 0 0 0 0 0 0 0 0 0 0 0 0 0 0 0 0 0 0 0 0 0 0 0 0 0 0 0 0 0 0 0 0 0 0 0 0 0 0 0 0 0 0 0 0 0 0 0 0 0 0 0 0 -108 0 0 -107 -106.5 -106 -106 -105.5 0 -106 -106 -105.5 -105 -105 -105 -105 0 0 0 -104 -104.5 -104.5 -104.5 -104 -104 -103.5 -103.4 -103 -103 0 -103.5 -103 -103 -102.5 -102 0 -103 -101 -101 -100.5 0 0 0 -100.5 0 -100.833 -100.833 -100.5 -100.333 -100.333 -100 -99.5 -99.5 -99.5 -98.8333 -99.1667 -99 -100 -99.1667 -99.1667 -99 -99 0 -98.6667 -98.6667 0 0 -98 -98 -97.5 -97 -97 -97 -97 -97 -97 -96.6667 0 -96.3333 -96.3333 -95.1667 -95 0 -96 -95.5 -95 -95 0 -94.5 0 -94.5 -94.5 0 -94 -94 -93.5 0 -93 -92.5 -92 -92 -92 0 -92.5 -92 -92 -91.5 0 -92 -92 -91.6667 -91 0 -92 0 -90 -90 0 -90.5 -90 -90 -89.5 0 -89.6667 -90 -88.3333 -88.3333 -89.5 -89.5 -88.5 0 -88 0 -87 -87 -87 -86.5 0 -87 -87 -86.5 0 0 0 -86.5 -85 0 -86.3333 -86.3333 -85 -85 -84.5 0 -85 -85 0 -84.5 -83.5 -83.5 0 0 -83 -83 -82.5 -82 0 -83 -82.5 -82 -82 0 -83 -81.6667 -81.6667 0 -81.5 -81 -81 -81 -80.5 0 -80 -79.5 -79 -79.3333 -79.3333 -79 -79 0 -79 -78.5 -78 -78 0 -77.8333 -77 -77 -77 0 -77.5 -77 -77 -76.5 0 0 -76 -75.5 0 -76 -76 -76 -75.5 0 -75 -73.5 -73.5 -74 -74 -73.5 -73 0 -73 -72.5 -72 0 -73 -73 -72.5 -72 -72 0 -71 -71 0 -72 -71.5 -71 -71 -71 -70.5 -70 -70 -70 0 -70.5 -70 -69.3333 0 -69.5 -69 -69 0 -70 -68 -68 -68 0 -68.5 -68 -68 0 -66 -66 -66 0 -66.5 -65.5 -65.5 0 -65.5 -65 -65 -65 -64.5 -64 -64 -64 0 -64.5 -63 -63 0 -63.5 -63 -63 -63 -62.5 -62 -62 -62 -61.8333 -61.5 -61 -61 0 -62 -61.5 -60.5 -60.5 -61 -60.5 -60 -60.3333 -60 -59.5 -59 -59 0 -59.5 -58 -58 -58 0 -57.5 -57 0 -58 -58 -56 0 -57 -57 -57 -56.5 -56 -56 -56 -55.5 -55.5 -55 -55 -55 0 -55.5 -54 0 -55 -53.8333 -53.8333 -53 0 -54 -53.5 -53 -53 -53 -53 0 0 -52 0 -51.5 -51 -51 -51 -51 -50.5 -50 -50 -50 0 -51 -50.5 -49 -49.3333 0 -48.5 -48.5 -48.5 -48.5 0 -49 -48.5 -49.5 -48.5 -48.5 0 -49 -48.1667 0 -47.3333 -47.3333 -48 -47.5 0 -47 -47 -46 0 -46.5 -45.5 -45.5 0 0 -45.1667 -45 0 -45 -45.5 -45.5 -44 -44 -44 -43.3333 0 -43.5 -42.3333 -42.3333 -43 -41.5 -41.3333 -41.3333 -41.3333 -41.3333 -41 0 -41.5 -42 -42 0 0 -42.5 -42.5 0 -41.5 -41.5 -40 -40.1667 -40.1667 -39.5 -39.5 0 -39.3333 -38.5 -38 -38 -38.5 -38 -37.25 -37.25 -37 -36.3333 -36.6667 0 -35.5 -35.5 0 0 -36 0 0 -38 -37 -36.5 -36 -36 -35.5 0 -36.3333 -36 -36 0 -34.6667 -34.6667 -34.3333 0 0 -33.5 -33.5 0 -33.5 -33.5 -32 -32 -32 -31.6667 0 0 -33.25 -32.5 -31.4 -31.4 0 -31.5 -31.5 -32 -30.5 -30.5 -31 -30.5 -30.5 0 -30.25 -30.25 -30.4 -29.5 -29.5 -29.3333 0 0 -30.1667 -28.5 0 0 -29 -28 0 0 0 0 0 0 0 -27 -27 -26.5 -26 -26.75 -26.75 -26.75 0 0 0 -28 -25.3333 -25 0 -25 0 0 -25 -27 0 -24 0 -23.5 -23.5 -23.25 -23.25 -25.6 -25 -24.1667 0 0 0 0 0 -24.5 -22.5 -22.5 -22.5 -21 -23 0 -21.6667 -21.6667 -24 -22 -22.3333 -20.5 -20.5 -21.3333 0 -22 -20.6667 -20 -19.5 0 0 0 -19.5 -19.5 0 -19 0 0 0 0 0 -18.8333 0 -18 -18 -18.5 -18.5 0 0 0 0 -18 -17.5 -16.5 -16.5 0 -16.5 -16.5 0 -16 0 -17 0 0 -19 0 0 0 0 0 0 0 0 -14.5 -13.5 0 -14.6667 -14.6667 -14 -16 -15 -14 0 -13.5 -13.5 0 -13 -15 0 -13.2 -13.2 -13.2 -14 -13 -12 -14 0 -12 -11.3333 0 0 0 0 0 0 -11 -11.4 -11.4 -11 -11 -10 -12 -11 -11 -11 -11 -12 -11.5 -11.5 -10.5 -10.5 -10.5 -8 0 0 -8 0 0 0 -9 0 -8.33333 0 0 0 0 0 0 -8.5 -8.5 -7.5 -7.5 -7.5 -7 -6 -8 -7 -7 -6.33333 -6.33333 -6.33333 0 0 0 -8 -7 -7 -5.5 -5.5 0 -5.5 -5.5 -6.5 -6.5 -6 -6 -5 -5 -5 -4 -4 -3.71429 -3.71429 0 -5 -4 -4.5 -4.5 -4 -4.5 -4.5 -3.33333 -4.66667 -4.66667 -3.5 -3.5 -4 -3 0 -2.5 -2.5 -3 -2.5 -2.5 -3 -2.5 -2.5 -3 -2 -2.5 -2.5 0 -2.5 -2.5 -2.16667 -2.16667 -3 -1.5 0 0 -1 0 0 0 0 0 -1 0 0 -0.5 -0.5 -1 -1 -1 -0.5 -0.5 -1 0 0 0.5 0.5 0 0 0 0 -1 0 -0.25 -0.25 0 2 2 0 0 0 0 0 2.33333 0 2.5 2.5 0 0 2.33333 1.66667 1.66667 2 2 3 2.5 2.5 2.83333 2.83333 0 3.33333 2.5 2.5 3.33333 3.33333 0 0 0 0 0 3 5 0 0 0 0 0 4 0 0 0 0 3.66667 3.66667 3.8 3.8 3.8 3.66667 0 0 0 0 0 0 0 0 0 0 0 0 0 0 0 0 0 0 0 0 0 0 0 0 0 0 0 0 0 0 0 0 0 0 0 0 0 0 0 0 0 0 0 0 0 0 0 0 0 0 0 0 0 0 0 0 0 0 0 0 0 0 0 0 0 0 0 0 0 0 0 0 0 0 0 0 0 0 0 0 0
0 0 0 0 0 0 0 0 0 0 0 0 0 0 0 0 0 0 0 0 0 0 0 0 0 0 0 0 0 0 0 0 0 0 0 0 0 0 0 0 0 0 0 0 0 0 0 0 0 0 0 0 0 0 0 0 0 0 0 0 0 0 0 0 0 0 0 0 0 0 0 0 0 0 0 0 0 0 0 0 0 0 0 0 0 0 0 0 0 0 0 -108 -108 0 -108 -106 0 -107 -106.5 -106 -106 -105.5 0 -106 -106 -105.5 -105 -105 -105 -105 -104 -104 -104 0 -104.5 -104.5 -104.5 -104 -104 -103.75 -103.4 -103 -103 0 -103.5 -103 -103 -102.5 -102 0 -103 -102.5 -101 -100.5 0 -101 -101 -100.5 0 -101 -101 -100.5 -100.5 -100.5 -100 -100.167 -100.167 -100 -99.1667 -99.1667 -99 -100 -100 -99.1667 -99 -99 0 -99.5 -98.6667 -99 0 -98 -98 -97.5 -97 -97 0 -98 -97.5 -97 -97 0 -96.6667 -96.6667 -95.5 -95 0 -96 -95.5 -95 -95 0 -96 0 -95 -95 0 -94 -94 -93.5 -93 -93 -92.5 -92.5 -92.5 0 -93 -92.5 -92 -92 -91.5 0 -92 -92 -91.5 -91 0 -92 -92 -90 -90 0 -90.5 -90 -90 -89.5 0 -90 -90 -89.1667 -89.1667 -89.6667 -89.6667 -89 -89 0 -89 -88.5 -87 -87 0 0 -87 -87 0 0 -87 -87 -86.5 -85 0 -86.5 -86.5 -85 -85 0 -85.5 -85 -85 -85 -84.5 -84 -84 -83.5 0 -83 -83 -82.5 -82 -82 -83 -82.5 -82 -82 0 -83 -82.5 -82 0 -81.5 -81 -81 -81 -80.5 0 -81 -79.5 0 0 0 -79 -79 0 0 -78.5 -78 -78 0 -77.8333 -77.8333 -77 -77 0 -77.5 -77 -77 0 -77.5 -77 -77 -76.1667 -76.1667 -76 -76 -76 -75.5 0 -76 -73.6667 -73.6667 0 -74 -73.5 -73 0 -74 -72.5 -72 0 -73 -73 -72.5 -72 -72 0 -72.5 -71 0 -72 -71.5 -71 -71 0 -71 -71 -70 0 -71 -70.5 -70 -69.3333 -69.3333 -69.5 -69 -69 0 -70 -68 -68 -68 0 -68.5 -68 -68 -68 0 -67 -67 -67 -67 -65.5 -65.5 0 -65.5 0 -65 -65 -64.5 -64 -64 -64 0 -64.5 -64 -63 0 -63.5 -63 -63 -63 -62.5 -62 -62 -62 -61.8333 -61.8333 -61.5 -61 0 -62 -61.5 -61 0 -61 -60.5 -60 -60.3333 -60.3333 -59.5 -59 -59 -59.5 -59 -59 -58 -58 0 -57.5 -57 0 -58 -58 -56 0 -57 -57 -57 -56.5 -56.5 -56.5 0 -55.5 0 -55.5 -55 -55 0 -55.5 -54 0 -55 -53.8333 -53.8333 -54 0 -54 -53.5 -53 -53 -53 -53 0 0 -52 -51.5 -51.5 -51.5 0 -51 -51 -50.5 0 -50 -50 0 -51 0 0 -49.3333 -49.3333 0 -48.5 -48.5 0 0 -49 -48.5 -49.5 -48.5 -48.5 0 -49 -48.5 -48 -47.5 -47.5 -48 -48 0 -47 -47 -46 0 -46.5 -45.5 -45.5 0 -45.1667 -45.1667 -45 0 -45 -45.5 -45.5 -44 -44 -44 -43.3333 -43.3333 -43.6 -42.5 -42.5 -43 -41.5 -41.6667 -41.6667 -41.5 -41.5 -41 0 0 0 -42 -42 0 0 -43 0 -41.5 -41.5 -40 -40.1667 -40.1667 -39.5 -39.5 0 -39.3333 -39.3333 -38 -38 0 0 0 -37.5 -37 -36.5 -36.5 -37.6667 -37.6667 -35.5 0 0 -36.5 -36.5 -37 -38 -37 -36.5 -36 -36 0 -35.5 -36.3333 -36.3333 -35 0 -35 -34.6667 -34.3333 -34.3333 -34.5 -33.5 -33.5 -34 -33.5 -33.5 -32 -32 -32 -32.6667 -32.6667 -33.5 -33.5 -32.5 -31.4 -31.4 0 -31.5 -31.5 -32 -30.5 -30.5 -31 -30.5 -30.5 0 -30.25 -30.25 0 -29.5 -29.5 -29.3333 -29.3333 0 0 -29.5 0 0 -29 -28.5 -28.5 -29 -28.1667 -28.1667 0 -27.3333 0 -27 -27 -26.5 -26 -26.75 0 0 -27 0 0 -28 -25.3333 -25 0 -25 0 0 -25 -27 -26 -24 -23 -25 -24.5 -24.5 -24 -26 0 -25 -22.5 -22.5 -23 0 0 -23 -24.5 -24 -22.5 -21 -23 -22.5 -22.5 -21.6667 -24 -22 -22.3333 -22.3333 0 -21.3333 -21.3333 -21 -20.6667 -20 0 -19.5 0 0 -19.5 -19.5 -20 -19.6667 -19.6667 -20.3333 -20.3333 -19.6667 0 -18.8333 -18.8333 -19 -18 -18.5 -18.5 0 0 0 0 -18 -17.5 -16.5 -16.5 -17 -16.5 -16.5 0 -16 0 -17.5 -17.5 -16.5 -19 -17 -16.5 -16.5 -17 -16 -15 -15.5 -14.5 -16 -13.5 0 0 -14.6667 -14 -16 -15 -14 0 -13.5 -13.5 0 -13 -15 -14.5 -14.5 -13.2 -13.2 -14 -13 -12 -14 -13 -12 -11.3333 -11.3333 0 -11.5 -11.5 -14 0 -11 -11.4 -11.4 -11 0 -10 -12 -11 -11 -11 -11 -12 -11.5 -11.5 -10.5 -10.5 -10.5 -8 0 0 -8 0 0 0 -9 0 -8.33333 -8.33333 0 -8 -8.5 -8.5 -8.5 -8.5 0 -8 -7.66667 -7.66667 -7 0 -8 -7 -7 0 0 0 0 0 0 -8 -7 -7 -7 -7 0 -5.5 -5.5 -6.5 -6.5 -6 -6 -5 -5 -5 -4 -4 -3.71429 -3.71429 -5 -5.25 -4 -4.5 -4.5 0 0 0 -3.33333 -3.33333 -4.66667 0 0 -4 -3 0 -2.5 -2.5 -3 -2.5 -2.5 0 -2.5 -2.5 -3 -2 -2.5 -2.5 -2 -2.5 -2.5 -2.16667 -2.66667 -3 -1.5 0 0 -1 0 -0.5 -0.5 0 0 -1 0 0 0 0 0 0 0 0 0 0 0 0 0.5 0.5 0 0 0 0 -1 0 -0.25 -0.666667 0 2 2 0 0 0 2 0 2 0 0 2 0 0 0 0 0 2 2 3 2.2 2.2 2.83333 2.83333 3.5 3.5 0 0 3.5 0 0 0 0 0 0 3 5 0 0 4 4 4 0 4.5 4.5 4 0 0 0 3.5 3.5 3.5 3.5 0 0 0 0 0 0 0 0 0 0 0 0 0 0 0 0 0 0 0 0 0 0 0 0 0 0 0 0 0 0 0 0 0 0 0 0 0 0 0 0 0 0 0 0 0 0 0 0 0 0 0 0 0 0 0 0 0 0 0 0 0 0 0 0 0 0 0 0 0 0 0 0 0 0 0 0 0 0 0 0 0
0 0 0 0 0 0 0 0 0 0 0 0 0 0 0 0 0 0 0 0 0 0 0 0 0 0 0 0 0 0 0 0 0 0 0 0 0 0 0 0 0 0 0 0 0 0 0 0 0 0 0 0 0 0 0 0 0 0 0 0 0 0 0 0 0 0 0 0 0 0 0 0 0 0 0 0 0 0 0 0 0 0 0 0 0 0 0 0 0 0 0 0 0 0 -108 -106 0 -107 -106.5 -106 -106 -105.5 0 -106 -106 0 0 0 0 0 0 0 0 0 0 0 0 -104 -104 0 -103.5 -103 -103 0 -103.5 -103 -103 -102.5 -102 0 -103 0 0 0 0 0 0 0 0 0 0 0 0 -101 0 0 -100.167 -100 0 0 0 -100 -100 -99.5 -99 -99 0 -99.6667 -99 0 0 0 0 0 0 0 0 -98 -97.5 -97 -97 0 -97.5 -96.6667 -97 -95 0 0 -95.5 -95 -95 0 -96 -95.5 -95 0 0 0 -94 -93.5 -93 0 -92.5 -92.5 -92.5 0 -93 -92.5 -92 -92 -91.5 0 -92 -92 -91.5 -91 0 0 0 -90 -90 0 0 0 0 0 0 -90 -90 -90 -89.1667 0 -89.6667 -89 -89 0 -89 -88.5 -88 -87 0 -87.5 -87 -87 -86.5 -86 0 -87 0 0 0 0 0 -85 -85 0 -85.5 -85 -85 -85 0 -84 -84 -83.5 0 -83 -83 -82.5 -82 0 -83 -82.5 -82 -82 0 0 0 0 0 0 -81 -81 -81 -80.5 0 -81 -81 0 -80 -80 -79 -79 0 -79 -78.5 -78 -78 0 -79 -78.5 -78 -77 0 -77.6667 -77 -77 0 -77.5 -77 -77 -77 -76.1667 -76 -76 -76 -75.5 0 -76 -76 -73.6667 -74 -74 -73.5 -73 0 0 -72.5 -72 0 -73 -73 -72.5 -72 -72 0 0 -71 0 -72 -71.5 -71 -71 0 -71 -71 -70 0 -71 -70.5 -70 -69.5 -69.5 -69.5 -69 -69 0 -70 -69.3333 -69 -68 0 -68.5 -68 -68 -68 0 -67 -67 -67 0 -67 -67 0 -65.5 -65 -65 -65 0 -64 -64 0 -65 -64.5 -64 -63 0 -63.5 -63 -63 -63 -62.5 -62 -62 -62 0 -62.5 -62 -61 0 -62 -61.5 -61 -61 -61 -60.5 0 0 0 0 -59 -59 0 -59.5 -59.5 -58 0 -59 -59 -57 0 -58 -58 0 0 0 -57 -57 -56.5 -56.5 -56.5 -56 -55.5 0 -56 -55 -55 0 -55.5 -54 0 -55 -54.1667 -54.1667 -54 0 -54 -53.5 -53 -53 0 -53 0 0 -52 -52 -52 -52 -52 -51 -51 -50.75 -50.4 -50 -50 0 -51.5 -51.5 -50 -50 -51 -51 -51 -49 0 0 -49 0 -49.5 -48.5 -48.5 0 -49 -48.5 -48.3333 -48.3333 -48 -48 -48 0 -47 -47 -46 0 0 -45.5 -45.5 0 -44.5 0 -45 0 -45 -45 -44.5 -44.5 -44.5 -44 0 0 0 0 0 -43 -41.5 0 -41.6667 -41.5 -41.5 0 0 -44 -42.5 0 -43 0 -42.5 -42.5 -40 0 -41 -40.5 -40.5 -41 -39.5 -39.5 0 -39.5 -39.5 -38.5 -38.5 -38.5 -38 -37.6667 -37.6667 -37.5 -36.5 -37 -37 -37.6667 -35.5 0 0 0 -37 -37 -37 -37 -36.5 0 0 0 -36 0 0 -35 0 0 0 0 0 0 0 0 0 -33.5 -33.5 0 0 0 0 -32.6667 -33.5 -33.5 -32.5 -31.4 -31.5 0 -31.5 -31.5 -32 -31.5 -31 -31 -30.5 -30.5 0 -30.5 -30.5 -29 -29.5 -29.5 -29.5 -29.5 0 0 0 0 0 0 0 -29 -29 0 -28.1667 0 -27.3333 -27.3333 -27 -27 -26.5 -26 0 0 0 0 0 0 0 0 0 0 0 0 0 -25 0 0 0 0 0 0 0 -24 -26 0 -25 -22.5 -22.5 -23 0 0 -23 -25 0 0 0 0 0 0 0 0 0 0 0 0 0 0 0 0 0 0 0 0 0 0 0 0 0 -19.6667 -20.3333 -19.6667 -19.6667 0 0 -19.5 -19 0 0 0 0 0 0 0 0 0 0 0 0 0 0 0 0 0 0 0 0 0 0 -16.5 -16.5 -17 -16 0 -15.3333 -15.5 -16 -16.6667 -15 -15 0 0 0 0 0 0 0 0 0 0 0 0 0 -13.5 -13.5 0 0 0 0 0 0 0 0 0 0 0 0 0 -11 -11.4 0 0 0 0 0 0 0 0 0 0 0 0 0 0 0 0 0 0 0 0 0 0 0 0 0 0 0 0 0 0 0 0 0 -8 -8 -7.66667 -7 0 0 0 -7 -6 -6 -6 0 -6.5 -6.5 0 0 0 0 0 0 0 -6 -6 0 0 -6 -4.5 0 0 0 -3.5 -3.5 -6 -5 -5.25 -5.25 0 -5 0 0 0 0 0 0 -3.5 -3.5 0 -3 0 0 0 0 0 -4 -4 0 0 0 0 -1.5 -1.5 0 0 0 -2.66667 -2.66667 -3 -1 -1.5 -1.5 0 0 -0.5 -0.5 0 0 -1 0 -1 0 0 -1 -1 -1 -0.5 -0.5 -1 -0.5 -0.5 0.5 0.5 -1 -1 -1 -1 -1 0 -0.666667 -0.666667 0 0 1 1 0 0 1 0 2 0 0 2 0 0 0 0 0 0 0 3 2.2 2.2 2.2 2.83333 3.5 3.5 0 0 3 3.5 5 0 0 0 3.5 0 5 0 0 0 3.5 3.5 0 0 3.5 4 0 0 0 3.5 3.5 3.5 3.5 0 0 0 0 0 0 0 0 0 0 0 0 0 0 0 0 0 0 0 0 0 0 0 0 0 0 0 0 0 0 0 0 0 0 0 0 0 0 0 0 0 0 0 0 0 0 0 0 0 0 0 0 0 0 0 0 0 0 0 0 0 0 0 0 0 0 0 0 0 0 0 0 0 0 0 0 0 0 0 0 0
0 0 0 0 0 0 0 0 0 0 0 0 0 0 0 0 0 0 0 0 0 0 0 0 0 0 0 0 0 0 0 0 0 0 0 0 0 0 0 0 0 0 0 0 0 0 0 0 0 0 0 0 0 0 0 0 0 0 0 0 0 0 0 0 0 0 0 0 0 0 0 0 0 0 0 0 0 0 0 0 0 0 0 0 0 0 0 0 0 0 0 0 0 0 0 -106.5 -106.5 -107 -106.5 -106 -106 -105.5 0 -106 -106 -105.5 -105 0 -106 -105.5 -104 0 0 0 0 0 0 -104 -104 0 -105 -103 -103 0 -103.5 -103 -103 -102.5 0 -103 -103 -102.5 -102 -101 -101 -101 -101 0 0 0 0 0 -100.5 -100.5 0 0 -102 -100 -100 -99.5 0 -100 -100 -99.5 -99 -99 0 -99.3333 -99 -99 -98.5 -98 -98 0 0 0 -98 -98 -97.5 -97 -97 0 -97.5 0 0 -96.6667 0 -96 -95.5 -95 -95 0 -96 -95.5 -95 -95 -94.5 0 -95 -95 0 0 -94 -92.5 -92.5 0 -93 -92.5 -92 -92 -91.5 0 -92 -92 -91.5 -91 0 -92 -92 -91.5 -90 0 -90.5 0 0 0 0 0 0 0 -89.5 0 -90 0 -89.5 0 0 0 -88 -88 0 -87.5 -87 0 -86.5 0 0 -87 -87 -86.5 0 -87 -87 0 0 0 -85.5 -85 -85 -85 0 -85.5 -84 -83.5 0 0 0 -82.5 -82 0 0 0 -82 -82 0 -83 -82.5 -82 0 0 0 0 0 0 0 -81 -81 -80.5 -80 -80 -79 -79 0 -79 -78.5 -78 -78 0 0 0 0 0 0 -77.3333 -77 -77 0 0 0 0 0 0 0 0 -76 0 0 -76 -76 -75.5 -75 0 -73.5 -73 -73 0 0 0 0 0 0 -72.5 -72 -72 0 -72.5 0 0 0 0 0 0 0 0 0 0 0 -71 0 0 -70 0 0 0 0 0 0 0 0 0 0 -68.5 -68 -68 0 0 0 0 -67 0 -67.5 -67 -67 0 -66.5 -66 0 0 0 0 0 0 0 0 0 0 -63.5 -63 -63 -63 -62.5 -62 -62 -62 0 0 0 0 0 0 0 0 0 0 0 0 0 0 -59.5 0 -59.5 0 0 0 0 0 -59 -59 0 0 0 -58 -57.5 0 -57 -57 -57 -56.5 -56 0 0 0 0 0 0 0 0 0 0 0 0 0 -54.1667 -54 -54 -54 -53.5 -53 -53 -53 -53 0 0 -53 -52 -52 0 0 0 0 0 0 -50.5 -50.5 -51 0 0 0 0 0 0 0 0 0 0 0 0 0 0 0 0 -49 -48.5 -48.3333 -48 -48 -48 -48 0 0 0 0 0 0 0 0 0 -47 0 0 0 0 0 0 0 0 0 0 0 0 0 0 0 0 0 0 0 0 0 -42 -44 -43.1667 -43.1667 0 0 0 0 -40 0 -41 -40.5 -40.5 0 0 0 0 0 0 0 0 0 0 0 -37.6667 0 0 -36.5 -37 0 -37 0 0 0 0 0 0 -37 -36.5 0 0 0 0 0 0 0 0 0 0 0 0 0 0 0 0 0 0 0 0 0 0 0 0 -34 -32.5 -31.5 -32 0 0 -32 -32 0 0 0 0 0 0 0 0 0 0 0 0 0 0 0 0 0 0 0 0 -29 0 0 0 0 0 0 -27 -27.5 -27.5 -27 -27 -27 0 0 0 0 0 0 0 0 0 0 0 0 0 0 0 0 0 0 0 0 0 0 0 -22.5 -22.5 -23 0 0 -23 -25 -23 0 0 0 0 0 0 0 0 0 0 0 0 0 0 0 0 0 0 0 0 0 0 0 0 -20 -20 -19.5 -19.5 0 0 -19.1667 -19 0 0 0 0 0 0 0 0 0 0 0 0 0 0 0 0 0 0 0 0 0 0 -16.5 -16.5 -17 -16 0 -15.3333 -15.3333 -16.6667 -16.6667 -17.25 -15.5 -15 -14 -16 0 -14 -14.5 -14.5 -14 0 -15 0 0 0 0 0 0 0 0 0 0 0 0 0 0 0 0 -14 0 -11 0 0 0 0 -12 -11 -11 -11 -11 -11 -12 0 0 0 0 0 0 0 0 0 0 -9 0 0 -11 0 0 -9 -8 0 0 0 0 -8 0 -8 -8 -7 0 -8 0 0 -5.5 -5.5 0 0 0 0 0 0 0 0 0 0 0 0 0 -7 -7 -7 -4.83333 -4.83333 -5 0 0 0 -6 -5 -5.25 -5.66667 -5 -5 0 0 -5 -3.5 -3.5 0 -3.5 -3.5 0 0 0 0 0 0 0 0 0 0 0 0 0 -2.5 -2.5 0 0 -4 -3 -3 -3 -1 -1.33333 -2 -2 0 -1.4 -1.4 -1.4 0 0 0 -0.5 -0.5 -1 -1 -1 -1 0 0 0 0 0 0 0 0 0 0 0 0 0 -0.5 -0.5 0 0 1.16667 1.16667 0 0 1 0 2 0 0 2 0 0 2 1.5 1 2 2 3 2 2 2 0 0 0 0 0 0 0 0 0 0 0 3.5 0 4.5 4.5 0 0 3.5 3.5 3.5 3.5 3.5 0 5 0 0 3.8 3.8 3.8 2 0 0 0 0 0 0 0 0 0 0 0 0 0 0 0 0 0 0 0 0 0 0 0 0 0 0 0 0 0 0 0 0 0 0 0 0 0 0 0 0 0 0 0 0 0 0 0 0 0 0 0 0 0 0 0 0 0 0 0 0 0 0 0 0 0 0 0 0 0 0 0 0 0 0 0 0 0 0 0 0 0
0 0 0 0 0 0 0 0 0 0 0 0 0 0 0 0 0 0 0 0 0 0 0 0 0 0 0 0 0 0 0 0 0 0 0 0 0 0 0 0 0 0 0 0 0 0 0 0 0 0 0 0 0 0 0 0 0 0 0 0 0 0 0 0 0 0 0 0 0 0 0 0 0 0 0 0 0 0 0 0 0 0 0 0 0 0 0 0 0 0 0 -108 -108 0 -108 -107.5 -107 0 -106.5 -106 -106 0 -106.5 -106.333 -106 -105.5 -105 0 0 -105.5 -104 0 0 -105.5 -105 -105 -105 -104.5 -104 0 -105 -103 0 0 -103.5 -103 -103 -102.5 0 -103 -103.333 -103 -102.667 -102.667 -101.5 -101.5 -101 -100.833 0 0 0 0 0 0 -101 0 -102 -100 -100 -99.5 0 -100 -100 -99.5 -99 -99 0 -99.5 -99 -99 -98.5 0 -98 -98 -97.5 0 -98 0 0 0 -97 0 -97.5 -97 -97 -96.3333 -96 -96 -96 -95.5 0 -96 -96 -95.5 -95 -95 -94.5 0 -95 -95 -94.5 0 0 0 0 0 0 0 -92 -92 -91.5 0 -92 -92 -91.5 -91 0 -92 -92 -91.5 -91 -91 -90.8333 -90 -90 0 0 -90 -90 -90 0 0 0 0 -89.5 -89 -89 -89 -89 -88 -88 -87.5 -87 -87 -86.5 0 -87 -87 -87 -86.5 0 -87 -87 -86.5 -86 0 0 0 0 0 0 0 0 0 0 0 -83.5 -83.5 -82 0 -83 -82.5 -82 -82 0 -83 -82.5 -82 -82 0 -81 0 -81 -80.5 0 0 0 0 0 0 -79.1667 -79.1667 0 -79 -79 -78.5 -78 0 -79 -78.5 -78 0 0 0 -77 -77 -76.5 0 -77 -77 -77 -76.5 -76 -76 0 0 0 0 0 0 0 0 -75 -73 0 -74 -74 -73.5 0 -73 0 -72.5 -72 -72 0 -72.5 0 -72 -72 -71.5 -71 -71 0 -72 -71.5 0 0 -71 -70.5 -70 -70 -70 0 -69 -69 0 -70 -69.5 -69 -68 0 -68.5 -68 -68 -68 0 -67 -67 0 0 0 0 0 0 0 0 0 0 0 -65 0 -65 -64.5 -64 -63 0 -63.5 -63 -63 -63 -62.5 0 0 0 0 -62.5 -62 -62 0 0 0 0 0 0 -60.5 -60 -60 0 -59.5 0 -59.5 0 -60 -60 -58 0 -59 -59 -58.5 0 -58 0 0 0 0 -57 0 0 0 0 0 0 -56.5 -56 -56 -55 0 -55.5 -54.5 -54.5 -55 -55 -54.5 -54 -54 -54 0 0 0 0 0 0 0 0 -52 -52 0 0 -52 -52 -52 0 -53 -52.1667 -51 0 -52 -52 -51.5 -51 -50 -51 -49 0 0 -49 0 -49.5 -48.5 -48.5 0 0 0 0 -48 -48 -48 0 0 0 -47 -46.6667 -46.6667 0 -45.5 -45.5 0 -46.5 -45.5 -45 -45 -45 -45 -45 -45 0 -44 0 0 0 0 0 0 0 0 -43.5 -43.5 -43.5 -43 -42 -44 -42.8333 -42.8333 -42 -42 -41.6667 -41.6667 0 0 -41 -40.6667 -40.6667 0 -39 -40 0 -39.5 -39.5 0 0 0 0 0 0 -38 -38 0 0 0 0 0 0 0 -37 -37 0 -37.5 -37.5 -36 -36.3333 -36.3333 -36 -36.3333 0 -35 0 -35 0 -34.5 -34.5 -34.5 0 0 0 -33.5 -33.5 -33 -33 -33 -34 -33 -33.5 -33.5 -32.5 -32 -32 -33.5 -33.5 -32 -32.25 -32 -31.5 -31 0 -31 0 -30.5 -30.5 0 -32 -32 0 0 0 0 -29.5 0 0 -29 0 -29 0 0 0 0 0 0 -27 -27.75 -27.75 -27 -27 -27 0 -27 0 0 -27 -25.9 -28 0 0 0 0 0 -27 -26 -25 -25 -25 -26 -25 -24 0 -25 -25.5 -25.5 -23 -23 0 0 0 -25 -23 -22.5 0 -22.6667 -22.6667 0 -22.5 -22.5 -22 -24 0 0 0 0 -21 -20.5 -20 0 0 0 0 0 -20 -22 0 -20 -20 -19 -21 0 -19.1667 -19.1667 -19.4 -19.4 -19.5 -19.5 -20 -19 -18 -20 -18 0 0 -17 0 0 0 0 0 0 0 0 -17 -19 -17.5 -16 -16.5 -16.5 -16 -15 -17 -16 -17.25 -17.25 -17.25 -15.5 -15 -14 -16 0 -14 0 0 -14 0 -15 -14.5 -14.5 -15 -13.5 -13.5 0 -13 0 -14 0 -13.5 -13.5 -12 -12.5 -12.5 -12 -14 0 -11 0 0 0 0 -12 -11 -11.5 -11.5 -11.5 -11.5 -12 -11 0 -12 -11 -11 -11 -9 0 0 -10 0 0 0 -11 -8.5 -8.5 0 -8 0 0 0 -10 0 -10 -8.5 -8 -7.4 0 -8 -7 -8.25 -8.25 -8.25 0 0 -6.5 -6.5 0 -6 0 0 -6.33333 0 0 -7.5 -7.5 0 0 0 -4.83333 -7 -5 -5 0 0 -6 -5 -5.66667 -5.66667 -4.5 0 0 0 0 0 -4 0 -3 -3 -3.66667 0 -4.66667 -2.5 -2.5 0 0 0 -4 -4 -3 -3 0 -2.5 -2.5 -2.5 -2.5 -3.5 -3.5 -3.5 -3.5 -2.5 -1.33333 -1.66667 -2 0 0 -1 -1.4 0 -1 0 -0.5 -0.5 0 -1 -1 -1 0 -1 -1 0 0 -1 0 -1 -1 -1 -0.5 0 0 -0.5 -0.5 1 0 1.16667 1 0 0 1 0 1.5 1.5 0 1.5 1.5 0 2 1.5 1.5 2 2 3 1.75 1.75 1.75 2.5 0 3.5 0 0 3.5 0 3.5 3.5 3.5 0 0 0 0 0 0 0 0 0 3.5 3.5 3.5 4 0 0 0 0 3.8 3.8 2.83333 0 0 0 0 0 0 0 0 0 0 0 0 0 0 0 0 0 0 0 0 0 0 0 0 0 0 0 0 0 0 0 0 0 0 0 0 0 0 0 0 0 0 0 0 0 0 0 0 0 0 0 0 0 0 0 0 0 0 0 0 0 0 0 0 0 0 0 0 0 0 0 0 0 0 0 0 0 0 0 0 0
0 0 0 0 0 0 0 0 0 0 0 0 0 0 0 0 0 0 0 0 0 0 0 0 0 0 0 0 0 0 0 0 0 0 0 0 0 0 0 0 0 0 0 0 0 0 0 0 0 0 0 0 0 0 0 0 0 0 0 0 0 0 0 0 0 0 0 0 0 0 0 0 0 0 0 0 0 0 0 0 0 0 0 0 0 0 0 0 0 0 0 -108 -108 0 -108 -107.5 -107 0 -106.5 -106 -106 0 -106.5 -106.333 -106.333 -105.5 -105 0 0 -105.5 -105 0 0 -105.5 -105 -105 -105 -104.5 0 0 -105 -104.5 0 0 -103.5 -103 -103 -102.5 0 -103 -103.333 -103.333 -103 -102.667 -101.5 0 -101.5 -100.833 -100.833 0 -102 -102 -102 0 -101 0 -102 -101.5 -100 -99.5 0 -100 -100 -99.5 -99 -99 0 -99.5 -99 -99 -98.5 0 -98 -98 -97.5 0 -98 -98 -97.5 -97 -97 0 -97.5 -97 -97 -96.3333 -96 0 -96 -95.5 0 -96 -96 -95.5 -95 -95 -94.5 0 -95 -95 -94.5 0 -95 -95 -93.5 -93 0 -92.5 -92 -92.3333 0 -92.5 -92 -92 -91.5 -91 0 -92 -92 -91.5 0 0 -90.8333 -90.8333 -90 0 -90.5 -90 -90 -90 0 -90.5 -90 -90 -89.5 -89 -89 -89 -89 -88.3333 -88 0 -87 -87 -86.5 0 -87 -87 -87 -86.5 0 -87 -87 -86.5 -86 0 -85.5 -85 -85 -85 -86 -85.5 -85 -85 -84.5 -84 -83.6667 -83.6667 -83.6667 0 -83 -82.5 -82 -82 0 -83 -82.5 -82 -82 0 -82.5 -82 -82 -80.5 -81.5 -81 -81 -80.5 0 -81 -81 -79.5 -79 -79 -79 -78.5 -78 0 -79 -78.5 -78 -78 -78 0 -77 -77 -76.5 0 -77 -77 -77 -76.5 -76 -76 -76 -75.5 0 -76 -76 -75.6 -75.25 0 -75 -74.5 -74 -74.5 -74 -73.5 -73 -73 -73 -72.5 -72 -72 0 -73 -72.5 -72 0 -71.5 -71 -71 0 -72 -71.5 -70.5 0 -71 -70.5 -70 -70 -70 0 -69 -69 0 -70 -69.5 -69 -69 -69 -69 -69 -68 -68 0 -67.5 -67.5 -67 0 -67.5 -67 -67 -67 -66.5 -66.5 -66 -66 0 -65.5 -65 0 -66 -65.5 -64.5 0 -64 -63.5 -63 -63 0 -62.5 -62.5 -62 0 -62.5 -62 -62 0 -62 -61.5 -61 -61 0 -60.5 -60 -60 0 -59.5 -59 -59 0 -60 -60 -58 0 0 -59 -58.5 -58 0 -58 -58 -57.5 0 -57 -57 0 -57.5 -57 -56 0 -57 -56.5 -56 0 -56 -55.5 -55 -55 0 -55 -54.5 -54 -54 -54 -53.5 -53 0 -54.3333 -53 -52.5 0 -53 0 0 0 0 -53.5 -52.5 -52.5 -53 -52 -52 -51.3333 0 -52 -52 -51.5 -51 -51 -51 -50 -50 -50 -50 -50 -50 0 -49 -49 -49 -49.3333 -48.5 -48 0 0 0 0 0 -47 -46.5 -46.5 0 -45.5 -45.5 0 0 -45.5 -45 -45 -45 -45 -45 -44.8333 -44.8333 0 0 0 -45 -42.8 -42.8 -43.5 0 0 -44 0 0 0 -42 0 -42.5 -42 -42 -42 -42 -42 0 -41 0 0 -41 0 -39.5 -39.5 -39.5 -39.5 -40 -40 -38.5 -38.5 -38 -40 -38.5 -38 -38 -37.3333 -38.25 -38.25 -38.25 -38.3333 0 0 -37 -37 0 -37.5 -37.5 -36 -36.6667 -36.6667 -36 -36.5 -36.5 -35.5 0 0 -36 -34.5 -34.5 -34.6667 -33 0 0 0 -34.5 -34.5 -33.5 -33.3333 -33.3333 0 -35 -34 -33.3333 -32.5 0 0 0 -32 -32.25 -32 -31.5 -31 0 -31 0 0 -31.3333 -30 -30 -32.5 -31 -30 -30.5 -30.5 -31.5 -31.5 0 0 0 -29 -29 0 -28.5 0 -27.6667 -27.6667 -27 -27.75 -27.75 -27.75 0 -27 0 -27 0 0 -27 -25.9 -25.9 -26 -25.5 -25.5 -26 -25.3333 -25.3333 -26 0 0 0 0 -25 -24.6667 -24.6667 -25 -25.5 -25.5 -23.5 0 0 0 0 -25 -23 -22.5 0 0 -22.6667 0 -22.5 -22.5 -22 -24 -23 -21 -21.5 -21.5 0 0 0 0 -21 -21 -21 0 -20 -22 0 -20 -20.5 -20.5 -21.3333 0 0 -19.5 -19.4 -19.4 0 0 -19 -19 0 -20 -18 0 0 -17 -17 0 -17 -17 -17 -17 -17 -17 -19 0 -17.5 -16 -16.6667 -16.6667 -16 0 -17 0 -17.25 -17.25 -17.25 -15.5 -15 -14 -16 0 -14 0 0 -14 0 0 -14.5 -14.5 -15 -13.5 -13.5 0 0 0 0 0 -13.5 -13.5 -13.5 -13.5 -13 -12 -14 0 -11.3333 0 0 -12 0 -12 -11 0 0 -11.5 -11.5 -12 0 0 -12 -11 -11 -11 -9 0 0 0 0 0 0 0 -8.5 0 0 0 -10 -8.5 -8.5 0 0 -10 -8.5 -8 -7.4 -7.4 -8 -7 -6.5 -6.5 -8.25 -7.5 0 -7.5 -7.5 0 -6 0 0 -6.33333 -6.33333 0 0 0 0 0 0 -7 -6 -6.5 -6.5 -6.5 0 -6 -5 -4.33333 -4.33333 -4.5 -5 -3.5 -3.5 0 0 0 0 -3 -3.66667 -3.66667 -4.66667 -4.66667 -3 -3 -3 0 0 -4 -4 -3 -3.5 -3.5 0 0 0 0 0 0 -3.5 -3.5 0 -1.66667 -1.66667 -2 0 0 -1.33333 -1.4 0 0 0 0 -1 0 -1 -1 -1 -2 0 -1 0 0 0 0 -1 -1 -1 -0.666667 0 0 -0.5 -0.5 1 0 0 1 0 0 1 0 1.16667 1.16667 0 0 0 1 1.5 1.5 1.5 2 2 3 1.5 1.5 1.75 2.5 0 3 3 0 3.5 0 3.5 3.5 3.5 0 3 3 0 4.4 3.75 0 0 0 3.5 3.5 3 4 4 5 0 0 2.83333 0 2.83333 0 0 0 0 0 0 0 0 0 0 0 0 0 0 0 0 0 0 0 0 0 0 0 0 0 0 0 0 0 0 0 0 0 0 0 0 0 0 0 0 0 0 0 0 0 0 0 0 0 0 0 0 0 0 0 0 0 0 0 0 0 0 0 0 0 0 0 0 0 0 0 0 0 0 0 0 0 0 0 0 0
0 0 0 0 0 0 0 0 0 0 0 0 0 0 0 0 0 0 0 0 0 0 0 0 0 0 0 0 0 0 0 0 0 0 0 0 0 0 0 0 0 0 0 0 0 0 0 0 0 0 0 0 0 0 0 0 0 0 0 0 0 0 0 0 0 0 0 0 0 0 0 0 0 0 0 0 0 0 0 0 0 0 0 0 0 0 0 0 0 0 0 0 -108.5 0 -108 -107.5 0 0 -108 -106 0 -107 -106.5 -106.5 -106.5 -105.333 0 0 0 -107 -105 0 0 -105.5 -105 -105 -105 -104.5 0 -105 -105 -104.5 -103.667 -103.667 -103.5 -103 -103 -102.833 0 -103 -103.667 -103.667 -103.5 -103 -103 -102.5 -102 -102 -101.5 0 -102 -102 -102 -101.5 -101 -102 -102 -101.5 -101 -99.5 -100.5 -100 -100 -99.5 -99 0 -100 -99.5 -99 -99 0 -100 -99.5 -98 -97.5 0 -98 -98 -97.5 -97 0 0 -97.5 -97 -97 -96.5 -96 0 -96 -95.5 -95 0 -96 -95.5 -95 -95 0 -95.5 -95 -95 -94.5 0 -95 -95 -95 0 0 0 -92 -92.3333 -92.3333 -92.5 -92.3333 -92.5 -91.6 -91.25 0 -92 -92 -92 -92 0 -92 -90 -90 0 -90.5 -90 -90 -90 0 -90.5 -90 -90 -89.5 -89 -89 -89 -89 -88.3333 -88.3333 0 -88.5 -87 -86.5 0 -87 -87 -87 -86.5 0 -87 -87 -86.5 -86 -86 0 0 -85 -85 -86 -85.5 -85 -85 -84.5 -84 -84 -83.6667 -82 0 -83 -82.5 -82 -82 0 -83 -82.5 -82 -82 0 -82.5 -82 -82 0 -81.5 -81 0 -80.5 0 0 -81 -79.1667 -79 -79 -79 -78.5 -78 0 -79 -78.5 -78 -78 -78 0 -77 -77 0 -78 -77.5 -77 -77 -76.5 -76 -76.3333 0 0 0 -76 -76 -75.6 -75.25 0 -76 -74.5 -74 0 -74.5 -73.5 -73 -73 -73 -72.5 -72 -72 0 -73 -72.5 -72 0 -71.5 -71 -71 0 -72 -71.5 -71 -70.5 -71 0 -70 -70 -70 0 -70.5 -69 0 -70 -69.5 -69 -69 -69 -69 -69 -68 -68 0 -68.5 -68 -67 0 -67.5 0 0 0 0 0 -66.5 -66 0 -66.5 -65.5 0 -66 -65.5 -65 -64.5 -65 -64 -63.5 -63 0 -62.5 -62.5 -62 0 -63 -62.5 -62 0 0 0 0 0 0 -62 -60 -60 0 -59.5 -59 -59 0 -60 -60 -58 0 -59 -59 -58.5 -58 0 -58 -58 -57.5 0 -57.6667 -57.6667 0 0 0 -56 0 0 -56 -56 -55 0 -55.5 -55 0 0 -55 -54.5 -54 -54 -54 -53.5 -53 0 -54.3333 -54.3333 -54 -53.5 0 -54 -53 -53 0 0 -52 -52 -53 -52.1667 -52.1667 -51.3333 -51.3333 -52 -52 -51.5 -51 -51 -51 -50 -50 -50 -50 -50 -50 -50 -49 -49 -49 -49.3333 -49.3333 -48 -48 -48 -48 0 0 -47 -47 -46.6667 0 -45.5 -45.5 -46.5 0 -45.5 -45 0 -45 -45 -45 -44.8333 -45 -45 0 0 -43.5 -42.8 -42.8 -42.8 -43.5 -44 -44 -44 -44 -43 -43 -43 -42.5 -42 -42 -42.3333 -42 -41.6667 0 0 -41 -41 -40.6667 0 -39.5 -39.5 -39.5 -39.5 -40 -40 -38.5 -38.5 0 -39 -38.5 -38 -38 -37.3333 -37.3333 -40 -38.25 -38.3333 -38.3333 0 -37 -37 0 -37.5 -37.5 -36 -36.3333 -36.6667 -36 -36.3333 -36.3333 -35 0 0 -36 -34.5 -34.5 -34.5 -33.5 -33.5 0 -35.5 -35.5 0 -33.5 -33.3333 0 -33 -35 -34 -33 -32.5 -32 0 -33 -32 -32.25 -32.25 -31.5 -31 0 -31 0 -32 -31.3333 -31.3333 -30 -30 -31 -30 -30.5 -30.5 -32 -32 0 0 0 -29 -29 0 0 0 0 -27.6667 -27 -27.75 -27.75 -29 0 -27.5 -27.5 -27 -29 0 -27 -25.9 -25.9 -26 -25.5 -25.5 -26 -25.3333 -26 -26 0 0 0 0 -25 -25 -24.6667 0 -25.5 -25.5 -23.5 -23 0 0 0 -25 -23 -23 -23 0 -23 0 -22.5 -22.5 -22 -24 -23 -21 -21.5 -21.5 0 0 0 0 -21 -21 -21 0 0 -21 0 -20 -20.5 -20.5 -21.3333 -21.3333 -18.5 -19.5 -19.4 -20 -20 0 -19 -19 0 -20 -18 0 0 -17 -17 0 -17 -17 -17 -17 -17 -17 -19 0 -16 -16 0 -16.6667 -16 0 -17 0 -15.5 -15.5 -17.25 -15.5 -15 -14 -16 0 -14 0 -14.6667 -14 -16 0 0 -15.5 -15.5 -13.5 -13.5 0 0 0 0 0 -12 -14 -13.5 -13.5 0 0 0 0 -11.3333 -11.3333 0 -12 0 -12 -11.5 -11.5 0 -11.6667 -11.6667 -12.3333 -11 0 -12 -11 -11 -12 -10.3333 0 0 -9.33333 -9.33333 0 0 0 0 -8.5 0 -9 -9 -9 -10 -9.5 -9.5 -10 -8.5 -8 -7.4 -7.4 -8 -6.66667 -7 -7 0 -8 -7.33333 -7.5 -7.5 0 -6.5 -6.5 0 -6.5 -6.5 -7 -6.5 -6.5 0 -7.5 -7.5 -7 -6 -6.5 -6.5 -6.5 0 -6 -5 -4.33333 -6 -5 -5 -3.5 -3.5 0 0 -4 0 0 -4 -4 -4.33333 -4.33333 -4 -4 -4 -3 -5 -4 -4 -3 -3.5 -3.5 0 -2.5 -2.5 -3.66667 -3.66667 -4 0 0 0 -2.5 -1.33333 -2 0 0 -1.33333 -1.33333 0 0 -2 -0.5 -0.5 -1 -1 -1 -1 -2 -1 -1 0 -1 -1 -0.5 -0.5 -1.5 -1.5 -1 -1 0 0 -1 1 0 0 1 0 0 1 0 1.16667 1.16667 1 1.5 1.5 1 1.5 1.5 1 2 1.83333 1.83333 0 0 1 2.5 0 3 3 0 0 2.5 2.5 3.33333 3.33333 0 3.5 3.5 4.4 4.4 3.75 0 0 0 3.5 3.5 3 4 4 5 0 0 2.83333 2.83333 2.83333 0 0 0 0 0 0 0 0 0 0 0 0 0 0 0 0 0 0 0 0 0 0 0 0 0 0 0 0 0 0 0 0 0 0 0 0 0 0 0 0 0 0 0 0 0 0 0 0 0 0 0 0 0 0 0 0 0 0 0 0 0 0 0 0 0 0 0 0 0 0 0 0 0 0 0 0 0 0 0 0 0
