0 0 0 0 0 0 0 0 0 0 0 0 0 0 0 0 0 0 0 0 0 0 0 0 0 0 -22.8333 0 0 0 0 0 0 0 0 0 0 0 0 0 0 0 0 0 0 0 0 0 0 0 0 0 0 0 0 0 -28.8212 -28.8212 -28.8212 0 0 0 0 0 0 0 0 5.41667 5.41667 0 -28.8212 -28.8212 -28.8212 -50 0 5.3 5.3 10.4667 42.6667 0 0 0 -3.03571 31.2963 31.2963 30.125 -3.03571 -3.03571 -3.03571 3.33333 25.1455 16.3509 16.3509 -28.8212 27.5424 15.6667 15.6667 0 0 0 0 0 -28.8212 0 0 15.6667 15.6667 0 0 0 0 32.5714 32.5714 32.5714 0 11.7778 27.5424 27.5424 15.6667 0 0 0 0 -28.8212 -28.8212 -28.8212 16.3509 43.0833 0 0 0 0 13.6833 13.6833 13.6833 13.6833 9.94145 0 0 0 0 0 0 0 0 0 0 0 0 0 0 0 0 0 0 0 0 41.75 41.75 40 0 45.8889 45.8889 45.8889 45.8889 0 46.0667 48.9048 48.9048 46.0667 45.3434 45.3434 45.3434 45.3434 0 45.3333 44.5 46 46 46 46.3333 43 0 0 0 42.1667 43.4 39.8 44.3333 44.3333 0 0 0 48 48 48 42.0833 42.0833 42.0833 47.25 47.25 48 41.3 41.3 41.3 41.3 45.3333 45.3333 43.3333 45.3333 39.75 39.75 38 38.4 39 39 44.1667 44.1667 42 34.5 40.381 44 36.5 36.5 35.8571 37 36.5 0 38.5 38.5 0 38.2 38.2 38.2 0 0 36.6667 37.1667 34.5 27.6667 32.4 34.5 34.5 36.5 31 31.25 31.25 31.25 0 31.4 34 0 0 0 0 27 27 27 28 0 0 0 0 0 22 22 21.5 23.1667 19 19 19 19 0 0 0 0 0 13.5 13.5 0 0 0 0 11 0 0 0 0 0 0 0 0 0 0 0 0 0 0 0 0 0 0 0 0 0 0 0 -8.57143 0 0 -8.91667 -8.58974 -8.58974 -9.61111 -8.91667 37.3056 -5.57143 -6.5 -19.4 -13.25 -19.4 -13.25 -9.8 -12.9732 -19.4 -8.5 -19.4 -9.25 0 -6 -15 -6.42857 -6.42857 -6.42857 0 -6.42857 -7.66667 -8 -8 0 0 -5.5 -5.5 0 0 0 -7.16667 0 -6.5 -6.5 -6 0 0 -6.5 -6.5 0 0 -7.16667 -7.16667 0 0 0 0 -7.33333 -9.25 -7 -7 0 -8 0 0 -8 0 -8.16667 0 0 0 -10 0 -10 0 -11 -10 0 0 0 0 0 0 -15 0 0 0 0 -13.25 0 -13.25 -14.6667 18.3333 0 0 0 0 0 0 -19.75 0 0 0 0 0 0 0 0 0 0 0 0 0 0 0 0 0 0 20.5 20.5 0 0 0 0 0 0 0 0 0 0 0 0 -1 -8.125 -8.125 -8.125 -8.125 -41.5 -57.6667 -57.6667 -58 0 0 0 0 -71.6667 -71.6667 -76.5 0 -49.7193 -53.1111 -49.875 -63.8654 -63.8654 -61.9643 -54.3333 0 -62.9524 -56.7636 -56.7636 -59.5357 -60.8 -58.125 -60.3 -60.5 -61 -59 -68.5 -64 -53.4667 -68.5 -68.5 -44.2857 -56.1111 -53.4667 -53.4667 -81 0 -38 0 0 -38.5 -38.5 -40.3333 0 -41 0 0 -52 0 -39 -51 0 0 0 0 -31.5 0 0 -43.6667 0 0 0 0 -36 -36 0 0 0 0 0 0 0 0 0 -49 0 0 0 0 0 0 0 0 0 0 0 -54.5778 0 -50.75 0 0 -45.8333 -54.5778 -56.75 -45.8333 0 -52.25 -52.25 -52.7333 -54.3333 -54.3333 -54.3333 -55.6667 -41.5 0 -54.6182 -55.3889 -55.3889 -54.75 -63 -58.0833 0 0 -56.75 -60.5 -53 -49.5 -60.5 -53 -53 -46.3333 -60.5556 -52.1 -57 -57 -57 -46 -46 -46 -50.5556 0 -53.9 -53.9 -50.5556 -50.5556 -50.5556 -55 -55 -56.6667 -55.8 -57 -54.0833 -54 -54.5 -58 -65.5 0 0 0 -48.8333 -37.4 -50.5 -50.5 -48.8333 -48.8333 -15.7143 -15.7143 0 0 0 0 0 0 0 -65.5 0 0 -65.5 -65.5 -53.125 -49.4583 -49.4583 -42.9231 -42.9231 -42.9231 -42.9231 -54.075 0 -82 -59.7571 -59.7571 -59.7571 -62.7 -62.7 -46.1 -46.1 -57.3727 -59 -57.3727 -49.4722 -44.5 -49.4722 -62.6667
0 0 0 0 0 0 0 0 0 0 0 0 0 0 0 0 0 0 0 0 0 0 0 0 0 0 0 0 0 0 0 0 0 0 0 0 0 0 0 0 0 0 0 0 0 0 0 0 15.4545 15.4545 1 0 0 0 0 0 0 0 16.3509 0 0 0 0 0 0 0 0 0 0 32.2174 -28.8212 13.6833 13.6833 -50 -14.1941 -14.1941 -14.1941 10.4667 -86.25 0.78 0.78 0 0 0 31.2963 31.2963 -3.03571 -30.0166 25.354 -14.1941 25.1455 25.1455 16.3509 16.3509 0 -28.8212 -28.8212 0 0 0 16.3509 15.6667 32.5714 32.5714 32.5714 -28.8212 15.6667 32.5714 32.5714 0 0 32.5714 32.5714 32.5714 32.5714 27.5424 27.5424 27.5424 30.8333 0 0 0 0 0 -28.8212 0 0 29.5 29.5 32.5714 32.5714 25.354 -30.0166 -30.0166 -30.0166 50.5357 -9.66667 0 0 0 0 0 0 0 0 0 0 0 0 0 0 0 0 0 0 0 0 41.75 41.75 39.7143 44.042 45.8889 45.8889 44.042 44.042 0 46.0667 48.9048 48.9048 46.3231 45.3434 48.9048 48.9048 48.9048 45.3333 45.3333 41.0833 44.5 44.5 44.5 44.5 44.5 0 0 0 47.5 43.4 39.8 39.8 0 44 43.5 43.5 43 43 0 0 42.5 44.75 44.75 47.25 46 41.3 43.6667 43 43 42 0 45.3333 45.3333 44.6667 44.6667 38 38.4 38.4 38.4 0 0 0 44.1667 0 37 35.8571 35.8571 35.8571 44 37.5 37.5 37.5 37.5 38.6667 38.6667 0 37 0 0 35 37.1667 32.3333 35 36 36 36 34.6667 32.4667 33 31.4 31.4 31.4 31.4 29.75 0 0 28.75 28.75 0 0 27 0 0 0 0 22.5 22.5 22.5 21.5 22.6667 23.1667 23.1667 19 19 19 0 0 0 0 0 0 0 0 0 0 0 10 0 0 0 0 0 0 0 0 0 0 0 0 0 0 0 0 0 0 0 0 0 0 0 0 0 0 -8.91667 -9.61111 -9.61111 -9.61111 37.3056 1 -7 -6.42857 -8.91667 -8.91667 0 -9.8 -9.8 -8.58974 0 -10.5147 -11.8 -9.25 -9.25 -9.25 -15 -5.5 -5.5 -6.42857 -9.79365 -6.42857 -7.66667 -7.25 -7.25 -7.25 -7.25 -7 0 -7 -7 -7.16667 -7 -7.16667 -7.16667 -6 -6 0 -7 -6.75 -6.75 -6.5 -6.5 -7 -7 -7 -7.5 -7.5 -7.5 0 -6 -6 -9 0 -8.45 -8.45 -8.45 0 -8.16667 -8.16667 0 0 0 -9 -10.6667 -9 0 0 0 0 0 0 0 0 -14 -15 0 -15 0 -12.6667 18.3333 -12.6667 -14.6667 -14.6667 18.3333 0 0 0 0 0 0 13.7 13.7 21 0 0 0 0 0 0 0 0 0 0 0 0 0 0 0 0 0 0 0 0 0 0 0 0 0 0 0 0 0 0 0 -1 -1 -8.125 -41.5 -18 0 -49 -57.8333 -58 -60.5 -60.5 0 0 0 0 -49.7193 -49.7193 -53.1111 -53.1111 -49.875 -49.875 -63.8654 -54.3333 -54.3333 -66 -63.4286 -63.4286 -60.8 -64 -64 -58.125 -58.125 -60.3 -60.3 -60.3 0 -52.5 -56.1111 -56.1111 -56.1111 -56.1111 -56.1111 -42.6667 -43.5 0 0 -30.5 0 0 0 0 -40 0 0 -69.3333 -39.75 -39.75 -39.75 0 0 0 0 0 0 0 -35 0 0 -49 0 -46 -35.5 -35.5 0 0 0 0 0 0 0 0 0 0 -44 0 0 0 0 0 0 -55.6667 0 0 0 -45.8333 -45.8333 0 -54.5778 -50.75 -54.5778 -54.5778 -54.5778 -54.5778 0 -50.4 -59.5 0 0 -52.7333 -54.3333 -56.5 -56.5 -53.7333 -53.7333 -54.6182 -55.3889 -55.3889 -55.3889 -54.75 0 0 -58.0833 -58.0833 0 -58.0833 -60.5 -60.5 -53 -53 -51.6667 0 0 0 -60.5556 -49 -52.1 -52.1 -52.1 0 -58.5 -52 0 -53.9 -54.6 -53.9 -50.5556 -54.8333 -57.5 -57.5 -54.0833 -54.0833 -54.0833 -54.5 -54.5 0 0 -16.6667 -4 -4 -4 -16.6667 -4 -48.8333 -48.8333 -48.6667 0 0 0 0 -65.5 -71 -61.5 0 -66 -65.5 0 -65.5 -65.5 0 -46 -46 -49.4583 0 -49.4583 -42.9231 -47.4 -74.3333 -74.3333 0 -58.8 -45.6667 -48.2 -48.2 -47.4 -48.6 -44.5 -46.1 -46.1 -46.1 -44.5 -44.5
0 0 0 0 0 0 0 0 0 0 0 0 0 0 0 0 0 0 0 0 0 0 0 0 0 -25 -24.1667 -24.4444 -24.4444 0 0 0 0 0 0 0 0 0 0 0 0 0 0 0 0 0 0 0 15.4545 15.4545 0 0 0 0 0 0 0 0 0 0 0 0 0 0 0 0 0 0 0 13.5 25.1455 25.1455 25.1455 -14.1941 -14.1941 -14.1941 0 0 0 0 16.3509 0 22.5714 22.5714 -15.4569 25.354 -30.0166 -30.0166 25.354 0 29.8534 29.8534 0 0 0 43.0833 43.0833 0 0 16.3509 16.3509 15.6667 32.5714 32.5714 32.5714 0 0 32.5714 32.5714 -5.5 -5.5 32.5714 32.5714 32.5714 0 0 27.5424 27.5424 30.8333 0 0 0 0 0 0 0 0 0 33.4 9.94145 9.94145 13.6833 13.6833 13.6833 13.6833 13.6833 0 0 0 0 0 0 0 0 0 0 0 0 0 0 0 0 0 0 0 0 0 39.7143 39.7143 40.15 42.8 44.042 44.042 44.042 44.042 44.042 44.042 46.3231 46.3231 46.3231 46.0667 46.0667 41.0833 41.0833 41.0833 41.0833 41.0833 41.0833 41.0833 44.5 44.5 44.5 44.5 44.5 47.5 38 44.3333 39.8 39.8 0 0 43 43 43.5 43.5 42.5 0 41.5 41.5 41.5 42.5 46 42.5 43 45.5 45.5 45.5 45.5 0 44.6667 45 45 44.6667 38.4 44.6667 44.6667 43.5 43.5 43.75 0 43.75 36 35.8571 35.8571 35.8571 44 41 39.6667 37.75 37.75 38.6667 0 39.1429 39.1429 39.1429 39.1429 32.5 32.3333 32.3333 29 34.6667 31.25 31.25 0 33 32.4667 32.4667 27.2 27.2 27.2 29.75 32.3333 0 0 0 0 0 28 0 0 0 30.5 30.5 0 0 0 21.3333 0 23.1667 20.5 20.5 0 0 0 0 0 0 0 0 0 0 12.5 11 11 0 0 0 0 0 0 0 0 0 0 0 0 0 0 0 0 0 0 0 0 0 0 0 0 0 0 0 -9.61111 8.45 37.3056 -14.1944 -7 37.3056 25.8562 -8.91667 -8.91667 -8.91667 -12.9732 -12.9732 -8.58974 -8.58974 -12.9732 -13 -10.4167 -10.4167 -11.9286 -11.9286 -6.75 -6.75 -7 0 -6.42857 0 0 -8.25 -9 -7.5 -7 -7 -7 -7 -4.5 -4.5 -7.16667 -7.5 -4.5 0 0 -5.5 -5.5 0 -6.5 -6.5 -7 -7 -7 0 -8.33333 -8 0 -9.5 -7 0 0 0 -8.45 -8.45 0 -7.5 0 0 0 0 0 -10 -10 0 0 0 0 -14 -12.6 -12.6 -12.6 -12.6 -14 -14 0 50 -15 50 -17.3333 -14.5833 -14.5833 -14.5833 0 0 0 0 0 -4 -4 -21 -21 0 0 0 0 0 0 0 0 0 0 0 0 0 0 0 0 0 0 0 0 0 0 0 0 0 0 0 0 0 0 0 0 0 0 0 0 0 -18 -57.8333 -57.8333 0 0 0 0 0 0 0 -54.1667 -56.8 -56.8 -56.8 -43.7222 -49.875 -63.8654 -63.8654 -61.9643 -66 -66 -63.4286 -63.4286 -62.9524 -56.7636 -60.8 -60.8 -60.3 -60.3 -60.3 -59 -52.5 -56.1111 -56.1111 -56.1111 -49.5 0 -43.5 -47 -44 -44 -44 0 -50.8 -47.5 0 -39.5 -61.3333 -46 0 -45 -55 0 0 0 0 0 -39 -39 0 -48.1 -50 -95.7 -62 0 0 -31.5 -36 0 0 0 0 0 0 0 -50.3333 0 -44 0 0 0 0 -56.3 0 -54.6667 -44.5 -44.5 -55.6667 -52.25 -56.75 0 0 -57.6667 0 -56.75 -54.5778 -50.75 -50.75 -54.5778 -60.4778 -45.8333 -56.75 -59.5 -58.3333 -57.1667 -57.1667 -57.1667 -57.1667 0 -53.7333 0 -55.3889 -54.6182 -55.3889 -55.3889 -54.75 -53 0 -56.5 0 0 0 0 -49.5 0 -49.5 -52.5 -52.5 -52.5 -52.1 0 -54 -52 0 0 -58.5 -52 -52 -54.6 -54.6 -54.6 -54.8333 0 0 0 -57.5 -57.5 -60 -48.8333 0 -4 -4 -6.5 -16.6667 -47.6667 0 0 -47.6667 -37.75 -47.6667 0 0 0 0 0 0 -47 0 0 -65.5 -65.5 -65.5 -65.5 0 0 -53.125 -46 -53.8333 -47.4 -46.1 -48.6 -48.6 -47.4 -50 -45.6667 -45.6667 0 -48.2 -48.2 -47.4 -47.4 -31.7214 -74.3333 -46.1 -46.1
0 0 0 0 0 0 0 0 0 0 0 0 0 0 0 0 0 0 0 0 0 0 0 0 0 -25 -26 0 0 0 0 0 0 0 0 0 0 0 0 0 0 0 0 0 0 0 0 0 0 0 0 0 0 0 0 0 0 0 0 0 0 0 0 0 0 0 0 31.2963 31.2963 10.4667 13.5 13.5 13.5 0 25.1455 0 0 0 11.8065 11.8065 -28.8212 0 -14.1941 -14.1941 25.354 25.354 -30.0166 -30.0166 -75.8188 0 -30.0166 -30.0166 0 27.5424 0 0 0 32.5714 32.5714 15.6667 15.6667 15.6667 32.5714 32.5714 32.5714 13.6833 0 0 0 0 -5.5 0 0 0 0 0 29.8534 -30.0166 25.354 25.354 -3.03571 -3.03571 -3.03571 15.6667 0 0 0 0 23.3158 0 0 0 0 0 0 13.6833 0 0 0 0 0 0 0 0 0 0 0 0 0 0 0 0 0 40.0833 39 0 0 40.15 40.15 40.15 0 0 44.042 44.042 44.042 44.042 46.3231 46.9 46.9 46.3231 46.0667 46.3231 39.3333 39.3333 41.0833 41.0833 41.0833 41.0833 44 44 44 44 44 44 46 46 46 45.5 45.5 0 0 43.1 42.3333 44.5 44.5 42 0 42.5 42.5 42.5 42 42 42.5 42.25 42.25 42.25 44.0714 44.0714 44.0714 44.0714 45 45 45 0 44.6667 44.3333 0 0 0 0 0 0 38.5 38.5 40.5 40.5 41 39.6667 0 0 0 39.1429 39.1429 39.1429 0 0 37.8333 37.8333 38 29 31.25 29.6 29.6 29.6 31.6667 32.4667 32.4667 27.2 27.2 29.75 29.75 32.3333 29 0 0 0 0 0 0 0 0 30.5 30.5 0 0 23.5 0 0 0 20.5 20.5 0 0 0 0 0 0 0 0 0 0 0 11 0 0 0 0 0 0 0 0 0 0 0 0 0 0 0 0 0 0 0 0 0 0 0 0 0 0 0 0 8.45 -4.6 17.3714 -11.125 -7 -14.881 37.3056 0 0 -8.58974 -8.58974 -9.79365 -9.79365 -8.58974 -8.58974 -11 -9.79365 -9.79365 -10.4167 -9.79365 -7.56667 -7.56667 -6.75 -3.5 -3.5 0 -8.25 -7 -8 -7 -6.83333 -6.83333 -6.83333 -6.83333 -7.5 -7.5 -7.5 0 -4.5 -6.5 -6.5 -6 -6 -6.5 -6.5 0 0 0 0 -8 -7.16667 -7.16667 -6.5 -8 -7 -9 -9 -9 -9 -9 -7.5 -10.5 -9 0 0 -10 -10 -10 0 0 -11 -11 0 14.5 14.5 -15 -12.6 24 16 -14 -14 -2.5 0 18.5 -17.3333 0 0 -14.5833 -17.3333 -6.8 -14.5 -14.5 0 0 0 14.1667 -21 -24.3333 0 0 0 0 0 0 0 0 0 0 0 0 0 0 0 0 0 0 0 0 0 0 0 0 0 0 0 0 0 0 0 0 0 0 0 0 0 -55 -54.3333 -56.8333 -56.8333 -58.9 -58.9 -58.9 -67.6667 0 -46.65 -58.5536 -58.5536 -48.6579 -43.7222 -43.7222 -49.875 -63.8654 -61.9643 -63.8654 -62.9524 -62.9524 -63.8654 -63.8654 -63.8654 -63.4286 -62.9524 -60.8 -60.8 -60.8 -52.8667 -47.35 -52.5 -47.35 -60.3 -47.35 -60.3 -52.5 0 -43.5 -44 0 0 0 -12 0 0 -45 -45 -45 0 0 -47.5 0 0 0 0 0 -59 -50 -54 -55.6667 0 0 0 0 0 0 0 0 0 0 0 0 0 -59.5 0 0 0 0 0 -55.0556 -55.0556 -56.3 -55.1786 -54.6667 -54.6667 -44.5 -44.5 0 -55.6667 -55.6667 0 -63.5 -56.5 0 0 0 -60.2857 -60.2857 -60.4778 -60.4778 -50.4 -50.4 -58.3333 -56 0 -53.5 -57.1667 0 0 -53.7333 0 -54.6182 -54.6182 0 -54.75 -48.5 0 0 -48.5 -58.0833 -58.0833 0 -52 0 0 0 -52.9167 0 -52.9167 -52 -52 -54 -52 -52 -52 -58.5 -56 -54.6 0 0 0 -42 -42 -28 -54.8333 0 0 0 0 -56.119 -38 -38 -51.4444 -62 -37.5 0 -51.4444 -51.4444 -47.6667 -47.6667 -47.6667 -48.6667 0 0 -51.4444 0 -46 -65.5 -65.5 -66 0 0 -47 0 0 -44.5 -44.5 -46.1 -25 -40.4286 -54.6667 -47.4 -47.4 -48.2 -25 -26.1053 -38.66 -38.66 -38.66 0 -38.66 -31.7214 0
0 0 0 0 0 0 0 0 0 0 0 0 0 0 0 0 0 0 0 0 0 0 0 -23.5 -23.5 0 -26 0 -24.4444 0 0 0 0 0 0 0 0 0 0 0 0 0 0 0 0 0 0 0 0 0 0 0 0 0 0 0 0 0 0 0 0 0 0 0 0 0 0 25.354 25.354 25.354 25.1455 25.1455 25.1455 0 0 0 0 0 11.8065 15.6667 -28.8212 2.93333 -58.41 -58.41 0 0 25.354 25.354 0 -75.8188 -30.0166 -30.0166 15.6667 32.5714 0 0 27.5424 27.5424 27.5424 15.6667 15.6667 15.6667 32.5714 32.5714 32.5714 27.5424 11.7778 0 0 0 0 0 0 0 -3.5 29.8534 29.8534 26.9005 -18.6561 25.354 25.354 25.354 25.354 25.354 25.1455 25.1455 0 0 23.3158 0 -43.4063 -43.4063 -61.9311 -16.5177 -16.5177 -51.2727 0 41.3333 0 0 0 0 0 0 0 0 0 0 0 0 39.1667 39.1667 40.0833 40.0833 39 0 0 42.5 42.5 39.5 39.5 40.0714 40.0714 40.0714 40.0714 49.4286 46.3231 49.4286 43.175 46.9 46.3231 46.3231 46.9 46.9 46.9 41 39.3333 44 44 44.7333 46 46 46 46 47 46 47 0 0 0 0 43.1 43.1 42.5 42.5 43 43 42 42 42 42.6667 43 43 42.25 43 43 43.0357 44.5 44.5 44.5 0 0 0 0 44.3333 44.3333 0 42.75 42.75 43.5 43.5 43.5 43.5 38.75 38.75 0 0 39.6667 0 41.2 0 41.2 41.2 0 0 0 38 38.3333 32 0 31.25 34 37 31.6667 33 29.6 29.6 0 0 29.5 30.3333 30.3333 29 0 0 0 0 0 0 0 28 0 0 0 0 0 0 0 0 0 0 0 0 0 0 0 0 0 0 0 0 0 0 0 0 0 0 0 0 0 0 0 0 0 0 0 0 0 0 0 0 0 0 0 0 0 -9.66667 -9.66667 4 -3.5 0 0 -4.6 -2.55 -6.5 -11.125 24.8077 0 0 -9.61111 -8.58974 -8.58974 0 0 -8.58974 -11.6667 0 -11 -7.1 -9.79365 -3.66667 -3.66667 -7.56667 -7.56667 -7.56667 -6.75 0 -3.66667 -8.66667 -8.66667 -7 -4.85714 -7 -7 -7 0 0 0 0 -6.5 0 -6.5 -6 -8.33333 0 0 0 -7.5 0 0 -8 -6.5 -7.16667 -7 0 0 0 -9.5 -9.5 -9.5 -9.5 0 -8.5 -8.5 -9 -10 -9.5 0 -10 -9.5 0 0 0 0 -1.5 -1.5 0 -15 -15 -14 -13.8333 -13.8333 -15.6667 -19 0 0 -27 -15 -15 -17.4286 -18.5 0 0 0 0 0 0 -20 0 0 0 0 0 0 0 0 0 0 0 0 0 0 0 0 0 0 0 0 0 0 0 0 0 0 0 0 -22.5 0 0 0 0 0 0 0 0 -54 0 0 -55 -54.3333 -56.8333 -56.8333 0 -58.9 -67.6667 -46.8761 -46.65 -61 -61 -58.5536 -54.1667 -54.1667 -48.6579 -64 -48.6579 -48.6579 -62.9524 -48.6579 -48.6579 -63.8654 -63.8654 -56.7636 -63.4286 -60.8 -60.8 -52.8667 -54.1667 -54.1667 -52.8667 0 -63.3 0 -71.6667 -76.5 -74.5 -72.6 -43.5 0 0 -25.2 -47 -44.8333 -48.3333 -64.8194 0 0 -69 0 -48.5 0 0 0 0 -53 -55.6667 -55.6667 -55.6667 0 0 0 -42.5 -42.5 0 -37 0 -91.5 -47 0 0 -68 0 0 -59.5 -59.5 0 -54 -57.6667 -64 -55.0556 -55.0556 -56.3 -55.1786 -54.6667 -54.6667 -44.5 -44.5 -55.6667 -55.6667 -50.9 -63.5 -56.5 0 -50.4 -60.4778 0 -60.2857 -60.2857 -52 -60.4778 -50.4 -60.4778 -60.4778 -55.3333 -50.4 -60.25 -53.5 -47.6667 -57.1667 -55.3889 -53.7333 -48.5 0 -63 -49 -50.7 -50.7 -50.5 -50.5 -49 0 -50.3333 -50.3333 0 -51.5 0 -50.5 -52.9167 -52.9167 -52 0 0 -50.9524 -47.5 -47.5 -49.7 0 -49.7 -49.7 0 -49.5 -49.5 -49.5 -42 -25.4 0 -37 -55 0 0 0 0 -45.4545 0 -62 -62 -51.4444 -47.6667 0 0 -47.6667 0 -51.4444 -51.4444 0 0 0 0 0 -15 0 -23 -27.125 -1.36364 0 11 -7.66667 -9.44444 -32.5 -22 -43 -14.6667 -41.5 -38.66 0 0 -31.7214 -38.66 -38.66 -38.66 0
0 0 0 0 0 0 0 0 0 0 0 0 0 0 0 0 0 0 0 0 0 0 -23.2 -23.2 -23.2 -21.875 -24.4444 -24.4444 -24.4444 0 0 0 0 0 0 0 0 0 0 0 0 0 0 0 0 0 0 0 0 0 0 0 0 0 0 0 0 0 0 0 0 0 0 0 0 3.88771 3.88771 25.354 0 0 16.3509 0 0 0 0 0 0 0 15.6667 15.6667 -28.8212 3.88771 9.59613 9.59613 0 0 0 0 0 0 25.354 25.354 15.6667 32.5714 0 0 27.5424 27.5424 27.5424 27.5424 27.5424 27.5424 -30.0166 25.354 25.354 27.5424 34.5714 0 0 0 0 33.4 33.4 0 0 29.8534 29.8534 26.9005 -18.6561 25.354 0 0 25.1455 -16 -45 -45 27.5424 27.5424 27.5424 -43.4063 -43.4063 0 -23 47.3409 47.3409 47.3409 0 47.3409 0 0 0 0 0 0 0 0 0 0 0 0 0 0 0 0 39 0 0 40.6667 40.6667 39.5 39.5 40.0714 40.0714 42.9143 40.0714 49.4286 49.4286 49.4286 43.175 43.4 47 49.4286 49.4286 47 42 44.7333 44 44.7333 44.7333 44.7333 46 45.25 45.25 45.25 48 45.8333 45.8333 45.8333 45.8333 0 0 43.1 43.1 43.5 43.5 0 42.6667 42.6667 42.6667 42.6667 42 0 43 43 43 41.75 44.25 46.1667 43.0357 43.0357 43.0357 44.5 40.3333 46 45.5 0 0 42.75 42 0 37 37 37 40 40 41 40.5 40 41.2 41.2 0 40 0 0 38.6333 38.6333 38.6333 38.6333 35.5 35.5 34 34 0 0 32.3333 30.3333 37 0 0 31.6667 32.5 29.5 29 0 0 0 0 0 0 0 0 25.5833 25.5833 25 25.5833 0 0 0 0 0 0 0 19 0 0 0 0 0 0 0 0 0 0 0 0 0 0 0 0 0 0 0 0 0 0 0 0 0 0 0 0 0 0 0 0 4 0 28.2667 0 -3.5 -7.55556 -7.55556 -7.59091 -2.55 17.3714 -4.6 25.8562 -2.16667 -8.5 -11.5 -7.55556 -7.55556 -7.55556 0 -11.6667 -11.6667 -11.5 -7.55556 0 -7.1 -9.79365 -9.79365 -7.5 -7.5 -7.5 -7.5 -8 -11 -8 -8.66667 -8.66667 -5.125 -5.125 -5.125 -5.125 -6 -6 -6.5 -6.5 -6 0 -5 -5 -5 0 0 0 0 -7.66667 -7.66667 -7.66667 -10 -9 -7 -7 -7 0 0 0 -9 -9 -9 -8.5 -8.5 -9 -10.5 -9.66667 0 -9.5 0 29.6667 31.5 0 0 0 -10.5 0 0 5.5 -12.3 -12.3 -13.5 -17.25 -19 -13.5 0 -33.5833 -21.7143 -14.1667 -17.4286 -15.5 -15.5 -35.3333 -37.5 -37.5 -27.5 0 0 0 0 0 0 0 0 0 0 0 0 0 0 0 0 0 -7.2 -7 0 0 0 0 0 0 0 0 0 0 0 0 -22.5 -22.5 0 0 0 0 0 0 0 -50.5 0 -32.9286 -32.9286 -53.553 -53.553 -54.3333 -56.75 -46.8761 -60.6806 -60.6806 -46.8761 -46.65 -46.65 -61 -58.5536 -46.65 -48.6579 -48.6579 -48.6579 -48.6579 -48.6579 -48.6579 -48.6579 -43.7222 -43.7222 -43.7222 -49.875 -47 -63.4286 -49.3333 -64 -60.8 -49.3333 0 -48 -52.8667 -52.8667 -52.5 -52.5 -51.3333 -70 -29.25 0 -44.8333 -48.3333 0 0 0 0 0 0 -58 0 -47.5 0 0 0 0 0 -55.6667 -55.6667 0 0 0 0 0 -45 0 -57.6667 -59.5 0 -52.5 -52.5 -48.5 -48.5 -52.3 -52.5 -46.75 -46.75 -46.75 -57.6667 -57.6667 -54 -55.0556 -46.4111 -56.3 -55.1786 -52.5 -42.1667 -42.1667 -46.8889 -52.5 -46.8889 0 -45 0 -64.4182 -64.4182 -64.5 -60.4778 -60.2857 -60.4778 0 -60.2857 -52.8095 -52.8095 -55.3333 -55.3333 -55.3333 0 -58.3333 -49.75 0 0 -47.6667 -47.6667 -50.8333 -50.8333 -49 -50.7 -50.7 -50.5 -50.5 -50.5 -50.5 0 -50.3333 -44.25 -44.25 0 0 0 -46.7778 0 0 0 -50.9524 -50.9524 -49.7 -24 -24 0 -49.7 -49.5 -49.5 -49.5 0 0 0 0 0 0 0 -65 0 -37.5 0 -37.5 -62 -51.4444 -51.4444 -56.119 -4 -56.119 -56.119 0 -42.75 -56.119 -42.75 -17.4545 -17.4545 -5.4 7.875 0 0 -42.25 -26 -26 -39 -42 -7.66667 -32.5 -23.2857 -23.2857 -8 -10.48 -31.7214 0 -31.7214 -38.66 -38.66 0 0
0 0 0 0 0 0 0 0 0 0 0 0 0 0 0 0 0 0 0 0 0 0 0 -23.2 -23.2 -24 -23.3333 -24.1667 -24.1667 0 0 0 0 0 0 0 0 0 0 0 0 0 0 0 0 0 0 0 0 0 0 0 0 0 0 0 0 0 0 0 0 0 0 0 0 0 0 0 0 0 16.3509 0 0 25.1455 5.3 5.3 0 0 0 0 -28.8212 3.88771 9.59613 0 32.5714 32.5714 32.5714 32.5714 -27.8 31.0606 -28.8212 -28.8212 -28.8212 15.6667 0 0 0 15.6667 -65.9817 -65.9817 -30.0166 0 -30.0166 -75.8188 -75.8188 11.7778 34.5714 0 0 0 0 0 0 0 33.4 9.94145 9.94145 -9.32504 -9.32504 25.354 -2.3 -2.3 -2.3 0 0 0 0 0 0 0 0 0 -23 0 0 0 0 -22.7778 0 0 0 0 0 0 0 0 0 0 0 0 0 0 0 0 0 0 0 39.6944 39.6944 40.6667 40.6667 42.9143 42.9143 42 42.9143 42.8 42.8 42.8 43.175 43.4 42.8 45.5 45.5 45.5 47 47 44 44 46.5 45.25 45.25 45.25 46.4 46.4 0 0 45 45 45 0 0 44 44 44 42 42 43 43.5 43.5 43.5 43.5 42.5 42.5 41.75 41.75 41.75 46.1667 42 44.25 44.25 44.25 41.5 41.5 43.6667 43.6667 0 0 42.75 0 0 45.5 39.5 39.5 40.1667 40.1667 0 41 39.3143 39.3143 37.75 0 39.3143 0 0 38.6333 38.6333 38.3333 38.3333 0 37 0 0 0 33.25 33.25 33.25 30.25 0 0 32.5 30.25 31 31 28.5 0 0 0 29.3333 28 0 0 0 0 25 25.5833 24 0 20 0 0 0 0 0 19 15.5 0 0 0 0 0 0 0 0 0 0 0 0 0 0 0 0 0 0 0 0 0 0 0 0 0 0 0 0 0 0 28.2667 0 -14.881 37.3056 37.3056 -7 -7 -7 3.15789 37.3056 -12.6353 -12.05 -5 0 -7 -2.55 -2.55 -5.16667 -8.5 -11.5 -11.5 -11.125 -6.42857 0 0 -5.16667 -5.16667 -16 -7.5 -7.5 -7.5 -8 -11 -4.66667 -20.3333 -6.5 -8.5 -8.5 0 0 -5 -8 -8 -8 -6 -7 0 -7.66667 -7.66667 -7.66667 0 0 -8.5 -8.5 -9 -9 -10 0 -7 -7 -7 22 -10.8333 -10.8333 -9.66667 -9 0 0 0 0 0 -10 0 0 -19 0 0 0 0 0 -9.33333 0 -13 5.5 -16 0 0 -13.5 -15.6667 -12.3333 0 -33.5833 0 -30 -13.5 0 -15 -35.3333 -35.3333 -7 0 0 21 0 0 0 0 0 0 0 0 0 0 0 0 0 -3.66667 -7.2 -7.2 0 -7 0 0 0 0 0 0 0 0 0 0 0 0 0 -22.5 -37.0833 0 0 0 -37.0833 -54.2 0 -54 -50.7159 -50.7159 -50.7159 -53.553 -39 -53.553 -53.553 -53.553 -53.553 -60.6806 -60.6806 -60.6806 -46.65 -50.6667 -46.65 -46.65 -46.65 -48.6579 -48.6579 -58.5536 -58.5536 -48.6579 -48.6579 -43.7222 0 0 -66.2 -64.3333 -64.3333 -48 -50 -48 0 -49.3333 -49.3333 -48 -62.5 -52.8667 -54.1667 -53 -50.3333 -70 -50.1667 -50.1667 0 -53.5 -53.5 -53.5 0 0 0 0 -36.3333 -36.3333 -51 -51 -51 0 -52.5 0 -54 0 0 0 0 -37 0 -55.0556 -54 0 0 0 -54.5 -52.3 -48.5 -48.5 -52.3 -52.3 -52.3 -52.5 -52.3 -52.3 -57.6667 -57.6667 -45.9545 -45.9545 -46.4111 -44.8901 -52.2637 -52.5 -52.2637 0 -52.2637 -52.5 -46.8889 -50.9 -50.9 -64.4182 -64.4182 0 0 -60.2857 -64.4182 -61 -62 -52.8095 -52.8095 -52.8095 -55.3333 -65 -60.25 -60.25 0 -52 -48 0 -55.5 -53.1 -53.1 -53.75 -63.5 -50.7 0 -48.5 -50 -48.1667 -48.5 -46 -39.6667 -49.9167 -49.9167 -26.1667 -43.3333 -43.3333 -36.75 -36.75 -22 0 -37.3333 0 0 0 0 -26.4 -46.75 -55.25 0 0 0 -37 -46.75 -46.75 0 0 0 -37 -42.5 0 -61.5 0 0 -20 0 0 -38 -38 -42.75 -42.75 -56.119 -56.119 -17.4545 0 11 -35.4286 -32 -32 -42.25 -42.25 -26 0 0 0 8 8 -13.75 0 0 -11.375 0 0 0 0
0 0 0 0 0 0 0 0 0 0 0 0 0 0 0 0 0 0 0 0 0 0 0 -22 -22 -23.5 -23 -21.1 -21.1 44 -24.5 -24.5 0 0 0 0 0 0 0 0 0 0 0 0 0 0 0 0 0 0 0 0 0 0 0 0 0 0 0 0 0 0 0 0 0 0 0 0 0 0 16.3509 16.3509 43.0833 3.88771 3.88771 3.88771 0 0 -52 -52 0 2.93333 0 0 32.5714 32.5714 0 0 -27.8 31.0606 0 0 -28.8212 25.1455 0 0 0 27.5424 24.8333 24.8333 39.25 50.5357 15.6667 15.6667 15.6667 0 0 0 0 0 27.5424 15.6667 15.6667 32.5714 32.5714 9.94145 9.94145 -40.4865 -40.4865 0 -2.3 -2.3 15.6667 15.6667 15.6667 15.6667 0 -5.92727 -23 -23 -23 -23 -23 0 0 0 0 0 0 0 0 0 0 0 0 0 0 0 0 0 0 0 0 0 0 39.6944 39.6944 39.6944 39.6944 37.7778 39.6944 39.6944 39.6944 44 42.9143 45.3333 43.4 43.4 43.4 45.3333 42.8 43.75 43.75 43.75 43.9286 43.9286 43.9286 43.9286 45.0833 45.8 46.4 46.4 46.4 0 44.75 44 44.75 44.75 44.75 0 0 43.5 43.5 43.5 42 0 42.6667 43.3333 44.3 44.3 44.3 42 44.3 42 42 42 46.1667 0 40.5 42.5 42.5 42.5 42.5 43.6667 43 0 0 41 0 0 40.5 0 0 39.5 39.5 0 41.9167 40.75 40.75 37.75 39.3143 39.3143 0 39.5 39.5 39.5 39.5 39.5 0 42 42 42 0 33.25 0 30.25 30.25 0 0 0 0 0 31 31 0 0 0 0 28 0 0 0 0 0 0 20 0 20.3333 0 0 0 0 0 19 0 0 0 0 0 0 0 0 0 0 0 0 0 0 0 0 0 0 0 0 0 0 0 0 0 0 0 0 0 0 0 22 -31.1538 37.3056 37.3056 37.3056 37.3056 37.3056 -7 -7.59091 37.3056 -13.75 -16.9333 24.0556 -6 49 49 0 -61 -11.125 -4.6 -11.125 -11.125 20.8 50.5 -5 0 0 -6.42857 -6.42857 -6.42857 -9.66667 0 -4.66667 -4.66667 -12.2981 -5 -6.5 -6.5 0 -7.75 -7.75 -7.75 -11 -6.5 -6.5 -7.83333 -7.83333 -7.5 -7.5 -7.5 -7 0 0 -9 -9 0 -9 -38.5 0 0 24.75 25.5833 -5.5 -5.5 -8.5 34 -9 0 0 0 -10 0 -10 0 -3.5 0 0 0 0 -14.5 -19.9333 -18.5 -15.6667 -17.9167 -18.3333 0 0 0 -15.6667 -12 -13.8333 0 -13.8333 -13.5 -13.5 -34.6667 0 0 0 -30 0 0 -30 0 0 0 0 0 8.8 8.8 0 0 0 0 0 0 0 0 -3.66667 -7.2 0 0 -7 -24 -24 0 0 0 0 -46.4038 -46.4038 -43.4444 -43.4444 -48.3462 -40.8 -50.9143 -50.9143 -50.9143 -37.0833 -40.2857 -37.0833 -50.5 0 -50.5 -50.7159 -50.7159 -50.7159 -50.7159 -56.3333 -53.553 -53.553 -49.3333 -53.553 -54.8462 -60.6806 -60.6806 -46.8761 -46.8761 -46.65 -46.65 -46.65 -46.65 -49.5 0 -58.5536 -48.6579 -48.6579 0 -46.4167 -42 0 0 -67.7059 -64.3333 0 0 -50.3333 -50 -49.3333 -49.3333 -62.5 0 0 0 -53 -50.3333 -53 -50.3333 -49.5 -49.5 -51.6667 -53.5 -50.6667 0 0 0 -49.5 -49.5 -51 -51 -47 0 0 0 -54 -54 0 0 0 -55.1786 -48 -56 0 -54 -57.6667 -57.6667 -52.5 -49.8333 -52.5 -52.3 -52.3 -49.2626 -47 -49.2626 0 0 -46.4524 -46.4524 -46.8182 -46.4111 -46.4111 -46.4111 -47 -46.4111 -44.8901 -44.8901 -52.2637 -52.2637 0 0 -40.4 -60.25 -51.5 -60.6786 -55.75 -51.5 -60.6786 -60.6786 -61 -53.6364 -53.6364 -53.6364 -52.8095 -56.5357 -45.5 -48.8095 -57.7143 -48.8095 -48.8095 -62.625 0 0 -55.5 0 0 0 -66.5824 -52.0857 -66.5824 -52.0857 -52.0857 -52.0857 -39.6667 -39.6667 0 0 -26.1667 -43.3333 0 -36.75 0 0 0 0 -65 0 0 0 0 -59 0 -37 0 -37 0 0 0 0 0 0 -42.5 -40 0 0 0 0 0 0 0 0 0 -29 -29 -29 -34.6 -35 0 0 0 -17.3333 -32 0 0 0 0 0 0 0 -26 0 -31.2222 -31.2222 0 0 0
0 0 0 0 0 0 0 0 0 0 0 0 0 0 0 0 0 0 0 0 0 0 0 -22.1667 -22.1667 -23 -21 -21 -22.8333 -23 -23.25 -23.25 0 0 0 0 0 0 0 0 0 0 0 0 0 0 0 0 0 0 0 0 0 0 0 0 0 0 0 0 0 0 29.3 0 0 0 3.5 -22.7778 -22.7778 -22.7778 32.2174 32.2174 43.0833 0 -19.5385 -19.5385 0 0 0 0 -64.6538 2.93333 0 0 32.5714 32.5714 -28.8212 -28.8212 -28.8212 -28.8212 14.9167 14.9167 16.3509 0 -28.8212 -28.8212 16.3509 27.5424 -40.4865 -40.4865 -30.0166 15.6667 15.6667 15.6667 25.1455 0 0 0 0 0 27.5424 27.5424 27.5424 27.5424 0 29.8534 29.8534 -40.4865 -40.4865 49.75 49.75 49.75 15.6667 27.5424 -65.9817 -65.9817 0 0 0 0 0 0 0 0 0 0 0 0 0 0 0 0 0 0 0 0 0 0 0 0 0 0 0 0 0 41.5 41.5 41.5 37.7778 37.7778 36.75 37.7778 37.7778 37.7778 42.4091 42.4091 43.4 43.4 43.4 43.4 45.3333 43.75 43.75 43.75 43.9286 43.9286 44.5 44.5 45.0833 45.0833 45.0833 0 0 0 45.5 44 46 46 46 0 0 44.5 44.5 44.5 0 0 43 42.5 42.5 42.5 41.8667 43.3333 44.3 0 0 41.8667 41.8667 0 42 41.8667 41.8667 43.3333 43.5 43.5 43.5 43.5 43.5 0 44 0 40.5 0 0 0 0 0 41.9167 41.9167 41.9167 40.75 0 40.75 0 38.3333 39.9167 39.9167 0 39.9167 0 0 0 0 0 0 0 31.5 31.5 31.5 31.5 31.75 0 0 31.75 31.75 0 0 0 0 0 0 0 0 0 0 0 0 20.3333 20.3333 0 0 0 0 18 17 0 0 0 0 0 0 0 0 0 0 0 0 0 0 0 0 0 0 0 0 0 0 0 0 0 -7 -7.5 -7.5 0 0 40.8333 -20 -25.2083 16.1667 16.1667 17.3714 17.3714 24.8077 -10.3333 -43.3333 6.38462 -13.75 -17 -12 -12 8.5 8.5 2 -12 -15 -3.5 -11.125 0 20.8 23 0 0 -5 -6.42857 -6.42857 -5 -5 -5 -5 -5 -12.2981 -12.2981 -8.66667 -8.66667 -8 -8.08333 -8.08333 -8.08333 -11 -8.08333 -8.66667 -7.83333 -31.1786 -31.1786 -7.5 -7.5 -7 0 -7.5 -7.5 -30.5 19.75 24.3333 -8.66667 -9 -9 -9 -8.08333 -8.08333 24.75 -8.08333 -32.5714 0 -8.5 0 -1.25 -5.5 -8.5 -11 -11 -16 -13.8571 -23 0 0 -9.5 -19.9333 -14 -17.9167 -17.9167 -19.9333 -17 0 0 0 -13.8333 -16.5 0 -15 -26.6 -13.5 -15 -26.6 -26.6 0 0 0 0 0 0 0 0 0 0 0 0 0 8.8 0 0 0 0 0 0 0 0 0 -19.2667 -32.6667 -32.6667 -27.6 -39.3 -31.3333 -31.3333 -24 -46.4038 -46.4038 -46.4038 -18.4 -43.4444 -43.4444 -43.4444 -48.3462 -40.8 -50.9143 -48.3462 -40.8 -48.3462 -37.0833 -50.5 -50.5 -54.2 -50.5 -46.65 -56.3333 -32.9286 -45 -50.7159 -32.9286 -42.619 -49.3333 -42.619 -53.553 -46.8761 -40.35 -40.35 -40.35 -49.5 -40.35 0 -40.35 0 0 -55.25 -47.5 0 -46.4167 -46.4167 0 -56.4444 0 -56.4444 0 0 -50.3333 0 0 0 -49.5 -50.5 0 -53 -70 -65.5833 -48.7333 -48.7333 -49.5 -49.5 -51.6667 -51.6667 -50.6667 -51.5 -51.5 -51.3571 -51.3571 -54.3333 -54.3333 -45 -50.3333 -94.3333 0 0 -54.6667 -46.5 0 -58 0 0 -56.3 -44.8901 -45.9545 -57.6667 -46.75 -52.5 -49.5 -46.4524 -52.3 -46.4524 -49.2626 -47 -47 0 -49.2626 -49.2626 -46.4524 -46.4524 -46.4524 -45.9545 -45.125 -46.25 -40.75 -46.25 -46.4111 -44.8901 -44.8901 -54.6667 -43 -52.381 -43 -52.381 -52.381 -55.75 -51.5 0 0 -60.6786 -32 -53.2222 0 0 -56.5357 -56.5357 -39.5 0 -41.4545 -54 -59.5 -59.5 -49.2727 -46.2778 -46.2778 -50.7778 0 0 -62.6667 -66.5824 -66.5824 -47.5 -52.0857 -46 -47.5 -68.25 0 -26.1667 0 -51.5 -49.9167 -81 0 -96.5714 -96.5714 0 -96.5714 0 -46 -37.3333 -44 -42.8333 -44 -42.9 -42.9 -46.75 0 0 0 0 0 0 0 0 0 0 0 0 0 -52.1429 -24.5 -24.5 0 0 0 -33.5714 0 0 -37.5 -21.8889 0 0 -35 0 0 -42.25 -26 -26 0 0 0 0 0 0 0
0 0 0 0 0 0 0 0 0 0 0 0 0 0 0 0 0 0 0 0 0 0 -22 -22.1667 -22.1667 -22.25 -22.3333 -22.3333 -26 -26 -22.5 -22.5 0 0 0 0 0 0 0 0 0 0 0 0 0 0 0 0 0 0 0 0 0 0 0 0 0 0 0 0 0 0 29.3 0 0 0 0 -22.7778 -22.7778 -22.7778 0 0 29.5 0 -19.5385 -6.16667 0 -15.4569 -15.4569 -15.4569 22.5714 29.8534 49.8333 49.8333 0.78 0.78 -28.8212 -28.8212 -28.8212 -28.8212 -28.8212 -28.8212 -5.92727 0 0 0 0 13.6833 -40.4865 -40.4865 -30.0166 -30.0166 15.6667 15.6667 15.6667 0 0 0 0 0 15.6667 27.5424 0 0 0 -14.1941 -14.1941 -14.1941 0 15.6667 15.6667 -63.5308 -8.26724 27.5424 -65.9817 -39.0648 0 -8.26724 -8.26724 -8.26724 -8.26724 -96 0 0 0 0 0 0 0 0 0 0 0 0 0 0 0 0 0 0 0 0 0 0 0 0 36.75 36.75 36.75 36.75 36.75 33.9444 33.9444 41.5 45 45.5 39.1667 39.1667 43.175 43.175 0 43.75 43.75 43.85 44.3 44.3 44.3 44.3 43.9286 44 45.1667 45.1667 45.1667 45.1667 45.5 44 47.5 45.5 45.5 0 40.5 44.25 44.25 44.25 43.5 43.5 43 42.5 42.5 42.5 41.8667 43.3333 41.8667 41.8667 41.8667 51 43 43 42 41.8667 42.9667 42.9667 41 43.5 0 44 44 0 44.3333 44.3333 44.3333 0 0 42 35.5 0 42.3333 42.3333 42.3333 37 0 37.75 37.75 33.6667 33.6667 38.3333 38.1429 38.3333 0 0 0 0 31 0 0 31.5 0 32 32 30.25 30.25 0 30.25 31.75 31.75 0 0 0 0 0 0 0 24 24 0 21.8 21.8 0 0 0 0 0 16.25 0 16.25 0 0 0 0 0 0 0 0 0 0 0 0 0 0 0 0 0 0 0 0 0 0 0 0 -6.83333 -8.5 -8.5 0 0 16.5556 -3.93333 -5 0 -5.57143 -10.5 -10.5 -16.9333 -7.59091 -7.59091 -16.9333 -16.9333 -2 -7.46667 -7.46667 0 0 -14.1944 -14.1944 22.2 0 -14.1944 -7.55556 20.8 -3 -28.5 -28.5 25.8562 -14.5 -14.5 -2.16667 -11.4308 -8 -8 -8 -12.2981 -16.5 -16.5 -20.3333 -0.777778 0 -25.4 -25.4 -25.4 46.1429 46.1429 46.1429 -12.5 -12.5 -12.5 -31.1786 -12.5 15.5 -28.3333 0 -8.5 -8 -8.66667 -8.66667 -0.933333 -0.933333 -0.933333 0.25 0.25 0.25 -7.5 -9.5 -20 -8.5 -16.5 -1.25 -16.5 -11.5 -23.6667 -15 0 -12 0 0 -9.5 0 -32.6667 0 0 0 0 0 -68.5 0 -14.25 0 -15.8333 -15.8333 -15 0 0 -26.5 -26.5 -15.5 -16 0 0 0 0 0 0 0 0 0 0 0 0 0 6.33333 0 0 0 -26.5455 -32.35 -32.35 -43.5 -26.5455 -36 -36 -36 -32.6667 0 -32.6667 -31.3333 0 0 0 0 0 -43.4444 -43.4444 -43.4444 -43.4444 -46.4038 -46.4038 -43.4444 -48.3462 -48.3462 -40.8 -48.3462 -37.0833 -50.9143 -37.0833 -54.2 -54.2 -57 -44.1667 -26.3333 -26.3333 -62.65 -57 -42.619 -42.619 -53.553 -46.8761 -40.35 -56.1667 -56.1667 -56.1667 -45.5 -33.0667 -33.0667 0 0 -55.25 -47.5 -50 -47.1667 -47 -46 -47 0 -56.4444 -70 -47.5 -47.3333 -47.3333 -48 -49 0 0 -50.5 -44.6667 -49.5 -49.5 -65.5833 -65.5833 -48.7333 -49.5 -43 0 0 0 -47 -51.3571 -51.3571 -48.1 0 -46 -46 -46 -50.3333 -50.3333 0 0 0 0 -49 0 -52.2637 -46.8333 -46.4111 0 0 0 0 -46.4524 0 0 -44.5 0 -49.2626 -49.2626 0 -49.2626 0 -46.4524 -45.125 -46.4524 -48.3333 -45.125 -45.125 -40.75 -46.25 -49.25 0 0 0 0 0 0 -41.7857 -41.8889 -54.2 0 0 0 -53.2222 -32 -45 0 -56.5357 0 -51.3333 -39.5 -39.5 -54 -54 -67.6667 -63 -49.2727 -50.7778 -50.7778 -49.4 -41.5 -46.2778 -46.2778 -54.1667 -66.5824 -66.5824 0 0 -34.8 -68.25 -72.5 -86.5333 -49.9167 0 0 0 -96.5714 -74.8333 -96.5714 0 0 0 0 -54.6667 0 0 0 0 0 0 0 -55 0 -37 0 -28 0 0 -34.75 0 -38.5 -63.6667 0 -36 -35.1 0 0 0 -33.5714 -33.5714 0 0 -21.8889 0 0 0 -35.4286 -17.3333 0 0 0 0 0 0 0 0 0
0 0 0 0 0 0 0 0 0 0 0 0 0 0 0 0 0 0 0 0 0 0 -22 -22.25 -22.25 -22.25 -22.3333 -23.6667 -26.5833 -26.5833 -24 -24 -23.5 0 0 0 0 0 0 0 0 0 0 0 0 0 0 0 0 0 0 0 0 0 0 0 0 0 0 0 0 0 0 0 0 0 0 0 0 -13 3.5 3.5 3.5 0 -6.16667 -6.16667 0 11.8065 25.354 25.354 -15.4569 22.5714 0 0 -13 0.78 -28.8212 -28.8212 -28.8212 -28.8212 0 0 0 0 0 0 0 0 -30.0166 -30.0166 -30.0166 -30.0166 -30.0166 -30.0166 15.6667 -40.4865 0 33.4 33.4 33.4 33.4 0 0 0 0 25.1455 25.1455 25.1455 25.1455 13.5 13.5 -8.26724 -8.26724 -8.26724 -39.0648 -39.0648 0 -8.26724 -8.26724 -8.26724 -8.26724 -8.77778 0 29.5 29.5 0 34.5714 0 0 0 0 0 0 0 0 0 0 0 0 0 0 0 0 0 0 41.4107 41.4107 41.4107 41.4107 33.9444 43.5 33.9444 33.9444 40.3333 41.5 40.3333 41.5 41.5 44.3333 44.3333 44.3333 43.85 43.85 43.85 44.3 44.3 44.3 44.3 44.5 45 44.5 44.5 44.5 44.5 43.45 45 47.5 43 43 0 43.45 44.25 42.9 42.9 43.3333 43.3333 44 42.75 42.5 42.75 43 43.5 43 0 0 41.8667 43.3333 42 43.3333 42.9667 42.9667 41 0 0 40 40 40 44.5 0 43 43 0 0 42.5 0 0 0 0 0 0 0 37 0 33.6667 0 0 38.3333 38.3333 46 0 0 0 31.75 0 0 31.5 0 0 32 31 0 29.8 30.25 29.8 29.8 24 0 0 0 25.5 23.7143 23.7143 0 0 21.8 0 0 0 0 0 0 0 16.25 16.25 0 0 0 0 0 0 0 0 0 0 0 0 0 0 0 0 0 0 0 0 0 0 0 0 0 -6.83333 0 0 38 40 16.5556 7.5 16.5556 9.5 9.5 -6.23333 -6.23333 -12.05 -6.23333 -6.23333 -4.44444 -1.75 -2 -7.46667 -14.881 0 0 -0.761905 3.15789 8.45 8.45 -14.1944 -53.75 -2.86667 -3 -30.5 -30.5 -28.5556 -3 -33 13.3333 -11.4308 -11.4308 -11.4308 -11.4308 -12.2981 4.7 4.7 -12.2981 -21.5 0 -8.5 -9.16667 -9.16667 -30.5 0 0 -12.5 -8 -8 -8 -8 0 25 -7.5 -7.5 8.5 -9 -0.933333 -9.25 -0.933333 0 0 -8.23529 -4.57143 0 -9 -9.5 -9.5 -12.6 -16.5 -6 -10 0 -11 -26.3333 -26.3333 0 0 -13.5 -13.5 -51 0 0 0 -16.5 -16.5 -13.3333 0 0 0 -14.25 -14.25 -45.6 0 0 0 0 -15.5 0 0 0 0 0 0 0 0 0 0 0 0 0 0 -37.3333 6.33333 6.33333 0 0 0 -43.5 -32.35 -43.5 -43.5 -43.5 -36 -36 -36 -19.2667 -32.6667 -10.7 -30.15 0 0 -48.3462 -48.3462 -43.4444 -46.4038 -46.4038 -46.4038 0 -43.4444 -43.4444 -46.4038 -43.4444 0 -47.8333 -47.8333 -30.2222 -37.0833 -29.4286 -38 -38 -29.4286 0 -38 -26.3333 -44.1667 -57 -42.619 -42.619 -49.3333 -51 -57.4167 -61.3 -61.3 -45.5 -33.0667 -33.0667 0 -11 -46.5 0 -49 -47.1667 0 -45.75 -21.75 10 0 -70 -70 -47.5 -47.3333 -48 0 0 -44.6667 -44.6667 0 -23.5 -44.8222 -44 -44 -44.5 -44 -44 0 0 -52.6667 -52.6667 0 -48.1 -48.1 -51.3571 -51.3571 -46 -46 -46 -46 -48.6667 0 0 -40.5 0 -41 -41 -52.2637 -46.9286 -46.9286 0 -46.4111 0 0 0 -45.9545 -46.8182 -46.4524 0 0 0 0 0 -49.2626 -45.5 -48.9333 -48.9333 0 -45.125 -45.125 -49.25 -46.25 -46.25 -54.6667 -51.1111 0 -51.1111 -41.7857 -40.25 -40.25 0 -40.05 0 -47.0476 0 0 -53.2222 -41.3333 0 -44 0 -51.3333 -39.5 -39.5 -54 -54 -67.6667 -67.6667 -49.4 -50.0714 -50.8571 -46.2778 -39.7143 0 0 0 0 -66.5824 -44.75 -94 -78.3333 0 -81 0 -78.3333 -62.5 -69.6863 0 -81 -96.5714 0 -96.5714 0 -54.6667 0 0 0 0 0 -67.5 0 0 0 0 0 0 -28 0 0 0 0 0 0 0 0 -36 0 -35.1 0 0 -33.5714 0 -32.8636 0 0 0 0 -21.8889 0 0 0 0 0 0 0 0 -55
0 0 0 0 0 0 0 0 0 0 0 0 0 0 0 0 0 0 0 0 0 0 -22 -22 -22 0 -23.6667 -23.6667 -26.5833 -23.5 26 26 -23.5 -23.5 -23.5 0 0 0 0 0 0 0 0 0 0 0 0 0 0 0 0 0 0 0 0 0 0 0 0 0 0 5.41667 0 0 0 0 0 0 0 20.9 20.9 20.9 0 0 3.5 3.5 -35 11.8065 -15.4569 -15.4569 -15.4569 -15.4569 0 0 -28.8212 3.88771 -28.8212 -28.8212 -28.8212 -28.8212 0 0 8.5 0 0 0 0 0 9.94145 9.94145 9.94145 -30.0166 -30.0166 -36.1915 -36.1915 -30.0166 -28.8212 -28.8212 0 33.4 33.4 0 0 0 0 0 0 0 27.5424 -8.26724 -8.26724 12 0 0 -8.26724 -8.26724 0 -8.26724 5.3 5.3 -8.26724 -8.26724 0 0 0 43.0833 0 0 0 0 0 0 0 0 0 0 0 0 0 0 0 0 0 38.5 0 42.8 42.8 42.8 41.4107 33.9444 43 42 42 40.3333 42.7917 42.7917 42.7917 42.7917 43.5 44.3333 0 0 0 43.85 44.3 44.3 44.9 44.9 44 44.5 43.5 43.5 43.5 43.5 43.45 43.45 43 43 0 0 0 44 44 44 44 43.3333 43.5 43.5 42.75 42.75 44.6667 44.6667 43 45 45 45 45 44.8333 42.5 42.9667 42.9667 41 0 43.6 43.6 43.6 43.6 0 0 44.5 0 0 0 42.5 37.7143 37.7143 42.5 0 0 0 0 41 35.75 0 0 36.5 41 38 0 0 0 0 40.5 32 31.5 31.5 0 0 31.5 34.5 31 31 0 0 0 0 27 0 0 23.7143 23.7143 23.7143 23.7143 21.8 21.8 23.6667 0 0 0 0 0 0 0 0 0 0 0 0 0 0 0 0 0 0 0 0 0 0 2 0 0 0 0 0 0 0 0 -6.83333 0 0 0 0 0 26.6667 3.5 7.5 0 0 -14 -6.23333 -6.23333 -9.6875 -12.5 -12.5 -4.44444 0 11.5 0 11.5 11.5 -1.75 -24.3333 -21.6 -17.25 37.3056 -10.3333 -10.3333 6.38462 -14 -5 -5 -27 0 13.3333 -2.86667 -2.86667 -0.352941 25.8562 25.8562 2.69231 4.7 10.8842 2.69231 4.7 6.25 3.21429 3.21429 3.21429 -8.5 0 18 -8 20.6 20.6 2.16667 20.6 0 -7.33333 -7.33333 1.4 1.4 -10 -9.25 -9.25 -17.3333 -17.3333 -17.3333 -15 -17.5 0 -10 -6 0 -6 -6 -9.66667 -32.3333 -29.3333 -25.5 -26.3333 -44 -44 0 -13 0 -14.3333 0 0 0 0 -14.3333 -8 0 0 0 -14.25 -14.3333 0 0 0 0 0 0 0 0 0 0 0 0 0 0 0 0 0 0 0 0 0 -37.3333 -22.8333 -36 -39.3 0 0 0 0 -36 -40.2 0 0 0 0 -17.7895 0 0 0 -53.8333 -48.3462 -39.3 -39.3 -39.3 -42.3333 -42.3333 -43.4444 -42.3333 0 0 -35.5 -46.4038 -35.5 -47.8333 -47.8333 -30.2222 -30.2222 -23.5 -38.475 -38.475 -29.4286 -43.0833 -38 -45.3333 -44.3333 -52.25 -52.25 -12 -12 -33.4667 -33.4667 -33.4667 -21.6812 -14.6667 -42.3333 -29.7143 -29.7143 -15.0857 -15.0857 -10.25 -42 0 -45.75 -45.75 -45.75 -21.75 -46.1667 -46.1667 -70 0 -52.6571 0 -47.3333 -44.6667 -50.1667 -38.6667 0 -48.3333 -38.6667 -56.5 0 -35.5 -35.5 0 0 -44.5 -44.8222 -44.8222 0 0 -48.1 0 0 0 0 0 -54.3333 0 0 0 0 0 -50.9 -46.8889 -46.8889 -42.1667 -46.9286 -46.9286 -46.8333 -16.7857 0 -49.25 -45.9545 0 -46.8182 -46.4524 -44.5 0 0 -45.5 0 -45.5 -41.5 -41.5 -48.9333 -48.3333 -45.125 -45.125 -46.25 -46.25 -36.75 0 -32.5 -43.0714 -43.0714 -40.25 -35.2 -40.25 0 -49.4286 -44.5 -41 -47.0476 -47.0476 -43.9167 -51.0952 -29.9524 0 -51.0952 -51.0952 -27.5714 -51.6667 0 0 0 0 0 -17.1667 -39.7143 0 0 -41.5 -46.2778 0 0 -42 0 0 -92 0 -93 -77.5 0 0 0 0 -86.5 -54.6667 0 0 0 0 0 -54.6667 -64.7778 0 -70 -76.625 0 0 0 0 0 0 -26.5 -28 -28 0 0 0 0 0 0 0 0 -28 0 0 0 -32.8636 0 0 -33.5714 0 0 -25.8824 0 0 0 0 0 0 0
0 0 0 0 0 0 0 0 0 0 0 0 0 0 0 0 0 0 0 0 0 0 -22 -22 -22 0 0 0 -24.6667 -23.5 -23 -23 -22.5 29.3333 29.3333 0 0 0 0 0 0 0 0 0 0 0 0 0 0 0 0 0 0 0 0 0 0 0 0 0 0 0 0 0 0 0 0 0 42.6667 42.6667 42.6667 42.6667 3.5 -0.0625 17.0714 17.0714 0 27.5424 -15.4569 -15.4569 -15.4569 -15.4569 -9.32504 -9.32504 17.2338 49.75 0 0 0 0 0 0 11.7778 -40.4865 0 0 0 -30.0166 9.94145 9.94145 36.8095 36.8095 -36.1915 -36.1915 -36.1915 -28.8212 16.3509 16.3509 11.8065 27.5424 27.5424 27.5424 27.5424 0 0 0 0 0 0 -28.8212 -28.8212 -4.41667 -4.41667 0 0 0 -28.8212 3.88771 5.3 3.88771 9.94145 0 0 0 0 0 14.625 0 0 0 0 0 0 0 0 0 0 0 0 0 0 0 0 0 38.5 35.75 35.75 35.75 35.75 41.4107 41.4107 42 42 42.7917 42.7917 42.3333 43.25 43.25 45 43.5 0 0 0 44 44.9 44.9 44.9 43.7 0 44.3333 44.3333 43 43 43 45.6667 45.5 45.5 0 0 45 0 44.5 44.5 44.5 44.5 0 0 42.5 42.5 42.5 44.6667 43.25 42 42.5 42.5 42 43.5 45 45 44.8333 44.8333 45 0 0 43.6 0 0 0 0 40.8333 0 40.8333 40.8333 37.7143 37.7143 43.6667 0 0 0 0 37 41 37 0 0 36.5 37.6667 37.6667 39 41.8333 41.8333 38 32 32 32 29.8 0 0 0 30.6667 0 0 0 0 0 0 0 25.5 24.6667 23.7143 26 26 23 0 0 0 0 0 0 0 0 0 0 0 16 0 0 11 0 0 0 0 0 0 0 0 0 0 0 0 0 0 0 0 0 0 0 0 0 0 0 0 0 26.6667 3.5 3.5 0 0 -14 -5.2 -5.2 0 5.66667 0 5.66667 0 0 0 0 0 0 -24.3333 -21.6 0 16.1667 17.3714 -31.3214 0 0 0 -12 0 0 25.8562 -2.86667 -2.86667 -0.352941 -0.352941 10.8842 25.8562 25.8562 10.8842 -0.734848 -0.734848 8.71429 -8 -5.5 -6.41667 -11 -8.5 18 20.6 20.6 -11.3 -11.3 0 -7 3 3.1 0 -18 0 -9 -17 -23.35 -23.35 -23.35 -30.3333 -10 -38.5 -38.5 -21.6 0 -32.3333 -9.66667 -9.66667 0 -37.5 -10.5 0 0 0 0 -13 -13 0 -14 -20 0 0 0 0 0 0 -19 -13 -17.5 0 0 0 0 0 0 0 0 0 0 0 0 0 0 0 0 -40 0 0 -40 0 -37.3333 -37.3333 -44.3333 -39.3 -22.8333 -7 -7 0 -40.2 0 -40.2 -53.8333 0 0 0 -26.5455 0 0 -54.2 -30.15 -19.2667 -42.875 -43.9 0 -42.875 -42.3333 -42.3333 -42.875 -42.3333 -42.3333 -23.6667 0 -35.5 -30.2222 -47.8333 -30.2222 -30.2222 -23.5 -54 -25.5 -43.0833 -43.0833 -45.3333 -45.3333 -38 -44.3333 -52.25 -52.25 -12 -33.4667 -23.5 -6.375 -6.375 -52 -42.3333 -42.3333 0 -15.0857 -15.0857 -10 -10.25 0 -21 -41.8 -47.5 0 -47.5 -26 -26 -78 -80.3846 -52.6571 -80.3846 -27.75 -52.6571 -52.6571 -50.1667 0 0 -39.1 -42.8 -38.6667 -35.5 -43 -40.1429 -35.5 0 -44.8222 0 -44.8222 0 -52.6667 0 0 -21.25 -54 0 0 0 0 0 0 0 0 -42.1667 -46.8889 -44.8901 -46.8889 -42.1667 -46.8889 -42.1667 -46.8333 -46.4111 -49.25 0 -45.125 0 0 0 0 0 -41 0 0 0 -41.5 0 0 -46.9412 -40.6667 -39.6667 -33.3333 0 -32.5 -32.5 0 0 0 -35.2 -40.05 -40.05 0 -40.05 -31.375 -46.7692 -36.3333 0 -29.9524 -51.0952 0 0 -42.7083 -42.7083 0 -42.7083 -51.0952 -42.7083 0 0 0 0 0 0 0 0 0 0 0 -70 -73 -28.7727 0 0 -21.25 -21.25 -35 0 0 0 0 0 0 -86.5 0 0 -57 0 0 0 0 -28.5 -28.5 -31.5556 -11 -11 0 0 0 0 0 0 0 -28 -35.4545 0 -31.7222 -31.7222 -28 0 0 0 -33.5714 0 0 0 0 0 0 0 0 0 0
0 0 0 0 0 0 0 0 0 0 0 0 0 0 0 0 0 0 0 0 0 0 -20.5 -21.5 -21.5 -21.5 -21.5 -21.5 -24 -25.8333 -23 -23 0 -24.3333 -24.3333 0 0 0 0 0 0 0 0 0 0 0 0 0 0 0 0 0 0 0 0 0 0 0 0 0 0 0 1.43182 0 0 0 0 0 42.6667 3.5 15.1111 15.1111 0 0 43.0833 43.0833 0 27.5424 25.354 25.354 -15.4569 -15.4569 -30.0166 -30.0166 0 14.9167 0 0 0 51 0 0 11.7778 -40.4865 0 0 0 27.5424 9.94145 9.94145 9.94145 9.94145 -30.0166 -30.0166 9 -28.8212 0 0 -8.26724 -8.26724 -16.5177 -16.5177 -16.5177 -23.3481 -39.81 0 0 0 16.3509 32.2174 32.2174 13.6833 13.6833 13.6833 0 0 -0.0625 3.88771 3.88771 3.88771 0 14.6667 0 0 0 0 0 0 0 0 0 0 0 0 0 0 0 0 0 0 0 0 0 0 0 38.5385 0 0 35.75 35.75 41.4107 35.75 35.75 43.119 42.3333 42.3333 43.119 43.119 43.119 45 0 44.5 44.5 44.5 43.7 43.7 43.7 43.7 0 44.3333 44 44.5 44.5 0 42.5 43 43 43 43 45 0 0 43.3 43.3 44.5 44.5 0 42.5 42.5 42.5 43.25 43.25 43 0 0 0 43.6667 43.6667 43.5 47 47 43.5 0 0 0 0 0 0 41 41 41 37.7143 37.7143 0 37.7143 43.6667 39.75 36.5 36.5 36.5 0 0 0 36.8333 36.8333 42.6 37.6667 40.6667 40.6667 41 41 0 31 31.5 29.8 0 27.5 27.5 0 28.5 0 0 0 0 0 0 0 0 24.6667 24.6667 26 23.5 23 26 22.5 0 0 0 0 0 0 0 0 0 0 0 0 0 0 0 0 0 0 0 0 7 0 0 0 0 0 0 0 0 0 0 0 41.5 0 0 0 0 24.5 24.5 23 -14 -1.5 0 0 0 -5.2 -5.2 4 0 -13.0118 0 -22.3333 -22.3333 0 0 0 0 -27.7 0 0 -17 -26.5 -7.83333 -17.5 -17.5 0 -22.6 -30.5 25.8562 -15 -12.05 -16.9333 0 -26.3182 -13.0118 -13.0118 10.8842 -5 -7.5 -7.5 -2.5 -8 -8.33333 0 -8.33333 -6.41667 -11.3 -11.3 -13.5 0 0 -7 3.1 0 0 -31 -30.5 -30.5 -22 -23.35 0 -30.3333 -30.3333 0 0 0 -16 0 -12 -17.75 -17.75 -14 -10.5 0.5 0 0 0 -18 0 -13.5 0 0 -20 0 0 0 0 0 0 -68.5 -13.3333 -18 -17.5 0 0 0 0 0 0 0 0 8.8 8.8 12 0 0 0 0 0 0 -37.125 0 -43.3333 -40 -37.3333 -41.1667 -45 -41.5 -41.5 -44.3333 -44.3333 0 0 -30.15 -36 -40.2 -40.2 -26.5455 -40.5667 0 -26.5455 -40.8333 -40.8333 -32.35 -32.35 -30.15 -26.5455 0 -42.875 -42.875 -42.875 -42.875 -43.9 -20.3 -42.3333 -25.1667 0 -24.25 -36.5333 -36.5333 -44 -44 -44 0 -43.6 -43.1667 -28.45 -13.2 0 0 -27.5 -27.5 -23.5 0 0 -23.5 -6.375 -14.6667 -52 -23.8 -25.9904 -29.7143 -29.7143 4.53333 -25.9904 4.53333 -21 -41.8 -41.8 -47.5 -47.5 -26 -26 -62.625 -40.9167 -10.2824 -26 -78 -52.6571 -52.6571 -52.6571 0 0 0 -42.8 -42.8 0 -39.1 -40.1429 0 -56.5 -56.5 -56.5 -44.5 -44.5 -47 0 0 0 0 18.5 0 0 0 -63 0 0 0 0 0 0 -46.8889 0 0 0 0 0 -46.25 -40.75 -40.75 -45.125 0 0 0 -41.5 -41.5 0 -37 0 0 -38.7424 -38.7424 -39.6667 -39.6667 -36.5 -33.3333 -37.6786 -37.6786 -32.5 -32.5 -37 0 -40.875 -35.2 -38 0 0 0 -22 0 0 -36.3333 0 0 -51.0952 0 0 0 0 -42.7083 0 0 0 0 0 0 0 0 0 -50.8571 0 0 0 0 0 0 0 0 -21.25 0 -33 -41.8 -77.5 -33.75 -80 -74 -74 -56.3333 -43.2143 -43.2143 0 0 0 -34 0 0 -28.5 -31.5556 -31.5556 -11 0 -36.25 0 0 0 -30.6667 -30.6667 0 0 0 0 -28 -21.625 0 0 0 -21.625 -39.5 -39.5 0 0 0 0 0 0
0 0 0 0 0 0 0 0 0 0 0 0 0 0 0 0 0 0 0 0 0 0 -21 0 0 -22 -21.3333 -21.3333 -23 -22 0 0 0 -24.3333 -23.6667 0 0 0 0 0 0 0 0 0 0 0 0 0 0 0 0 0 0 0 0 0 0 0 0 0 0 0 0 0 0 0 0 0 -4.41667 3.5 15.1111 -15.4569 40.7 0 0 0 0 -9.32504 -9.32504 -9.32504 -30.0166 -30.0166 -30.0166 -30.0166 3.88771 0 -0.0625 -0.0625 -19.5385 0 23.3158 23.3158 -30.0166 -30.0166 0 0 0 0 0 0 13.6833 -28.8212 0 0 0 29.5 0 0 27.5424 27.5424 -16.6316 -16.6316 -16.6316 -64.6538 0 -28.8212 -28.8212 16.3509 16.3509 32.2174 27.5424 27.5424 13.6833 13.6833 13.6833 13.6833 0 0 14.6667 14.6667 0 14.6667 0 0 0 0 0 0 0 0 0 0 0 0 0 0 0 0 0 0 0 0 0 0 0 38.5385 41.2 41.2 41.2 41.2 0 0 0 41.25 42.5 42.5 43.119 43.119 41.25 47.1 47.1 51.3333 51.3333 43.5 44.1905 44.1905 0 0 0 44.1905 44 44.5 44.5 0 42.9 42.9 42.9 42.9 43.5 45 0 0 42.5 42.5 42.5 42.5 0 42.5 42.5 42.5 42.5 43.25 43 0 0 42 45.75 43.6667 45.75 50.3333 50.3333 39.5 43.5 45.5 0 41.4 0 40.6667 0 0 40 40 40 0 37 38 39.75 37.5 37.5 0 36 36 50 0 0 0 37 40.6667 44.3333 0 0 0 34.5 0 30.7 30 30 30 30.7 28.5 0 0 0 0 0 24.5 24.5 0 23.5 0 23.5 23.5 0 20 20 20 19 0 0 20.5 20.5 0 0 0 0 0 0 0 0 0 0 0 0 0 0 2 0 0 0 0 0 0 0 42.3333 0 0 43.5 21.6 12.3889 24.6429 24.6429 0 -4.83333 -4.83333 17 3.5 0 0 0 0 0 -5.2 18.4 4 -13.75 -13.75 -22.3333 -22 0 0 0 0 1.5 -7.5 0 0 -7.83333 -20.5714 -12 -12 0 -12.05 -17.1667 -12.05 -16.9333 -24 -12.05 -13.3333 -5 0 0 -18.2 0 0 -10 -2.5 -16.8889 0 0 -8.33333 -14.6667 -13.5 -13.5 -13.5 -13.5 -6.5 0 -11 0 0 0 -8 -1 -11 0 0 -11 0 0 -11.25 -11.25 0 0 -13.5 -11.25 -9 -14 -9 0 0 0 -18 -15 -16 -16 -13 0 0 0 -45.3333 0 0 0 0 0 0 -15.5 -15.5 -15.5 0 0 0 0 0 0 0 0 6.33333 -35.5 0 6.33333 0 0 0 0 0 0 -40 -40 -43.3333 -40 -43.3333 -37.4 -34.5909 -41.5 -44.3333 -44.3333 -39.2361 -27.6 0 -22.8333 -22.8333 -40.8333 -40.5667 -13 -40.5667 -40.8333 -37.1667 -37.1667 -37.1667 -32.35 -32.35 -26.5455 -43.4444 -42.875 -25.6 -25.6 -43.9 -42.875 -30.65 -30.65 -20.6429 -25.1667 -24.25 -36.5333 -36.5333 0 -28.3968 -1.5 -22.6667 -43.6 -43.6 0 -28.45 0 0 -13.2 -14 0 0 0 -0.769231 -42.8365 -26.5556 -37.4 -23.8 -23.8 -25.9904 -25.9904 -25.9904 -25.9904 -25.9904 -27.3333 -27.3333 0 -47.5 0 -47.5 -25.7619 0 -31 0 0 0 -78 -40.9167 0 0 0 0 -39.1 -39.1 -38.6 -39.1 0 -40.1429 -40.1429 -35.5 -35.5 0 -42 -38.3571 0 0 0 0 0 0 0 0 -21.25 -21.25 0 -41.3333 0 0 0 0 0 -43 0 -36.75 -36.75 0 0 0 -40.6667 0 0 -34.0227 -34.0227 -38.7424 0 0 0 0 0 0 -38.7424 0 0 0 0 -34.1667 0 -24.5714 -24.5714 -31 -59.5 -24.5714 0 -31 0 -36 -40.875 0 0 -50.5833 -50.5833 -50.5833 0 0 0 0 0 0 0 0 0 0 0 0 0 0 -36.3333 -50.0714 0 -50.8571 0 -42.5 0 0 0 0 0 -44.5 0 0 -77.5 0 0 -80 -74 0 0 -35.5 0 0 0 0 0 0 0 0 0 -11 0 0 -31.5556 -31.5556 -31.5556 -31.5556 0 -30.6667 0 0 0 0 0 -35.4545 0 -28 0 0 0 0 0 0 0 0
0 0 0 0 0 0 0 0 0 0 0 0 0 0 0 0 0 0 0 0 0 -21 -21 0 -20.6667 -21 0 0 -22 -22 -22.5 -22.5 23.5 -23.6667 -23.6667 0 0 0 0 0 0 0 0 0 0 0 0 0 0 0 0 0 0 0 0 0 0 0 0 0 0 0 33.4 33.4 0 0 0 0 0 42.6667 -15.4569 -15.4569 40.7 0 0 0 2.93333 -9.32504 -9.32504 -9.32504 -9.32504 -30.0166 -30.0166 -30.0166 3.88771 0 25.354 25.354 0 -14.1941 9.94145 9.94145 9.94145 0 0 0 0 15.6667 -69.0439 -69.0439 0 8 0 0 0 0 0 0 27.5424 29.5 0 -45 -45 0 15.6667 27.5424 27.5424 27.5424 27.5424 27.5424 27.5424 -30.0166 -30.0166 -30.0166 -30.0166 -9.32504 -77.7576 -68.2857 5.3 5.3 0 0 0 13.6833 0 0 0 23.3158 23.3158 0 0 0 0 0 0 0 0 0 0 0 0 0 0 0 44.6212 40.5546 41.2 44.6212 44.6212 44.6212 0 0 0 0 43.5 43.5 41.25 41.25 41.25 46.6667 47.1 0 0 44.5 43.5 44.1905 0 0 51.3333 44.1905 44 0 0 0 44.125 44.125 44.125 44.125 44.5 43 0 0 41.65 41.65 43.2667 43.2667 43.5 0 0 42.5 43.6667 43 44 0 43.3333 41.5 42.1667 42.1667 42.1667 42.1667 50.3333 39.5 46 0 41.4 41.4 39.5 0 0 0 0 0 0 0 0 0 39.75 39.75 40.2 39.8333 36.6667 0 50 0 0 0 37 0 44.3333 0 0 36.5 36.5 30.6667 30.7 29 30.7 30.7 32.6667 0 0 0 0 0 0 23.5 23.5 0 23.5 23.5 0 0 0 0 20 0 0 0 0 19 0 0 0 0 0 0 0 0 0 0 0 0 0 0 0 2 0 0 46.1 46.1 0 0 24 0 0 0 43.5 0 0 0 0 0 0 0 0 0 0 0 0 0 0 -14.5 13 0 -4.25 0 0 18 0 0 0 0 0 0 0 -27 -7.83333 -17.75 -11.5 -11.5 -15 -12.6353 0 -12.6353 -28.5 0 0 0 0 -16.9333 -16.9333 -18.2 0 0 -21 -17.5 -17.5 0 0 -7.75 -7.75 -7.75 -10 -13.5 -34 -7 0 0 -13 0 0 0 -9.33333 -6.66667 0 0 -6.66667 -8 0 -11 -20 0 -9.5 0 0 -14 -14 0 0 0 0 0 0 0 0 0 0 0 0 0 0 0 0 0 0 0 0 0 0 0 0 0 -34.9286 0 0 0 -27.5 -27.5 0 0 0 6.33333 -35.5 -35.5 -37.125 -37.125 0 -39.2361 -37.125 -37.3333 -43.3333 -43.3333 -44.3333 -42.4 -42.4 0 -39.3778 -39.3778 0 -37.4 -43.3333 -38.4333 -39.3 -13 0 -20.4111 -20.4111 -13 0 -27.7222 -37.1667 -37.1667 -37.1667 -37.1667 -27.5 -27.5 -20.2 -21.3 -31.6 -28.7727 -22.75 -30.65 -20.6429 -25.1667 -42.6667 -15.8333 0 0 -28.3968 0 -22.6667 -43.6 -43.6 -43.1667 -28.45 -31.4091 -31.4091 -31.4091 -31.4091 -31.4091 -41.5556 0 -42.8365 -42.8365 -42.8365 -26.5556 -37.4 -23.8 -25.9904 -25.9904 0 -25.9904 -25.9904 0 0 -31.6667 4.53333 0 -45.75 0 0 0 -36.5833 -36.5833 -37.8333 -38.6389 -38.6389 0 -37 0 -39.3333 -38.6 0 -38.6 -38.6 0 0 0 -37.1667 -38.4333 -38.4333 0 0 -38.4333 0 0 -38.3571 -38.3571 0 0 0 0 0 0 -41.3333 0 -41.3333 -36 0 -43 0 -43 0 -36.75 0 -40.6667 0 -37.6786 0 0 -33.3333 -24.75 -36.5 -34.0227 -38.7424 -38.7424 -37 0 0 0 -38 -34.2 -34.2273 -37.75 0 0 0 0 0 -34.1667 0 -38.25 -24.5714 -24.5714 -45.6667 -40.875 0 0 0 0 -36.3333 -43.9167 0 0 -42.7083 0 0 0 -27.5714 0 0 0 0 0 -68 -34 0 0 0 -42.5 -42.5 0 -42.75 0 -42.75 0 0 -54.3333 0 -30 0 0 0 0 0 0 0 0 -19 0 0 0 0 0 -28.5 0 0 0 0 0 -38.5 -38.5 -31.5556 -31.5556 -30.6667 -30.6667 0 0 0 0 0 0 0 0 0 0 0 0 0 0
0 0 0 0 0 0 0 0 0 0 0 0 0 0 0 0 0 0 0 0 0 -21 -20 -20.6667 -20.6667 -21 -20.8333 -20.8333 -21 -21 -21.5 -21.5 -22 -22.5 -22.5 -2.33333 0 0 41.3333 0 0 0 0 0 0 0 0 0 0 0 0 0 0 0 0 0 0 0 0 0 0 0 2.16667 2.16667 -5.92727 -13 0.78 0.78 2.93333 2.16667 5.3 5.3 0 0 0 0 0 0 -28.8212 -28.8212 27.5424 -30.0166 -30.0166 -30.0166 42.6667 0 25.354 25.1455 -28.8212 45.8571 -0.0625 -0.0625 0 0 30.8333 30.8333 15.6667 15.6667 -69.0439 0 0 8.5 8.5 8.5 0.5 16.3509 43.0833 43.0833 -49 29.5 0 -41.9762 16.3509 0 0 -16.6316 -16.6316 -16.6316 -16.6316 -30.0166 -30.0166 -30.0166 -30.0166 -30.0166 -30.0166 0 -75.8188 -30.0166 0 0 0 0 13.6833 13.6833 0 -16.5177 0 0 0 0 0 0 0 0 0 0 0 0 0 0 0 0 0 0 40.5546 40.5546 44.6212 44.6212 40.5546 40.5546 0 0 0 0 41.25 45 43 43 44.5143 46.6667 46.6667 44.5143 44.5143 0 44.5 44.5143 47.1 47.1 44.1905 43 44.1905 0 42.7385 42.7385 0 0 43.1 43.1 0 44.5 0 0 41.65 41.65 43.2667 43.2667 0 0 0 42.5 43.6667 43.6667 0 43.3333 43.3333 42.6667 47.8333 47.8333 46.6667 46.6667 0 40.3333 0 0 41.4 41.4 39.5 0 0 0 41 41 0 0 39 39 0 0 40.2 0 0 39 40.2 0 0 36.6667 0 44.3333 0 0 36.8333 0 32.6667 32.6667 30 30 0 0 30.6667 0 0 0 0 0 0 0 0 0 21 22.2 22.2 22.2 0 0 0 0 0 20 20 20 19 19.5 0 0 0 0 0 0 0 0 0 0 0 0 0 0 0 16 0 42.8571 51.3333 51.3333 0 0 0 0 0 0 0 0 0 0 0 0 0 0 0 0 0 0 0 4.5 0 0 0 -21.3333 0 0 0 0 0 0 0 0 0.5 0 -26 -26.3333 -26.3333 0 -28.5 -12.6353 0 -13.0118 -28 -8 -34.25 -36 0 0 -32.5 -26.3182 0 0 -9 -9.66667 -3 -10 0 0 0 0 0 0 -34 -12 0 0 -13 -13.8333 -8.5 0 0 -4.5 -4.5 -6.66667 -12.3333 -8.5 -15 -10 -15 0 -9.5 0 0 0 0 0 0 0 0 0 0 0 0 -14 0 -15 0 0 0 0 0 0 0 0 -44.3333 -44.3333 -21 -7.2 -44.3333 -44.3333 -31.25 -3.66667 0 -31.25 -34.9286 0 0 0 0 -26.5455 0 -35.5 -35.5 -44.3333 -44.3333 0 0 0 -44.3333 -44.3333 -44.3333 -41.1667 -39.2361 -41.1667 -37.4 -37.4 0 -39.3778 -37.4 -37.4 -39.3 -22.8333 -37.4 -38.4333 0 -20.4111 -20.4111 0 0 -27.7222 -25.9167 -37.1667 -31.2 -22.75 -35.225 0 -35.225 -31.6 -31.6 0 -29 -26.9778 -17.1667 0 0 0 0 -28.3968 -38.5357 0 -32.0556 -38.8333 -38.8333 -41.05 -29.2333 -31.4091 0 -25.6667 -31.4091 -31.4091 0 -42.8365 -0.769231 -42.8365 -41.1 -42.8365 -26.5556 -42.8365 -41.1 -12.3939 -35 -61.5 -15.8571 0 -9.95455 -35.85 -16.2 16.6667 -16.2 -35.85 -30 -36.5833 0 0 0 0 0 -38.6389 -37 -39.3333 0 0 0 0 -38.6 12 0 0 -37.1667 -37.1667 -38.4333 0 -38.4333 0 -41.25 0 -38.3571 0 0 0 -37.6667 0 -37.6667 -37.6667 0 -36 0 0 -40.05 -41.8889 -41.7857 0 0 0 0 -37 -32.5 -37.6786 0 0 -29.1429 0 0 -34.0227 0 -34.2 -36 0 -36.1667 -36.1667 0 0 -31.75 -31.75 -31.75 0 0 0 0 0 0 0 -34 -38.25 0 0 0 -26.2143 -30 -37.4167 0 0 0 0 0 -3.375 -33.95 0 0 0 -33.95 -47.375 -46 0 -47.5833 0 0 0 0 -60.5 -60.5 0 -42.5 -60 0 -54.3333 -54.3333 0 0 0 -21.75 0 0 0 0 0 0 0 0 0 0 0 0 -26 0 0 -25 0 0 -19.8 -38.5 -38.5 0 -38.5 0 0 0 0 0 0 0 0 0 0 0 -29.6111 0 0
0 0 0 0 0 0 0 0 0 0 0 0 0 0 0 0 0 0 0 0 0 -21 -20.5 -20.5 -20.5 -20.5 -20.8333 -21.6667 25 -21 -21.5 -21.5 -23 -23 -23 0 -39.75 41.3333 41.3333 0 0 0 0 0 0 0 0 0 0 0 0 0 0 0 0 0 0 0 0 0 0 0 2.16667 2.16667 -21.5 -13 -9.5 -9.5 31.2963 0 0 0 0 0 0 0 29.3 0 0 0 0 -8.26724 12.6071 12.6071 -51.9636 15.6667 25.1455 25.1455 0 32.2174 16.3509 16.3509 0 0 0 0 -30.0166 -28.8212 0 0 0 0 1.44444 1.44444 1.44444 0 0 0 43.0833 0 -41.9762 -41.9762 16.3509 0 0 0 0 -16.6316 -16.6316 27.5424 27.5424 27.5424 27.5424 -30.0166 0 0 25.354 -16.5177 -16.5177 -16.5177 -16.5177 0 9.94145 9.94145 -16.5177 -16.5177 0 0 0 0 0 0 0 0 0 0 0 0 0 0 0 0 0 0 0 0 0 0 40.5546 40.5546 0 0 0 0 0 44.6667 44.6667 44.6667 38.5 43.8 46.6667 46.6667 44.1905 43.75 44.1905 44.5143 43.8 43.8 42.7385 42.7385 42.7385 42.7385 42.7385 47.2 46.8333 39 43.1 43.1 0 0 0 0 0 41.65 43.2667 45.6667 43 0 0 42.6667 43.6667 0 0 0 0 42.6667 42.5714 0 42.5714 42.5714 42.5 40.3333 0 45 46.6667 46.6667 0 0 0 0 44.5 44.5 42.8889 42.8889 39.0833 37 40.2 40.2 0 0 39.8333 31.5 40.2 40.2 40.2 36.6667 0 0 0 36.8333 36.8333 30.6667 0 0 30 29.8333 29.8333 0 31.25 0 0 0 0 0 0 0 0 0 0 21 21 21 0 0 0 0 19.6667 0 0 0 19.5 0 0 0 0 0 0 0 0 0 0 0 0 0 0 0 0 31.2 48.5 48.5 0 0 0 43 27 21 0 -3 0 0 0 0 0 0 -20 -20 0 0 0 0 0 -32.5 -27.7 -27.7 -27.7 -21.3333 -24.3333 0 0 0 0 -0.416667 -23.5 0 -12.1667 0 -28.5 0 0 0 -26.5 -26.5 0 -24 0 1.5 -34.25 0 -34.25 -34.25 -27.7 -11.1667 -11.1667 0 -2 -2 0 -10.5 -10.5 -10 -11.5 -11.5 -12.5 0 -7 -12 0 0 0 -13.8333 -13.8333 -13.5 0 0 0 -2 -12.3333 0 0 0 -18 0 0 0 0 0 0 0 0 0 0 0 -3.5 0 -59 0 0 0 0 0 -29.2 -32 0 0 0 0 0 0 0 -7 -44.3333 -44.3333 0 0 0 0 -31.25 0 0 -40.8333 -40.8333 -26.5455 -40.8333 -34.9286 -34.9286 -40.8333 0 0 0 0 0 -39.2361 -39.2361 -20.4111 0 -38.4333 -38.4333 -38.4333 -27.5 -37.4 -39.3778 -39.3778 -37.4 -37.4 0 0 -34.0857 -34.3333 0 -32.75 -32.9286 0 -33.9167 -34.2 -34 0 -34.2 -34 -34 -35.225 -35.225 -31.6 -24.4286 -29 -26.9778 0 0 -26.9778 -21.5 -21.5 -36.5 -39.8214 -39.8214 -32.0556 -38.8333 -38.8333 -41.05 -40.2 -25.0455 -25.6667 -25.6667 -25.8 0 0 0 -38.1667 -42.8365 -42.8365 -42.8365 -9.8 -41.1 -41.1 -12.3939 -4.775 -4.775 -6 -15.8571 -9.95455 0 -35.85 -35.85 -16.2 0 0 0 -36.9286 -36.9286 0 0 -37.8333 0 -38.6389 -6.33333 -31.9167 0 0 -34.1429 12 0 0 -37.1667 0 -37.1667 -38.5 -37.1667 0 0 0 0 12.75 0 0 44.7333 0 0 0 -32 0 16.5 -35.5 0 0 0 0 -35.2 -35.2 0 0 0 0 -24.2 0 0 0 0 0 -31.75 -38 0 0 0 0 -69.6863 -38 -36 -36 -27.8889 -34.2273 -70 0 0 0 -17.7143 6.38095 0 0 -24.5714 0 0 -48.75 0 -37.4167 -30 -30 -30 -16.2821 0 -24.2857 -3.375 -3.375 0 -3.375 -33.95 0 0 0 0 0 -68 0 0 0 0 0 0 0 0 0 0 0 0 0 0 0 0 0 0 0 0 0 0 0 0 0 -19 0 0 0 -12.0909 -12.0909 0 0 0 0 0 0 0 0 -38.5 -38.5 -74.3333 -74.3333 0 0 0 -30.6667 0 0 0 0
0 0 0 0 0 0 0 0 0 0 0 0 0 0 0 0 0 0 0 -19.5 -19.5 -20.5 -20 -20.5 -20.5 -21 -21.6667 -21.6667 25 0 -22.3333 -22.3333 -23 -22.5 -22.5 -23 -90.5 -23 -23 51.4 0 -66.75 0 0 0 0 0 0 0 0 0 0 0 0 0 0 0 0 0 0 0 0 0 0 -21.5 -13 0 0 41.8333 -59.525 31.2963 31.2963 15.6667 -28.8212 3.88771 3.88771 29.3 0 32 32 21 33.4 0 0 0 0 0 0 0 32.2174 27.5424 27.5424 29.8534 0 29.8534 29.8534 -30.0166 9.94145 -19.5209 -19.5209 0 0 -16.6316 -16.6316 -16.6316 0 24.8333 24.8333 36.8095 0.78 32.2174 32.2174 16.3509 0 0 15.6667 15.6667 25.354 15.6667 15.6667 15.6667 -8.26724 27.5424 0 0 0 -66.3333 50.5357 -16.5177 -16.5177 -16.5177 -30.0166 -30.0166 -30.0166 -30.0166 -16.5177 0 0 0 0 17 0 0 0 0 0 0 0 0 0 0 0 0 0 0 0 0 0 0 0 0 0 41.0667 0 41.0667 45.6667 45.6667 45.6667 38.3636 43.8 46.6667 46.6667 44.1905 45.2 46.6667 43.8 43.75 43.75 47.6667 43.75 42.7385 42.7385 42.7385 47.2 0 0 46.8333 46.8333 42.5 0 0 43.2143 43.2143 43.2143 45 45.6667 43 0 0 43.875 43.6667 43.6667 42.5 42.5 42 43 42.5714 44.3333 42.5714 42.5714 0 0 0 0 42.5 42.5 40.3333 0 0 40 42.8889 42.8889 0 0 0 42.8889 42.8889 42.8889 39.0833 37 39.8333 39.25 31.5 31.5 0 39 39 41 0 0 0 30.6667 31.25 0 31 31 31 0 34.1 0 0 0 0 0 0 0 24 0 0 24 24 0 0 0 0 0 23 23 0 0 0 17.5 17.5 0 13.5 13.5 0 0 0 0 10 0 0 0 0 0 0 31.2 21 26.9 16.7222 16.7222 17.3333 17.3333 -7 -3.5 -3.5 0 0 0 0 0 0 0 0 0 0 0 0 0 0 0 0 -10 0 -21 0 0 0 11 10 -0.416667 0 -22 0 0 0 0 0 0 -30 -28 0 -24 0 -18 -30 0 0 0 -30.3333 -2 -0.761905 -0.761905 -2 11.5 0 0 -10 0 -18.5 -18.5 -12 -14 -10.5 -12 0 0 -11.5 -15 -15 -11.5 0 0 0 -14 0 -15.3333 -16 0 -15 0 0 0 0 -14.5 -59 0 0 0 0 0 0 0 0 -14 -14 0 -25.5 0 -28.1667 -28.1667 -28.1667 -25 0 0 0 0 -34.5909 -34.5909 -44.3333 -34.5909 0 -44.3333 -7 -41.5 -41.5 0 0 -34.9286 -40.8333 -26.5455 -40.8333 -40.8333 0 -40.8333 -42.4 0 0 0 -40.5667 -33 0 -40.8333 -13 -20.5714 -22.8333 -38.4333 0 -34.0857 -34.0857 -34.0857 0 0 0 -37.4 -37.4 -34.3333 -34.3333 -34.3333 -32.75 -33.3333 0 0 0 0 -33.9167 -34.3333 -29.3 -29.3 -29.1212 -29.1212 -24.4286 -24.4286 -29.8333 -36.3333 -29 -26.9778 0 -21.5 -21.5 -36.5 -31 -39.8214 -31 -38.5357 -32.0556 0 -19.3095 -19.3095 0 -25.0455 -25.0455 -30.4545 -20.5714 -25.8 -25.8 -32.5 -32.5 0 0 -41.1 -41.1 -38.1667 -35 -12.3939 -8.2 -15.8571 -15.8571 0 16.3571 16.3571 -20.75 -29.2857 0 -20.75 0 -36.9286 -36.9286 -36.5833 0 0 7 -6.33333 -6.33333 -31.9167 -31.9167 -34.8 0 -34.1429 0 0 0 0 -31.8333 0 0 -38 -37.5 -6 -6 12.5 12.75 0 0 0 0 0 0 0 0 -35.5 0 0 0 0 0 -31.375 -36 0 -34 -34 -24.5714 -17.7143 -17.7143 -17.7143 -17.7143 0 0 -29 0 0 -27.8889 0 0 0 0 -36 -59 0 -63 -15.3 -15.3 0 -15.3 0 0 -30.8125 -16.7857 -16.7857 0 -30.8125 32.1429 -32.6667 -30 -30 -16.2821 -16.2821 0 0 -3.375 -26.5 -38.3333 0 0 0 -52 0 0 -29.6667 0 0 -29.3333 0 0 0 0 0 0 0 0 0 0 0 -32.8333 -17.3333 0 0 0 -14 -25.3333 -16.1667 -16.1667 -24 0 0 0 -12.0909 -12.0909 0 -12.0909 -24 -24 0 0 0 0 0 -25 0 -74.3333 0 0 0 0 0 0 0 -29.6111 0
0 0 0 0 0 0 0 0 0 0 0 0 0 0 0 0 0 0 0 -19.5 -19.5 -19.5 -19.5 -20.5 -20.5 -21 -21 -21 -21 0 -22.3333 0 -22 -22.5 -22.5 -22.5 0 -22.5 -22.5 0 -66.75 -66.75 0 0 0 0 0 0 0 0 0 0 0 0 0 0 0 0 0 0 0 0 0 0 0 0 0 0 0 -13 15.6667 15.6667 0 0 0 0 16.3509 -28.8212 32 0 0 0 0 0 0 -3.5 0 0 0 0 27.5424 33.4 0 34 0 0 0 0 0 0 0 0 -16.6316 0 41.3333 0.78 0.78 0.78 11.8065 11.8065 11.8065 11.8065 22.5714 22.5714 0 -30.0166 -30.0166 27.5424 15.6667 15.6667 15.6667 15.6667 15.6667 0 0 0 -66.3333 0 -16.6316 -16.6316 0 9.94145 9.94145 9.94145 36.8095 41.6 0 0 0 0 0 0 0 0 0 0 0 0 0 0 0 0 0 0 0 0 0 0 0 41.5 0 0 39.4848 39.4848 41.0667 45.45 45.45 44 44.7143 44.7143 44.7143 44.7143 44.7143 45.2 49.8333 45.2 45.2 47.5 47.5 0 47.2 47.2 47.2 47.2 0 47 45.5 45.5 45.5 42.5 0 43.2143 43.2143 43.2143 43.2143 45.6667 43 43.875 43.875 47 40.5 43 44.5 44.5 42.5 42.5 44.3333 44.3333 42.5714 42.5714 39 0 0 44.5 44.1667 44.1667 0 0 0 40 0 0 0 45.25 0 0 42.8889 42.8889 39.0833 39.25 39.25 39.25 0 0 0 0 32 0 0 31.8333 31.8333 31.25 31.25 34.1 31 31 31 31 0 0 0 0 0 0 0 0 0 0 23.6667 23 23 0 0 0 0 0 0 0 19 0 0 0 0 0 0 0 0 11 0 0 0 0 0 0 0 0 0 0 21 8.25 0 0 2.16667 2.16667 0 0 0 0 0 0 0 0 0 0 0 0 0 0 0 0 -18 14.6667 14.6667 -19 -21.75 0 0 0 0 0 -0.416667 -0.416667 0 -22 -26.3333 -26 -27 0 0 -24 -30 -30 0 -24 0 0 0 -32 -32.4286 -32.4286 0 0 -12.6353 -1.75 0 0 0 0 -9 0 0 0 0 0 -11 -15.6667 -15.6667 0 -12.9 -12.9 -16.5 0 -12.9 -12.9 0 0 0 -15.3333 -15.3333 -15.3333 -14.5 0 0 0 0 0 0 0 0 -22 0 0 0 0 0 0 -3.5 0 0 0 0 -30 -29.3333 -28.1667 0 0 0 0 -24 0 -34.5909 -34.5909 0 -34.5909 -42.4 -44.3333 -39.2361 0 0 -40.2 -40.8333 -34.9286 0 0 0 -40.2 0 0 0 -32.35 0 -40.5667 -27.7222 -27.7222 0 0 0 0 -32.75 0 -34.3333 -34.3333 0 0 0 -33.2222 0 -37.4 -34.0857 -33.1905 -32.8333 -33.1905 0 -28 -37.75 0 -28.55 -28.9167 -34.3333 -29.3 0 -29.3 -25.3333 -29.1212 -25.3333 -25.3333 -29.8333 -29.1212 -29.8333 -32.3333 -26.9778 -29 -22.6667 -39.8214 -27 -27 -27 -34.1364 -34.1364 -34.1364 -34.1364 -34.1364 -25.0455 -25.0455 -25.0455 -25.6667 -20.5714 -20.5714 0 0 0 0 -24.6667 -1.58824 -6.37179 -36.6818 13 -8.2 -35.2778 -35.2778 -8.2 -35.2778 -35.2778 12.7857 12.7857 -29.2857 -20.75 -20.75 -16 -30 -30 0 0 23.5769 23.5769 0 0 -31.9167 -0.9 -34.1429 0 0 0 -1.66667 -1.66667 -31.8333 -31.8333 -31.8333 -38 -38 -37.5 0 0 -31.3333 0 0 -30.75 0 0 0 0 0 0 0 0 0 0 0 0 0 -36 -36 0 0 15 15 -17.7143 0 -38.25 0 23.875 23.875 0 -31.05 -19.9333 -63 -63 -53.8333 0 0 -19.9333 0 0 0 -15.3 -15.3 0 0 0 23.875 0 0 -16.7857 -34.9 -34.9 -30 -30 -30 -16.2821 -16.2821 -44.75 -7.875 -7.875 0 5.75 5.75 -33 -19 0 0 0 0 0 -35.5 0 0 0 0 0 0 0 0 0 0 -77.25 -32.8333 -57.625 -32.8333 -32.8333 0 0 -25.3333 -16.1667 -16.1667 -16.25 -16.1667 -17.6667 -17.6667 -17.6667 -12.0909 0 0 -12.0909 -12.0909 -12.0909 0 0 -12.0909 0 0 0 0 0 0 0 0 0 0 0 0
0 0 0 0 0 0 0 0 0 0 0 0 0 0 0 0 0 0 0 -19.5 -19.5 -19.5 -19.5 -19.5 -19.5 -20 -20.5 -20.5 0 -21 0 0 -22 -21.5 -21.5 0 -22 -22 -22 -21.75 -22.5 -22.5 -83 0 0 0 0 0 0 0 0 0 0 0 0 0 0 0 0 0 0 0 0 0 0 17.2338 0 0 0 0 -28.8212 -28.8212 32.5714 -5.5 0 0 0 0 0 0 0 0 0 0 0 0 8 8 0 27.5424 33.4 33.4 0 0 0 0 0 0 50.5357 50.5357 23.3158 0 0 0 41.3333 14.9167 0 0 0 0 23.3158 23.3158 -9.32504 0 0 -30.0166 36.8095 -30.0166 -30.0166 9.94145 9.94145 -30.0166 3.88771 0.78 0.78 0.78 0 0 9.94145 9.94145 0 0 0 0 8 0 0 0 0 0 0 0 0 0 0 0 0 0 0 0 0 0 0 0 0 0 0 39.4848 39.4848 39.4848 39.4848 39.4848 39.4848 39.4848 0 45.45 45.45 45.45 44.5 39.2 40.7727 40.7727 0 49.8333 49.8333 43 43 45.2 45 0 0 45.4 45.4 0 0 47 43.5 43.5 0 44.5 0 0 0 44.5 44.5 0 0 43.875 0 43 41.6667 40.5 0 0 0 0 42.4167 42.4167 42.5714 42.5714 43 42.4667 0 0 45.5 45.5 0 0 0 40 0 0 41.6667 45.25 0 44 0 0 37.3333 0 0 0 39.2 39.2 36 0 39.2 0 0 0 0 34.1 34.1 34.1 31 30.5 30.5 30.5 0 0 0 0 0 0 0 0 42 0 0 0 0 23.6667 23.6667 0 20.6667 20.6667 0 0 0 0 0 0 15.5 0 0 0 0 11 0 0 0 0 0 0 0 0 0 0 13 0 0 0 0 0 0 0 0 0 0 0 0 0 0 0 0 0 0 0 0 0 -2 14.6667 0 -19 0 -21.75 -22 -22 -22 -22.3333 0 -22.3333 -24 0 0 -26 0 0 -27 0 0 0 0 0 0 0 0 0 0 -30 0 0 -13.0118 -1.75 -1.75 0 0 -14 0 0 0 0 0 -8.5 -11 -12 -15.6667 -15 0 0 0 -11 -22.25 -22.25 -22.25 0 -15.3333 -15.3333 0 0 0 0 0 -25.5 0 -18 0 0 0 0 0 -29 -30.3 -28.3333 0 0 -3.5 -15 0 0 0 -30 0 -32 -41.5 -41.5 -43.5 0 0 0 0 0 -34.5909 0 -34.5909 -34.5909 -42.4 0 0 -34.5909 -39.2361 0 0 -32.6667 -10.7 -40.2 0 0 -27.5 -26.5455 -16.5 -16.5 -25.9167 -27.7222 0 -27.7222 -27.7222 0 0 -32.9286 -32.75 0 0 0 0 0 0 -33.2222 -33.2222 -33.2222 0 0 -34.9333 -33.1905 -28 0 -26.1071 -31.619 -25.95 -4.93333 -27.2222 0 -27.2222 -29.1212 -25.3333 -25.3333 -25.3333 -29.1212 -25.3333 -26.6875 -29.7444 -29.7444 -29.7444 -40 -8.8 -38.5357 -38.5357 -38.5357 0 -38.5357 -19.0119 0 0 0 0 0 -25.0455 0 0 -17.3333 0 -10.3333 0 0 -24.6667 0 -1.58824 -1.58824 -1.58824 13 -1.58824 13 13 -35.2778 -35.2778 12.7857 -29.2857 16.3571 -20.75 -16 -16 -30 0 -30.5 0 23.5769 0 -6.33333 23.3333 0 -0.9 0 -30.75 -30.75 0 0 0 0 0 0 0 -19.75 0 0 -46 0 -30.75 0 0 0 0 0 -0.111111 -16.8333 0 0 0 0 0 0 0 -25.1667 0 0 -20.0833 -38.25 0 0 -28.7727 0 0 0 23.875 0 0 0 0 0 0 0 0 0 44.875 0 0 0 0 0 0 -15.3 0 23.875 0 -30.8125 -16.7857 32.1429 0 -30 -65.5 -29 -65.5 0 0 0 0 0 5.75 0 0 0 0 0 0 0 0 0 0 0 0 0 0 0 -77.25 0 0 0 0 -32.8333 0 0 0 0 -43.4 0 0 0 0 0 -16.1667 0 0 -12.0909 -22.3636 -12.0909 -12.0909 -12.0909 -12.0909 0 -12.0909 0 0 0 0 0 0 0 -38.5 -35.4444 0 0
0 0 0 0 0 0 0 0 0 0 0 0 0 0 0 0 0 0 0 0 0 -19.5 -19.5 0 0 0 -20 -20 -20 -20.5 -21.5 -21.5 -21.6667 -21.5 -21.5 -22.5 0 0 0 0 -58.1667 -58.1667 -58.1667 -47.1912 0 0 0 0 0 0 0 0 0 0 0 0 0 0 0 0 0 0 0 0 0 32.5714 32.5714 32.5714 0 0 -28.8212 0 43.0833 0 0 0 0 0 0 0 0 0 -21.0505 -21.0505 0 0 0 0 0 0 0 0 0 0 -30.0166 -30.0166 -30.0166 -30.0166 0 0 0 23.3158 0 0 0 14.9167 0 0 0 0 0 0 0 -9.32504 -9.32504 -9.32504 36.8095 -30.0166 0 9.94145 9.94145 9.94145 23.3158 0 0 0 0 0 9.94145 9.94145 0 0 0 0 0 0 0 0 0 0 0 0 0 0 0 0 0 0 0 0 0 0 0 0 0 0 0 39.4848 39.4848 39.4848 39.4848 39.4848 40.2083 39.4848 0 0 0 0 44.75 44.75 46 46 46 46.5 43 43 0 45.7333 46 46 40 40 44.0833 45.4 47.5 47.5 43.5 43.5 44.6 46.5 0 46.8333 46.8333 37 0 0 0 0 0 41.6667 43.3333 43 42.5 42.5 41.7 41.7 44.75 44.75 42.4167 42.4167 43 0 45.5 46 42.4667 42.4667 0 40.25 37 39.5 0 0 0 0 45.25 45.25 42.5 42.5 47 0 0 39.2 39.2 0 0 0 0 36 0 0 0 0 0 0 31 31.25 31.25 31.25 27.5 0 0 0 0 0 0 0 0 0 0 21.1667 21.1667 0 0 0 20.6667 0 0 0 0 0 0 15.5 14.6667 0 0 0 0 0 0 48.4286 0 0 0 7 24.3333 0 17 5.83333 0.5 0 0 0 0 0 0 0 0 0 0 0 0 0 0 0 0 -14 0 0 0 2 0 -6 0 0 -24 -21.75 -21.75 -21.75 0 -22 0 -22.3333 0 0 0 -26 0 0 0 0 0 0 -8 -30 0 0 -32.4286 0 0 -32.4286 0 -31 -34 0 -14.8333 0 -20.8333 -20.8333 0 0 0 -26 0 0 0 -12 0 0 0 0 0 -13.25 -24.5 -24.5 -22.25 -57.2 0 -57.2 0 0 0 0 0 0 0 0 0 0 0 0 -23 6 -23.75 -30.3 0 0 -8 -14 0 -33 0 -18.6667 -18.6667 0 0 0 0 0 -44.3333 -41.5 0 0 0 0 0 -42.4 -42.4 -42.4 -42.4 -31.3333 -24 -39.2361 -39.3 -39.3 -27.6 -27.6 0 0 -25.6 -21.3 -20.2 -20.2 -20.2 -25.9167 -31.2 -37.1667 -25.9167 -27.7222 -27.7222 0 -28.55 -33.3333 -28 -28 -33.1905 -33.1905 -32.8333 -34.9333 0 -34.9333 -33.2222 -33.2222 -34.9333 -34.9333 -33.1905 -32.8333 -26.1071 -26.1071 -31.619 -31.619 -25.95 -31 -27.2222 -25.3333 -28.9167 -25.3333 0 0 0 0 -29.1212 -26.6875 -29.7444 -29.7444 -29.7444 -29.7444 -29.7444 -32.3333 0 0 -38.8333 0 -32.0556 -19.3095 -34.1364 -25.0455 0 0 0 -31.1538 -19.0119 -18.4444 -18.4444 -19.0119 -31.1538 0 0 0 -6.37179 -1.58824 0 0 -1.58824 -9 -36.6818 12.7857 0 -3.44444 -3.44444 -29.2857 -6.23529 -6.23529 5.71111 22.8667 -30.5 0 0 29.5385 29.5385 0 0 0 -0.9 -29.5 -29.5 7.66667 -29.125 -29.125 0 -16.25 0 -32.4 0 0 0 0 0 0 0 0 -36.3333 0 -39.5 -27.5714 0 0 0 0 0 0 0 0 0 0 0 -22.5 -22.5 0 0 0 -28.7727 0 15 -16.7857 -30.8125 6.38095 -35 0 0 0 -15.3 -15.3 0 0 0 0 0 0 0 -35.8889 -35.8889 -91.8 -38.2857 0 0 -19.4286 -19.4286 -32 2.25 0 0 -94.7857 -94.7857 -94.7857 -94.7857 0 0 0 0 0 0 0 0 0 0 -20.5 0 0 -16.5 -16.5 0 -16 0 -24.6 0 0 -38.3026 0 0 0 0 -22.1429 -22.1429 -22.1429 -22.1429 0 0 -43.4 0 -25.3333 0 -17.6667 -17.6667 -25.375 -17.6667 -12.0909 0 -12.0909 0 0 -12.0909 -12.0909 -24 -24 0 0 0 0 11.1667 11.1667
0 0 0 0 0 0 0 0 0 0 0 0 0 0 0 0 0 0 -18 -18.8333 -18.8333 0 -19.5 0 -18.1667 -18 0 0 -20 -19.5 0 0 -21 -22 -22 -22.5 0 0 0 0 0 0 -21.6667 0 0 0 0 0 0 0 0 0 0 0 0 0 0 0 0 0 0 0 0 0 0 0 0 0 0 0 0 0 36 0 29.5 29.5 0 0 0 0 0 0 -21.0505 -21.0505 0 0 0 0 9.94145 9.94145 9.94145 0 -3.5 -53.2351 -30.0166 -30.0166 0 27.5424 27.5424 27.5424 0 0 0 0 24.8333 -15 0 0 0 0 0 0 0 0 0 0 -16.6316 -16.6316 0 23.3158 23.3158 0 0 0 0 0 0 0 0 0 0 0 0 0 0 0 0 0 0 0 0 0 0 0 0 0 0 0 0 0 0 0 0 0 0 0 0 40.375 0 40.375 39.4848 39.4848 39.4848 0 0 0 0 0 0 44.9524 44.9524 44.9524 0 46.5 46.5 0 0 45.7333 45.7333 45.7333 45.5 45.5 40 44.0833 44 46 43.5 43.5 44.6 0 49 0 0 0 0 0 44 44 44 41.6667 47.5 0 41 41 41.3333 41.3333 41.3333 42.2 42.4167 42.4167 43 0 0 41 41 41 42.75 0 44 40.5 43 43 0 43.5 43.2 43.2 0 0 38.5 37 49 0 0 0 0 35.6667 0 0 35.6667 35.6667 0 32 32 32 31 31.25 30.8 30.8 25 0 0 0 0 0 0 0 0 0 0 24 24 21.75 21.75 0 0 17.5 0 0 15.75 0 0 0 0 0 0 0 0 0 0 48.4286 0 0 0 0 6.5 0 2 0 0 0 0 0 0 0 0 0 0 0 0 0 0 0 -6.06667 0 0 -14 0 -10.5 -10.5 0 -19 0 0 -26 0 -28.5556 -26.4286 -26.4286 -26.4286 0 -23 0 -24 -24.5 0 -25 0 0 0 -28 0 -17.6667 4.5 -30 -30 0 -32.4286 0 0 0 -32.4286 -32.4286 0 -32 0 0 -20.8333 0 0 0 0 -20 0 0 0 0 0 0 0 0 0 0 0 -16.2667 -16.2667 -12.9 0 -57.2 0 0 0 0 0 0 -31.75 -29.2 -27.1333 -27.1333 -23 -23 0 0 0 0 0 -35 0 -14 0 0 -3.5 6 -18.6667 22.5 22.5 22.5 -23.5 -44.3333 -44.3333 -43.5 0 0 -52.75 -40.8 -48.3462 -43.4444 -18.4 -18.4 0 0 0 -31.3333 -27.6 -20.3 -20.3 0 0 0 0 -25.6 -25.6 -21.3 -20.2 -27.5 -21.3 -35.225 -22.75 -22.75 -33.9167 -33.9167 -28.55 -28.55 0 -33.3333 -28 -33.3333 -28 0 -26.1071 -26.1071 -27.15 -26.3571 -26.3571 0 0 -34.4286 -27.15 -27.15 -27.15 -26.1071 -26.1071 -34.4286 -34.4286 0 -18.6923 -18.6923 0 -10.4 0 -27.0714 -27.0714 -27.0714 -29.375 -26.6875 -26.6875 -26.6875 -29.7444 0 -30.4545 -29.2333 0 -30.4545 0 -30.3333 -19.3095 0 -34.1364 -34.1364 0 -9 -13.6364 -18.4444 -19.0119 -31.1538 -25.0455 0 -34.3571 -17.3333 0 0 0 -39 -1.83333 -31 -43.3333 8.27273 8.27273 18.375 0 0 -3.44444 2.5 0 0 0 -28 24.2857 -31 -22.8571 -22.8571 -22.8571 -5.66667 -27.5 -5.66667 0 0 0 0 0 0 0 0 0 0 0 0 -35.6667 0 0 0 0 -41.4545 0 -27.5714 -27.5714 0 0 0 -29.2857 0 -27.5714 0 0 0 0 0 0 0 0 0 -16.2821 -36 -36 0 -16.7857 -16.7857 -16.7857 0 0 -13 -91.8 -15.3 -91.8 0 0 0 0 0 0 13.6667 13.6667 -35.8889 -91.8 -38.2857 -38.2857 0 -28.4 -28.4 0 0 -28.4 -28.4 -94.7857 0 0 0 0 -9.75 -9.75 0 0 0 1.5 -4 -4 0 0 0 6.71429 0 0 0 0 0 -40 0 -24.6 -24.6 -21.25 -38.3026 0 0 0 -22.1429 -30.1 -30.1 -32.8333 -7.5 0 0 0 0 -27.4 0 0 0 0 -16.5 0 0 0 -12.0909 -12.0909 0 0 0 0 -26.25 0 0
0 0 0 0 0 0 0 0 0 0 0 0 0 0 0 0 -17 -17 -17 -18.5 -18.5 -19 0 -18.1667 -18.1667 -18 -19.5 -19.5 -19.1667 -19.1667 -20.5 -20.5 -20 -20 -20 -88.5 0 0 22.5 -21 0 0 0 37.3333 0 0 0 0 0 0 0 0 0 0 0 0 0 0 0 0 0 0 0 0 0 0 0 0 0 0 0 0 36 0 -19.5385 -19.5385 -19.5385 0 -19.5385 -19.5385 0 0 0 -64.6538 0 0 0 0 0 0 0 0 0 0 0 0 0 0 0 0 0 0 0 0 24.8333 14.625 0 0 0 -41.9762 0 0 0 0 0 0 13.6833 0 13.6833 23.3158 23.3158 0 0 0 0 0 0 0 0 0 0 0 32.2174 32.2174 0 0 -41.9762 -41.9762 0 0 0 0 0 0 0 0 0 0 0 0 0 0 0 0 0 0 0 38 0 40.2083 40.2083 40.2083 40.2083 40.2083 0 0 0 45.5 0 44.9524 44.9524 44.9524 44.9524 43.8333 45.5 43.8333 43.8333 45.7333 43 43 46 46 0 0 44 44.6 44.6 44.6 44.6 0 0 0 0 0 43.5 43.5 0 0 0 41 47.5 42.3333 48 48 41.3333 41.3333 0 41.3333 44.7 44.7 40 45.5 0 44.9167 44.9167 41.9 0 41.9 43.5 43 43 42.5 43.2 43.5 0 47 43.2 43.2 41 0 49 0 0 0 0 33 34 0 34 34 27.5 0 30.8 32.5 31 30.8 30.8 0 0 0 0 0 0 0 0 0 0 0 0 0 23 23 0 16.5 0 0 0 0 15.75 0 0 0 0 0 0 0 0 0 0 48.4286 0 18.5 18.5 0 0 0 37 0 0 0 0 0 0 0 0 0 0 0 0 -17 0 0 -6.06667 0 0 0 0 0 0 -10 -24 0 0 -26 -25.8333 -25.8333 -21 -21 0 -24 -24 0 0 0 0 -26.25 -26.25 -26.25 0 -29.6667 -29.6667 0 0 0 -30 0 -31 -31 0 0 0 -33.2 -33.2 -36 -32 0 -29.3 0 -12.5 -12.5 -14 -12.75 -35.3333 0 0 0 -8.5 0 0 -36.5 -36.7143 0 0 -15 -16.2667 -14.5 -42.5 -57.2 0 -31.5 0 0 0 0 0 -29.2 -29.2 -31.75 -24 0 0 0 -31.75 -25 -28.1667 0 0 -26 0 -29 -50.5 -60.75 -35 -35 -33 -24.5 -24.5 22.5 -18.6667 -53.8333 -53.8333 9.5 -37.0833 -32 0 -31.5 0 -43.4444 -18.4 -18.4 0 -23.6667 0 0 -20.3 -20.3 -42.3333 0 0 0 -43.9 -18.5 -18.5 -21.3 -31.6 0 0 -34 -34 0 0 0 -28.55 0 0 -10.4 -10.4 -31 -31.619 -26.1071 -26.1071 -27.15 -27.15 -26.3571 0 -27.15 0 0 -27.15 0 -27.15 0 0 -34.4286 -34.4286 -34.4286 -10.4 0 -31 -10.4 -10.4 0 -28.9167 -29.375 -29.375 -29.375 -26.6875 0 -26.6875 0 -11.1667 0 0 -32.3333 0 -30.4545 0 0 0 -36.7333 -36.7333 -13.6364 -13.6364 -13.6364 -19.0119 -19.0119 -18.75 -34.3571 -8 -39 0 0 6.13333 -1.83333 -31 11.8571 11.8571 11.8571 4 -49.5 11 0 0 0 0 0 0 -28 0 0 -22.8571 6 0 -5.33333 -5.33333 0 0 0 0 0 0 0 0 0 0 0 -47 0 0 0 0 0 0 0 0 0 0 0 0 0 0 -26.6 -29.9524 0 -16.8333 -24.2857 0 0 0 -16.2821 -16.2821 -16.2821 -16.2821 -40.875 -30 -36 -36 35.3333 32.1429 -16.7857 -16.7857 0 0 -38.2857 -10.5 -10.5 -36.8571 -36.8571 -36.8571 -36.8571 -20.5714 -20.5714 -20.5714 -35.8889 -35.8889 0 -17.3333 -15.3077 0 -13.375 0 -28.4 -28.4 -28.4 -28.4 0 -16 -94.7857 0 -9.75 0 -18 0 -14 -14 0 0 0 -36.1111 -36.1111 0 -31.5333 0 -31.5333 -31.5333 0 0 0 -24.6 0 0 -38.3026 -38.3026 -38.3026 0 0 0 -7.5 -22.1429 -38.3026 -38.3026 -38.3026 -22.1429 0 0 -33.3333 -38 0 0 0 0 0 0 0 0 4.73077 8.97059 0 0 0
0 0 0 0 0 0 0 0 0 0 0 0 0 0 0 0 0 0 -18 -18.5 -18.5 -19 -19 0 0 -19 -19.5 -19.5 -19 -19.3333 -19.3333 -19.6667 -20 -26.5 -26.5 -20.5 -20 22.5 22.5 -21 -22.5 -22.5 -21.5 0 24.5833 24.5833 0 0 0 0 0 0 0 0 0 0 0 0 0 0 0 0 0 0 0 0 0 0 0 0 0 0 0 0 -19.5385 0 0 33.4 -0.0625 -0.0625 32.2174 0 0 0 0 0 0 0 29.5 16.3509 16.3509 13.5 28.6667 44.1667 44.1667 0 34.5714 0 0 -47.5833 0 0 0 0 0 0 0 0 0 -41.9762 0 0 0 0 0 0 -20.5 0 0 0 0 0 4.42857 0 0 0 0 0 0 0 0 0 32.2174 32.2174 0 0 0 0 0 0 0 0 0 0 0 0 0 0 0 0 0 0 0 0 0 0 0 0 0 38.8333 42.1429 42.1429 38.8333 44.8333 44.8333 0 0 45.5 0 0 44.9524 44.9524 43 45 45.5 42.8333 42.8333 46.2778 43 43 45 45 46 0 46 44.5 44.5 44.5 44.5 47 0 0 0 42.4 0 44 44 44 44 41.3333 42.3333 42.3333 0 0 40.7143 40.7143 40.7143 48 44.7 44.7 44.7 44.9167 44.5 44.9167 41.9 0 45 43.5 44 42.5 42.5 0 44 43 0 0 0 39 40.5 40.5 0 39 0 0 0 33 0 0 0 0 0 0 29 33.3333 32.5 0 0 0 0 0 0 0 0 0 0 23 0 23.5 0 23.25 23.5 0 0 19 21.5 23.25 15.75 15.75 0 0 16 16 0 0 0 0 0 0 0 0 0 40.1667 40.1667 0 0 0 0 0 0 0 0 0 0 0 0 0 0 0 0 0 0 0 0 0 0 0 0 0 0 -7.5 -22.6 0 -21.6667 -22.6 -21 -22 -22 -22 -22 0 0 0 0 0 -26 -26.25 -26 0 0 -29.6667 -29.25 -29.25 -29.25 -29.6667 0 -31 -31 0 0 0 0 -32.75 -33.2 -33.2 -37 -36 0 0 0 0 -13.1667 -13.1667 -35.25 -33.6667 -15 -34 0 0 0 -31 0 0 0 -61.6667 -15.3333 -61.6667 0 0 -22.8095 -31.5 -33.5833 0 -31.5 0 0 -31.75 -31.75 0 0 0 0 0 0 0 0 -27.1333 -29 0 0 -23 -35 -60.75 -33 -33 0 0 0 -24.5 0 0 0 -37.0833 -37.0833 -37.0833 -29.4286 -38.475 0 0 0 -35.5 -35.5 -29 0 0 0 -6 -6 -25.1667 -20.6429 -20.6429 -30.65 -22.75 -22.75 0 -31.6 -28.7727 -20.5 0 -34 -22.75 -34 -34.2 -28.9167 -28.9167 -28.9167 -10.4 -29.1212 0 0 -25.95 -34.4286 0 -34.4286 -34.4286 0 0 0 -27.15 -27.15 0 0 -27.15 0 -22.0877 -34.4286 -34.4286 -34.4286 0 -25.8846 -25.8846 -34.4286 -10.4 -10.4 -32.6111 -18.6923 -27.0714 -29.375 -26.6875 -26.6875 -28.9167 -29.375 0 0 0 0 0 -27.6 0 0 -36.7333 -30.3333 -26.5 0 -5.16667 -13.6364 -19.0119 -18.4444 0 0 3 -34.3571 -13 -16.3333 -39.8333 -8.6 0 0 0 0 0 0 11 0 0 0 -9.16667 -9.16667 0 0 12.6667 -26.9 0 -5.33333 0 -5.33333 0 0 -16.5 -48.5 -58.5 0 -38 0 0 -20.0833 0 0 0 0 0 -3.63636 0 -3.63636 0 0 -50.8571 -50.8571 0 -42.7083 6 0 -27.5714 0 0 -42.7083 0 0 0 0 -3.375 -3.375 -16.2821 0 35.875 35.875 35.3333 35.3333 -26 -35 -16.7857 32.1429 -16.7857 -19.4286 -23 -91.8 -10.5 -10.5 -10.5 0 0 0 -20.5714 19.5 -20.5714 0 0 0 0 0 0 0 0 0 0 -28.4 -14.9608 0 -16 1.57143 1.57143 -28 0 0 0 0 -19.1667 0 0 0 0 0 0 -36.1111 0 0 -20.3636 -31.5333 -31.5333 0 0 0 0 -24.6 0 0 0 0 -38.3026 -38.3026 -38.3026 0 -7.5 -22.1429 -33.3333 -33.3333 -22.1429 -22.1429 -43.4 0 -2.75 -15.5 -15.5 0 0 0 0 0 0 0 0
0 0 0 0 0 0 0 0 0 0 0 0 0 0 0 0 0 0 -17.5 0 0 -18 -18.5 -18.5 -19 -19 -19.5 -19.5 -19 -19.3333 -18.6667 -19 -19 -19.5 -19.5 -20 -20 -20.5 -20.5 -21 -22.5 -22.5 -19.5 -22.5 -48.9 -48.9 -48.9 0 0 0 0 0 0 0 0 0 0 0 0 0 0 0 0 0 0 0 0 0 0 0 0 0 0 0 0 0 0 0.78 0.78 32.2174 32.2174 -19.5209 -19.5209 0.78 0 0 0 0 29.5 11.5167 11.5167 -28.8212 0 0 0 0 0 -19.5 -19.5 -47.5833 -22.4 0 0 0 14.625 0 0 0 0 0 0 0 0 -16.6316 11.8065 11.8065 0 0 -9.32504 -16.6316 -16.6316 4.42857 4.42857 0 0 0 0 8 8 0 0 14.6667 0 0 0 0 0 0 0 0 0 0 0 0 0 0 0 0 0 0 0 0 0 0 0 0 0 0 0 38.8333 38.8333 38.8333 38.8333 43.0476 43.0476 43.0476 43.0476 43.0476 0 42 0 0 0 45 45 43.5 43.5 44.0833 46.2778 45 45 0 44.5 44.5 46 0 0 46 41 39 0 0 0 42.4 0 42 44.5 44.5 41.1667 41.1667 44 0 0 41.3333 41.6 42.5 42.5 41.5 41.5 41.5 41.5 42.8 45 41.9 41.9 43.75 0 0 43 43 43 0 0 43 40 0 37.1667 37 0 40 0 0 0 0 0 0 0 0 35.5 35.5 0 0 33.3333 33.3333 30.5 30.5 0 0 30.75 0 0 0 0 0 0 23 0 0 23.25 23.25 0 0 0 0 0 0 0 0 15 0 16 0 0 0 0 0 0 0 0 7.16667 0 40.1667 18.25 48 0 2 0 23 0 0 0 0 0 0 0 0 0 0 0 0 0 0 0 0 0 0 -7.5 -7.5 -7.5 -21.1667 -21.1667 -21.5 -21.6667 -21.1667 -21 -22.3333 -22.3333 0 0 0 0 0 0 -25 0 -26 -26.1667 0 0 0 0 0 -29.25 -31 -29.6667 -29.6667 0 -23.5 -23.5 0 -32 -31.6 0 -31.3333 -31.6 -30 -31.6 -29.3 -31.6 0 0 0.5 0 0 0 -34 0 -27.2778 -32.5 -27.2778 -26.3333 -26.3333 -31 0 -15.3333 -15 0 -40 -22.8095 -42.5 -22.8095 -22.8095 -31.5 -31.5 0 -31.75 -31.75 0 -25 0 -28 0 -24 0 -29 0 -29 -29 0 -28 -23 0 -27.9 -29 0 -23 -32.9286 -32.9286 -8.5 -24.5 -23 -29.5 -29.5 -27.3333 -27.3333 -29.4286 4 4 -37.5714 -30.2222 -30.2222 -30.2222 0 0 0 -36.5333 -24.25 0 -23.6667 -20.6429 0 0 -30.65 0 -22.75 0 0 0 -28.7727 0 0 0 -25.3333 -25.3333 -25.3333 -28.9167 0 -34.3333 -27.2222 0 -28.9167 -4.93333 -31 -4.93333 -31.619 -26.1071 -26.1071 -19.2679 -22.0877 -22.0877 0 -22.0877 -22.0877 -22.0877 -22.0877 -22.0877 -22.0877 -25.8846 -22.0877 -19.2679 -25.8846 0 -26.1071 -25.8846 -18.6923 -27.0714 -0.769231 -27.0714 -26.2375 -18.6923 -27.0714 -27.0714 0 -24.6667 0 0 0 0 0 0 -29.3333 -29.5 0 -26.5 -13.6364 -13.6364 -13.6364 -18.4444 -18.4444 -19.0119 -18.75 20.0909 20.0909 -16.3333 3.05 -47.5 -47.5 0 0 0 0 0 6 0 0 -2.1 -9.16667 -9.16667 -25.375 0 0 0 0 -26.9 0 0 0 -20 0 0 0 0 0 0 -68.25 -62.5 -52.5 0 -28.7727 -28.7727 0 0 0 -39.7143 0 -3.63636 0 -50.8571 0 0 0 0 0 -51.0952 0 0 0 0 0 0 15.2222 17 -18.8 0 35.875 50.25 35.875 50.25 50.25 -65.5 0 0 2.25 0 -19.375 0 0 0 0 8.67857 8.67857 -20.5 0 0 19.5 -20.5714 -20.5714 0 0 0 0 0 0 0 -15.3077 -15.3077 0 -13.8333 1.57143 -37 0 -14.9608 0 0 0 0 -19.1667 0 0 0 0 0 0 -3.78333 -36.1111 0 0 0 0 -31.5333 -31.5333 0 0 -31.5333 -31.5333 0 0 -24.6 -24.6 0 0 0 -30.1 -30.1 0 -22.1429 -22.1429 -22.1429 0 -20.5385 -20.5385 0 0 -25.375 -30.5 0 0 -30.5 0 0
0 0 0 0 0 0 0 0 0 0 0 0 0 0 0 0 -16.5 -16.5 -17.5 0 -17.6667 -18 -18.5 -18.5 -17.6667 -17.6667 -18.1667 -18.1667 -18 -18.6667 -18.6667 -19 -18 0 0 -20 -20.5 -20.5 0 40.6667 -21.8333 -21.8333 -19.5 -22.5 -18.875 -18.875 -38.1667 -38.1667 -38.1667 0 0 0 0 0 0 0 0 0 0 0 0 0 0 0 0 0 0 0 0 0 0 0 0 0 0 0 0.78 0.78 0.78 0 9.94145 3.88771 3.88771 -20.5 0 0 0 0 -77.7576 11.5167 0 0 0 0 0 -16.6316 -16.6316 0 0 0 -22.4 0 0 0 0 0 0 0 0 0 0 0 0 0 48.6667 48.6667 0 0 0 -9.32504 -9.32504 -16.6316 -16.6316 0 0 0 0 0 0 0 0 0 8 8 0 0 0 0 -20.6667 0 0 0 0 0 0 0 0 0 0 0 0 0 0 0 0 0 0 39.4 0 42.1429 42.1429 42.1429 42.1429 43.7222 43.7222 43.0476 43.0476 43.0476 43.0476 42 0 42.7 45.5 45.5 45.5 0 0 45.8333 45.8333 0 0 0 0 45 45 45 45 41.5 38.5 42.4 44 0 0 44 44 42 42.5 42.5 42.5 42.5 44 0 41.3333 41.3333 41.6 0 42.5 0 0 41 0 45.5 45.5 43.75 43.75 43.75 0 0 0 0 0 0 0 40.5 0 37.1667 37.1667 37.1667 37.1667 40 0 0 0 0 0 36 0 0 0 0 0 0 0 0 30 30 0 0 30.75 0 0 0 0 0 0 0 22 22.25 22.25 22.25 0 0 19.8 0 0 16 16 0 0 0 0 0 0 0 0 0 0 22 25.7619 23.5 17.3333 17.3333 18.25 0 36 0 0 0 -2 0 0 0 0 0 0 0 -9.75 0 0 0 0 0 0 0 0 0 0 0 0 0 0 0 -21.1667 0 0 -22.3333 0 -21 0 -23 -25 0 0 0 -25 -26.1667 -26.1667 0 0 0 0 0 -27.75 -27.75 -30.75 -27.5 -23.5 -23.5 -32 -29.1667 -29.1667 -23.5 -23.5 -31.3333 0 -29.25 -31.3333 -31.6 -31.6 -29.3667 -19 -12.1667 0 -33.6667 0 0 -31.2571 -31.2571 -27.2778 -27.2778 -3.5 -3.5 -27.2778 0 -16 -15 -18 -32 -34 0 -22.8095 -35.6667 -30.5 -31.5 -29.5 -29.5 0 0 0 0 0 0 0 0 -26.8333 -29.0667 -29.3333 -29.0667 -29.0667 -28.1667 -28.1667 -27.9 -28.1667 -27.9 -27.9 0 0 -26 -25.1667 0 -28 -28 -27.3333 -26.3333 -28 -28 -38 4 4 -12.2407 0 -23.5 -23.5 -23.5 -30 0 0 0 -24.25 -25.1667 -6 0 -20.6429 0 0 0 -29 -29 0 0 -36.3333 -28 -29.8333 -25.3333 -25.3333 0 -29.1212 -29.3 -27.2222 -28.9167 0 0 0 -10.4 -25.95 0 -34.4286 0 0 -19.2679 -19.2679 -22.0877 -22.0877 -22.0877 -26.1429 -26.1429 -26.3571 -22.0877 -26.1429 -22.0877 -31.1667 -22.0877 -25.8846 -25.8846 -25.8846 -27.0714 -18.6923 -18.6923 -32.6111 -19.25 -19.25 0 -43 0 0 -24.6667 -24.6667 0 -62 -11.4 -26 -26 -0.571429 -0.571429 -7.5 -20.5 0 0 -18.4444 -19.0119 -11.2308 -11.2308 -19.6 20.0909 -20.1 -70.7857 -70.7857 3.05 0 -47.5 0 -21.3333 0 0 0 -1.88889 0 0 0 -9.16667 -9.16667 -9.16667 0 0 0 0 0 0 0 0 0 0 0 0 0 0 0 0 0 0 -28.7727 -28.7727 -28.7727 0 0 0 0 0 0 -50.8571 0 -19.25 -25.5 -1.89474 0 -1.89474 -20 19.3857 0 0 0 -33.95 0 -85.5 -85.5 -7.875 0 3.25 -7.875 0 -46.75 -46.75 0 32.5 8.75 -25.75 -28.4 0 -25.75 0 0 -9.88889 8.67857 0 0 -7.37143 -7.37143 -7.37143 0 26.9298 0 -41.3333 -9.16667 -6.33333 -6.33333 -15.3077 0 0 0 0 0 0 -14.9608 7.5 0 -9.25 -21.3 -19.1667 -19.1667 0 0 -28 0 0 0 -22.4762 -36.1111 -3.78333 -26.7333 -36.1111 -36.1111 0 -26.7333 -20.3636 -31.5333 -31.5333 0 0 0 0 -9.35714 -24.6 -38.3026 -38.3026 -38.3026 0 0 19.6667 -22.1429 0 -43.4 0 0 0 0 0 0 -49 0 0
0 0 0 0 0 0 0 0 0 0 0 0 0 0 0 0 0 0 -17 -17.6667 -17.6667 -18 -17.3333 -17.3333 -18 -17.6667 -17.5 -17.5 -18 -18.5 -18.5 -19 -18 -19.5 -19.5 -20 -19.8 -19.8 -19.8 40.6667 -21.8333 -21.8333 40.6667 -22.5 -18.875 -18.875 -18.875 -24 -24 -38.1667 -38.1667 0 0 0 0 0 0 0 0 0 0 0 0 0 0 0 0 0 0 0 0 0 0 0 0 50 -21.5 -22.7778 -22.7778 0 0 0 0 0 0 0 0 0 0 0 0 0 0 0 0 -16.6316 9.94145 34.5714 34.5714 34.5714 0 0 0 -16.6316 0 0 0 0 0 9.94145 9.94145 9.94145 0 0 48.6667 0 0 0 0 0 17 0 4.42857 0 0 0 0 36.8095 36.8095 -19.5209 0 0 13.6833 13.6833 0 0 0 0 0 0 0 0 0 0 0 0 0 0 0 0 0 0 0 0 0 0 0 37.1667 0 42.1429 42.3 42.3 38.5 38.5 41.2143 43.7222 43.7222 43.7222 42.7 42.7 42.7 42.7 37.8667 42.3 42.3 42.3 42.3 44.375 45.8333 0 42.5 42.5 0 0 43.25 43.25 43.25 40.5 43.25 42.4 42.4 0 0 44 41.5 44.5 0 0 0 44.5 44.5 0 0 0 41.6 0 43 0 0 41 42 42.75 42.75 42.75 42.75 41 0 0 44 44.1429 44.1429 44.1429 0 43 0 0 0 37.1667 37 40 0 0 0 0 0 0 0 0 0 0 0 34.6667 0 0 30.75 30.75 0 0 0 0 0 0 0 0 0 22.5 22.5 0 0 0 0 19.8 18.5 0 0 16.5 16.5 0 15.1667 15.1667 14.5 0 0 0 0 39.3333 0 0 0 23.5 23.5 23.5 0 0 0 0 0 0 0 0 0 0 0 0 -14 -7.33333 -9.75 0 0 0 0 0 0 0 0 0 0 0 0 0 0 0 0 -21.5 -21.5 0 -23.25 0 -25.5 -25.5 0 -25 0 0 0 0 0 0 -35.25 -35.25 -28.8333 -28.8333 -27.6889 -27.6889 -30.75 -30.75 -30.75 -27.75 -26.8 -26.8 -29 -27.5 -29.1667 -29.1667 -32 -29.25 -29.25 -27 -27 -29.3667 -29.3667 -29.3667 0 0 -23.7 -23.7 0 0 -31.2571 -31.2571 0 0 -8 0 0 -57.2 -54 -27.2778 0 -35.6667 -32 -32 -35.6667 -31.75 -26.6 -26.6 -28.1667 0 -22.8095 -31.5 0 -31.5 -23.5 -29.0667 -29 -26.8333 -26.8333 -26.8333 -29.0667 -29.0667 -28.1667 -28.1667 -28.1667 0 -24.8 -25.75 -25.6667 0 -28 -25.1667 0 0 -24.5 -26.3333 -6 0 0 0 0 0 0 -26.5 -26.5 -25.5 -30 0 0 0 0 0 0 0 -25.1667 -20.6429 0 0 0 -17.1667 -26.9778 -26.9778 -36.3333 0 0 -24.4286 -29.1212 -29.1212 -25.3333 -25.3333 -25.3333 0 -27.2222 -27.2222 0 -27.0714 -18.6923 -18.6923 -18.6923 -26.2375 -25.6667 -25.1111 -19.2679 -19.2679 -19.2679 -25.8846 -25.8846 -22.0877 -26.1429 -26.1429 0 0 -26.1429 -22.0877 -20 -25.8846 -25.8846 -25.8846 0 -25.1111 -25.6667 -72 -19.25 -24 -18.7424 -18.7424 0 -18.8333 -17.2857 0 -17.2857 -17.7 -21 -21 -21 -29.3333 -29.3333 -8.4 -14.5 -14.5 0 -22.25 -27.5152 -22.25 -11.1905 -12.1538 -12.1538 7.10714 -20.1 -70.7857 0 -8.8 -5.5 0.833333 -8.8 0 0 0 0 0 0 0 0 0 -31 -1.88889 0 0 0 0 0 -51.5 -41 -51.5 0 0 0 -16 0 -16 0 0 0 -28.7727 -28.7727 -28.7727 0 0 0 0 0 0 0 0 0 0 0 0 -1.89474 -1.89474 -1.89474 19.3857 19.3857 13.75 13.75 5 -8.42857 -8.42857 -8.42857 -7 0 0 -20 -75 -46.75 0 0 8.75 8.75 0 32.5 -14.9608 -14.9608 0 0 0 0 -11 -12 -7.37143 -41.3333 26.9298 0 -54.2143 -54.2143 -17.8636 -54.2143 -9.16667 -6.33333 -15.3077 -15.3077 -15.3077 -15.3077 -15.3077 0 -14.9608 -20.5 -11.5714 0 -21.3 6.75 6.75 6.75 0 1.57143 0 -19.1667 -19.1667 0 -36.1111 -26.7333 0 0 -36.1111 -3.78333 14.8571 -31.5333 -31.5333 -31.5333 -31.5333 -18.5 0 0 0 -38.3026 7.33333 7.33333 -7.36364 0 0 0 0 0 0 0 0 0 0 0 0 -34 -34
0 0 0 0 0 0 0 0 0 0 0 0 0 0 0 -15 -15.5 -15.5 -16 -16.5 -16.5 -17.3333 -17.3333 -17 -17 -17 -17.5 -17.5 -18 -18.5 -18.5 -17.9167 -19 -19.5 -19.5 -19.6667 -19.6667 -19.6667 -18 -19.5 -20 -20 -20.5 -20.5 -18.875 -18.875 -18.875 -20.3333 -20.3333 -21 -21.6667 -21.1667 -21.1667 -20.5 -21 0 0 0 0 0 0 0 0 0 0 0 0 0 0 0 0 0 -93.1528 0 0 23.3158 0 0 0 0 0 0 0 -57.1429 0 0 0 0 0 0 0 0 0 -22.3 -22.3 0 5.3 0 0 0 0 0 0 -16.6316 0 0 0 0 23.3158 36.8095 36.8095 36.8095 0 0 0 0 0 0 0 0 -41 0 -22.4 0 0 -20.6667 0 36.8095 48.6364 -19.5209 0 4.42857 -22.4 -22.4 0 -20.6667 0 0 0 0 0 0 0 0 0 0 0 0 0 0 0 0 0 0 0 0 0 38 0 42.3 42.3 42.3 0 44.1905 44.1905 41.2143 41.2143 41.2143 44 37.8667 37.8667 37.8667 37.8667 41.75 41.75 45 45 45 45 44.375 46 46 0 0 0 42.3333 42.3333 42.3333 40.6667 40.5 43 0 0 38.5 41.5 45 40.25 40.25 40.25 44 42.8333 42.8333 42 42 40.8333 42 43 0 0 42.3333 42 41.7333 0 41.7333 41.7333 39.5 0 0 0 39 39 39 0 0 40.8 37.1667 37.1667 37.1667 37 40.3333 39 39 39 0 0 0 0 0 0 0 0 0 0 0 29 29 0 0 0 0 0 0 0 0 0 0 23 0 19.8 19.8 0 19.8 18.5 0 0 0 0 0 0 0 0 0 0 32.9 21.9375 0 0 0 0 0 0 0 0 0 0 0 0 0 0 0 0 0 0 0 -14 -17.1667 0 0 0 0 0 0 0 0 0 0 0 0 0 0 0 0 0 0 -23.25 -23.25 -23.25 0 -24.5 -24.5 -25 -25 0 0 0 -28.5 -28.5 0 -18.3333 -28.6 -28.6 -28.8333 -28.8333 -27.6889 -27.6889 -26 -26 -26 -26.8 -26.8 -26.8 -27.5 -23.5 -29.1667 -29.1667 -29.25 -27 -27 -27 -29.3667 -29.3667 -27 -29.3667 -27 -19 -19 -24 -23.7 -31.5 0 0 -31.5 0 -8 0 -35.3333 0 -27.2778 -26.3333 -27.2778 -32 -31.2571 0 0 0 -24 0 -34 -23.5 -23.5 -22.8095 -26 0 -25.5 -23.5 0 -23.5 0 -23.6429 -19 -23.3 -23.3 -23.3 0 -23.3 0 0 -25.75 -25.6667 -26 0 -19.3333 -42.619 39.5 -12 -12 -12 -38 0 0 0 0 -27.5 -10.3143 -25.5 0 0 -10 -22.6667 0 -1.5 0 -28.3968 -15.8333 0 0 -15.8333 -17.1667 -17.1667 -17.1667 -26.9778 -29 0 -24.4286 -24.4286 -29.8333 0 -29.8333 0 -26.6875 -29.375 -22 -34.3333 -27.2222 -27.2222 -28.9167 -18.6923 -15.6667 -27.0714 -28.9167 -27.0714 -18.6923 -31.619 -26.1429 0 0 -22.0877 -25.6 -21.0833 -20 -22.1667 -22.1667 0 -31.1667 -22.1667 -20 -21.0833 0 0 0 -12.875 -15.1667 -15.1667 -18.8 -18.8 -18.8 -18.8333 -14.3333 0 0 0 -17.2857 -17.2857 -21 -59 0 0 -14.5 0 0 -22.25 -14.5 -10.8333 -10.8333 -10.8333 -12.1538 -12.1538 -19.2105 -19.2105 0 0 -19.2105 -19.2105 0 -8.8 -14.697 -14.697 0 -13.9167 0 0 0 -13.9167 0 0 0 0 0 0 -52 0 -38.6667 0 0 0 0 0 -51.5 0 0 0 0 -58.5 -21.25 -2 -20.5 0 9.33333 0 0 0 -42.5 -42.5 0 0 6.66667 0 -20 -20 41.8333 41.8333 19.3857 13.75 13.75 0 37.5714 37.5714 37.5714 0 0 0 0 1 -94.7857 -46.75 0 0 0 0 -20.5 -14.9608 -14.9608 0 0 -6.45238 0 0 -97 -15.3077 0 0 -7.37143 -54.2143 -54.2143 -9.16667 0 -54.2143 -7.37143 0 0 0 0 -15.3077 0 -15 0 0 0 0 6.75 -28 1.57143 0 0 0 0 -28 0 0 0 0 -3.78333 0 -3.78333 14.8571 14.8571 0 -17.625 -17.625 0 0 0 0 6.13333 0 0 0 0 0 0 0 0 0 0 0 0 0 0 0 0
0 0 0 0 0 0 0 0 0 0 0 0 0 0 0 -15 0 0 -16 -16 -16 -16 -17 -17 -17 -18 -18.3333 -18.3333 -18 -17.9167 -17.9167 -17.9167 -18.2 -18.2 -18.2 -19.6667 -19.6667 -18.6667 -18 -19.5 -20 -20 -20.5 0 -19 -19 -19.5 -20.3333 -19.6667 -20 -20 -20 -20 -20.5 -21 -21.5 -21.5 0 0 0 0 0 0 0 0 0 0 0 0 34.5 0 0 0 0 0 0 -64.6538 0 0 -19.5385 0 0 0 0 0 0 0 0 0 36.8095 36.8095 36.8095 0 -22.3 -22.3 -41.9762 16.3509 0 0 0 0 0 0 9.94145 36.8095 0 0 0 0 0 0 0 0 0 0 0 0 0 0 0 0 0 0 0 0 0 -10.5 48.6364 48.6364 0 -19.5209 0 0 0 -16.6316 -44 0 0 0 0 0 0 0 0 0 0 0 0 0 0 0 0 0 0 0 0 0 0 0 0 37.1667 37.1667 0 43.9167 45.9643 45.9643 45.9643 44.1905 0 0 0 0 41.75 41.75 45.1667 45.1667 45.1667 0 45 46 0 0 0 42.3333 0 42.3333 42.3333 42.3333 40.6667 0 42.5 42.5 40.5 0 0 45 40.25 43.4 43.4 0 41 41 41 40.8333 42 42.75 42 0 40 41 41 41.5 0 41.2 41.2 41.2 0 0 0 0 0 0 0 0 40.8 0 0 37 40.3333 40.3333 0 0 0 0 0 0 0 37.5 37.5 0 0 0 0 0 0 0 0 0 0 0 0 0 0 0 0 21 21 23 23 23 0 0 18.5 15.25 0 0 0 0 17.75 18.6667 0 1.5 32.9 32.9 0 0 0 0 0 0 0 0 0 0 0 0 0 0 0 0 0 0 0 0 0 -17.1667 0 0 0 0 0 0 0 0 0 0 0 0 0 0 -22.75 -23.5 -22 -23 -23 -23 0 0 -24 -25 -25 0 -25 -24.5 0 0 0 -27.9444 -18.3333 -18.3333 -28.6 -28.6 -35.25 -28.8333 -28.8333 -28.8333 -28.8333 -27.6889 0 0 0 0 -32 -29 -26.2889 -26.2889 -25.1212 -25.1212 -25.1212 -25.1212 -25.1212 -25.1212 -27 -29.3667 -27.875 -29.3667 -27.875 -31.6 -23.7 -31.5 -31.5 0 0 0 0 -19.1667 -35.3333 -27.2778 -31.2571 -35.3333 -35.3333 -31.2571 0 -25.5833 -25.5833 -20.3333 0 -24.75 -23.5 -23.5 -23.5 -25.5 0 -23.2 -19 -23 -23 -23.5 -24 -23.6429 -23.6429 -23.6429 -23.3 0 0 -9 0 -18.9231 -20.75 -29 -21.6812 -11 39.5 0 0 0 0 39.5 0 29 0 0 -13.2 -28.45 2.5 -13.2 -13.2 -10 -1.5 0 -1.5 -1.5 -22.6667 -28.3968 -28.3968 -28.3968 0 0 -15.8333 -17.1667 -17.1667 0 -29 -29 -29 -26.9778 0 -8.8 0 -26.6875 -29.375 -29.375 -29.375 -26.6875 -26.6875 -29.375 -26.2375 -29.375 -22 -15.6667 -27.0714 -26.2375 -26.2375 -18.6923 -38 -21 0 0 -13.5 -21.0833 -20 -22.1667 0 -22.5 0 -17.4762 -19.3 -18.3333 -21.0833 -16.7333 -18.3333 -18 -17.6111 -17.6111 -15.1667 -18.7424 -18.7424 -18.8333 -18.8333 -14.3333 0 -6.75 -20.5 -6.75 0 -12.5556 -59 0 -14.25 3.77778 -7.63889 3.77778 -12.1538 -12.1538 -10.8333 -10.8333 3.56667 -17.3929 -19.2105 -19.2105 -19.2105 -19.2105 -22.3333 -19.2105 0 0 -14.697 -14.697 -21.5 0 -40.5 -13.9167 0 0 0 0 0 0 0 0 0 7.5 0 -51.5 0 0 -38.6667 0 -14.5833 -14.5833 0 0 -13.9286 -2 -13.9286 0 0 8.5 8.5 8.5 9.33333 0 0 -42.5 -42.5 -5 -5 6.66667 6.66667 0 0 -25.5 0 0 0 0 0 0 0 0 -4 0 27 0 -9.75 0 -18 0 -9.25 0 0 -11.5714 0 0 -14.9608 -6.45238 -15.3077 -10.6 -14.9608 -14.9608 0 0 -54.2143 -9.16667 -17.8636 -54.2143 -54.2143 -54.2143 0 -54.2143 -54.2143 -41.3333 -12 0 0 0 -21.5556 0 0 0 0 0 0 0 0 0 3.5 -14.8182 -3.9 -36.5556 27 -3.9 0 0 14.8571 -3.78333 0 14.8571 -17.625 0 -30.1429 0 0 0 0 0 0 0 0 0 0 0 0 0 0 0 0 0 0 0
0 0 0 0 0 0 0 0 0 0 0 0 0 0 0 -15.3333 -15.5 -15.5 -16 -16.5 -16.5 -17 -17.5 -17.5 -17.5 -18 -18.3333 -16 -16.3333 -17.3333 -17.3333 -17.3333 -18 -18.2 -18.2 -19.6667 -18.6667 -18.6667 -18 0 -19.1667 -19.1667 -19.3333 0 -19.5 -19.5 -18.5 -19.6667 -19.6667 -20 -20 -20.3333 -20.3333 -20 -20.5 -20.5 -20.3333 0 0 0 0 0 0 0 0 0 0 0 0 0 0 0 0 0 0 0 0 0 0 0 0 0 0 0 0 0 0 0 0 0 0 0 0 -41.9762 -41.9762 -41.9762 0 0 0 0 13.6833 0 0 -10.5 -40.5 0 0 0 -13 0 0 0 0 0 0 0 -50.1 0 0 0 0 0 14.625 0 0 0 0 0 0 0 5.3 -64.6538 -52 -52 -41.9762 34.5714 0 0 0 0 0 0 0 0 0 0 0 0 0 0 0 0 0 0 0 0 0 0 0 0 0 0 0 43.9167 39.75 38.25 38.25 43.9167 0 0 0 0 45.9643 45.1667 45.1667 43.3333 43.3333 42.5 44 46 46 46 41 0 42.3333 42.3333 42.3333 41 42.7917 43.8 42 42 40.6667 43.5 43.5 43.4 43.4 43.4 42.1905 43 42 43.5 43.5 0 0 42 0 40 40 41.75 41 42 0 41.2 41.2 0 0 0 39.619 0 0 0 41.6667 41 0 41.6667 41.6667 0 0 36 0 0 0 0 0 0 0 0 0 0 0 0 0 0 0 0 0 0 0 0 0 0 0 22.0833 0 0 21 21 20.5 20.5 0 0 21 15.25 0 3 3 0 0 0 0 31.5 0 0 0 8 0 0 0 0 0 0 0 0 0 0 0 0 0 0 0 0 0 0 5 0 0 0 0 0 0 0 0 0 0 0 0 0 0 0 0 0 -23 -21.6 0 0 0 0 32.6667 32.6667 -23.6667 -21.8333 -21.8333 -25 0 0 0 0 0 0 -27.9444 -21.5 -21.5 -28.8333 -19.1389 -28.8333 -28.8333 -28.8333 -21.45 0 -24.2273 -27 -21.45 0 0 -30.6 -30.6 -30.6 -26.3333 -25.1212 -25.1212 -25.1212 -25.6667 -15.8 0 0 -27.875 -27.875 -15.8 -15.8 -24.1667 0 0 -24.1667 -29.3667 -20.3333 0 -31.5 -19.1667 0 -35.3333 -25.1667 -25.1667 -25.1667 -25.1667 0 -25.5833 -24.75 -24.75 -24.75 0 0 0 0 -23.2 -23.2 -23 -23 0 0 0 -20.5833 -19.4167 0 0 -14 -22.5 -19.4167 -19.4167 -18.9231 -21.3333 -21.3333 -24.75 0 0 -41.1667 -33.4667 -12 -27.5 0 0 0 8 -14 0 0 0 -32.5 0 0 0 0 -1.5 -22.6667 0 0 0 0 -15.8333 -15.8333 -17.1667 -17.1667 -21.5 -21.5 -12.2222 0 0 0 -8.8 0 -40 -40 -40 0 0 -26.6875 -26.6875 -29.375 -26.6875 -29.375 -31 0 -20.3333 -27.0714 -19.25 -18.1667 -20.8333 -19 -20.8333 0 -20 -10.25 -16.7333 -16.7333 -17.4762 -17.4762 -16.7333 -16.7333 -19.3 -16.7333 -16.7333 -18.3333 -18.3333 -18.3333 -18 -17.6111 -15.1667 0 0 0 -6.42857 -18.8 0 -6.75 -6.75 -6.75 -12.5556 -12.5556 0 -14.25 3.77778 0 -11.3214 -11.3214 0 0 -15.6667 -15.6667 -17.3929 -15.6667 -11.1905 -27.5152 -17.3929 0 -19.2105 -19.2105 -22.3333 0 -35.6667 -29.25 0 0 2 0 -34 0 -13.9167 -13.9167 -13.9167 -67 0 0 0 0 0 0 7.5 -38.6667 0 26.6667 -14.5833 -31.5 -31.5 -22 -31.5 -31.5 43.7 0 0 -14.5 8.5 8.5 0 0 0 0 3 -5 -5 6.66667 0 0 -20 10.25 0 0 5.375 0 0 6.71429 0 23.8333 23.8333 -12.5 19.75 0 0 -9.75 -9.75 0 0 0 6.75 0 -14.9608 -14.9608 -14.9608 -14.9608 -14.9608 0 -21.5556 0 -9.16667 -9.16667 0 -31.0833 -54.2143 -54.2143 -54.2143 -54.2143 -54.2143 0 -54.2143 -54.2143 -31.0833 0 0 -75.6 -75.6 0 -54 0 0 0 0 0 0 0 -28 -3.9 -36.5556 3.5 -3.9 -36.5556 -36.5556 0 0 14.8571 -10.7143 -3.78333 -3.78333 0 0 0 0 0 0 0 0 0 0 0 0 0 0 0 0 0 0 0
0 0 0 0 0 0 0 0 0 0 0 0 0 0 0 -15.3333 -15.3333 -11.5 -15.3333 -15.8 -15.8 -15.8 -15 -15 -15 -16.3333 -16 -16 -16.3333 -15.8333 -15.8333 -17 -16.5 -17 -17 -17.5 -18 -18 -27.5 0 -17.5 -17.5 -18 -18.4 -18.4 0 -19.5 -19.5 -19.5 -20 -20 -20.3333 -20.6667 -21 -21 -21 -19.2 -19.2 0 0 0 0 0 0 0 0 0 0 0 0 0 0 0 0 0 5.3 16.3509 0 0 0 0 0 0 0 0 0 0 0 0 0 0 0 0 0 0 0 0 0 0 0 9.94145 0 0 0 -86.1214 0 0 -16.5 -13 0 0 0 36 9.94145 0 0 -50.1 -16.6316 0 0 9.94145 14.9167 -46.4643 0 0 8 0 0 0 0 5.3 -64.6538 0 36.8095 0 0 0 0 0 0 0 0 0 0 0 0 0 0 0 0 0 0 0 0 0 0 0 0 0 0 0 0 44.25 43.25 39.75 43.6 39.75 44.25 44.25 0 0 45.5 45.5 45.5 45.1667 43.3333 40.8333 43.2 42.5 42.5 43.5 43.5 40.1667 44.7778 50.5 42.3333 42.3333 41 45.75 45.75 42.7917 42.7917 43.5 43.5 43.5 42.1905 42.1905 42.1905 42.1905 42 43 42.5 42.5 0 0 41 41 41.75 41.75 41.75 39 41.5 41.5 0 0 43.3333 0 39.619 41 0 0 0 41.6667 41 39.619 41.6667 41.6667 41.5 0 0 0 0 0 0 0 0 0 32.5 32.5 0 0 36 0 0 0 0 0 0 0 0 0 0 0 22.0833 21.9 21.9 0 22.0833 22.0833 21 0 0 15.25 15.25 0 0 0 17 0 0 0 0 0 0 8 8 0 0 0 0 0 0 0 0 0 0 0 0 0 0 0 0 0 0 0 0 0 0 0 0 0 0 0 0 0 0 0 0 0 0 0 0 -23.5 0 0 0 0 -25.1591 32.6667 -25.1591 -22.75 -25.1591 -23.6667 0 -25 -25 -25 -25 0 0 -22.9643 -39.2 -39.2 0 -31.8333 -31.8333 -19.1389 -19.1389 -28.6 0 -24.2273 -24.2273 -24.2273 -21.45 0 0 0 0 -30.6 -26.2889 -25.1212 0 -26.3333 -25.1212 -26.3333 -25.6667 -20.5 -25.6667 -43.7 -43.7 -29.5 -18 -18 -18 -20.75 -20.3333 -39.75 -20.5 -20.5 0 -19.1667 -25.1667 -25.1667 -19.5 -21.25 -21.25 -16.5 -16.5 -19 -22 -24 -21.75 -22.5 0 -22.5 -8 -18.5 -15.3333 -6.25 -6.25 -18.5 -20.5833 -20.5833 0 -22.3333 0 -22.5 -14 0 0 0 0 -33.0667 -29 -21.6812 0 0 0 -6.375 -6.375 -6.375 0 -23.5 -27.5 0 0 28.5 28.5 0 0 -32.5 2.5 0 0 0 -17 0 0 0 0 -38.5357 0 -31 0 -12.2222 -12.2222 0 0 0 0 0 -21.5 -8.8 -8.8 -29.7444 0 0 -25.3333 -29.375 -29.375 0 -23.75 -23.75 0 0 -22 -18.1667 -11 -20.8333 -17.6111 -12.875 -12.875 -12.875 -18.3333 -16.7333 -16.7333 -17.4762 -19.3 -16.7333 -17.4762 -17.4762 -17.4762 -16.7333 -12.7846 -12.7846 0 0 -6.42857 -6.42857 -17.6111 -7.8 -7.8 0 0 0 0 0 -12.4524 -18.3 0 0 -1 0 0 0 0 -27.875 -27.875 -4.16667 0 -15.6667 0 0 0 -15.6667 -14.8182 -22.3333 -19.2105 -19.2105 -19.2105 0 2 -6 -14.697 0 0 0 -10.1667 -13.9167 2.33333 -1.88889 -1.88889 0 12.9091 18.25 0 0 -12.6667 -10.7222 -10.7222 -10.7222 -10.7222 -31.5 -31.5 -14.5833 -31.5 -31.5 -31.5 43.7 0 0 0 0 0 0 0 12.8182 0 15.5 -3.75 -77.25 0 0 10.9885 13.7667 13.7667 0 0 10.9885 13.7667 13.7667 6.71429 12.8 -4 -12.5 0 -4 1.5 -9.75 -9.75 -9.75 -9.75 -9.75 3.66667 6.75 7.5 7.5 -3 0 -14.9608 -3 0 0 0 0 0 0 0 -17.8636 -54.2143 -54.2143 0 0 0 0 0 0 0 0 -31.0833 33.7083 22.35 0 0 -75.6 15.8471 -21.5556 -3 -33 3.5 3.5 3.5 3.5 -9.58333 0 0 0 0 0 -3.78333 -3.78333 -3.78333 0 0 0 0 0 0 0 0 0 0 0 0 0 0 0 0 0 0
0 0 0 0 0 0 0 0 0 0 0 0 0 0 -12 -14.5 -14.5 -11.5 -15.3333 -13.1429 -13.1429 -13.1429 -14.5 -14.5 -15.8 -15.8 -16 -16 -16 -15.8333 -16 -16 -16.5 -15.5 -15.5 -15.5 -17 -17 -17.5 -17 -17.5 -17.5 -19 -18.4 -18.4 -19 -18.2 -18.5 -18.5 -19 -19.5 -20.6667 -20.6667 -18.5 -19.3333 -19.3333 -19.2 -19.2 0 0 0 0 0 0 0 0 0 0 0 0 0 0 0 0 0 5.3 0 0 0 0 0 0 0 0 0 0 0 0 0 0 0 0 0 0 0 0 0 0 0 0 9.94145 0 0 48.6364 -32.1429 0 0 0 0 0 42.4286 42.4286 0 0 14.625 14.625 0 0 -19.5209 -19.5209 9.94145 14.9167 0 0 0 0 0 0 0 0 0 0 0 0 0 0 0 0 0 0 0 0 0 0 0 0 0 0 0 0 0 0 0 0 0 0 0 0 0 0 0 43.6 41.6786 41.6786 43.6 43.6 39.75 43.2 0 0 0 0 43.6667 44 45.5 45.5 40.8333 43.2 43.2 43.2 38.1667 38.1667 42.9 42.9 43.5 40.1667 40.1667 46 45.75 46 0 0 42.7917 42.7917 42.7917 44.3333 44.3333 44.3333 42.1905 42 0 0 0 40.5 43 43 41 42.5 42.5 40.5 39 41.7 41.7 0 0 0 0 0 43.3333 43.3333 43.3333 0 40.75 40.75 0 0 0 42 0 0 0 0 0 0 0 0 0 0 0 0 0 0 0 0 0 0 0 0 0 0 0 0 0 0 21.9 35.8333 19.5833 19.5833 19.5833 21 20 4 22.5 19.8 19.8 19.8 0 0 0 0 15 0 0 0 0 12 0 0 0 9 9 0 0 0 1 0 0 0 0 0 0 -11 0 0 0 0 0 0 0 0 0 0 0 0 0 0 0 0 0 0 0 0 -25.1591 -25.1591 -29.6667 -29.6667 -17 -21.6 -25.1591 -25.1591 -29.6667 -29.6667 -25.1591 -23.6667 0 0 0 0 0 -24 0 -22.9643 -22.9643 -32.5 -20.9167 -20.9167 -20.9167 -20.9167 -19.1389 -18.1667 -24.2273 -21.3571 -24.2273 -24.2273 -24.2273 -24.2273 -24.2273 -30.6 0 -26.2889 -26.2889 0 0 0 0 -12.5 -7 0.5 -23.75 -23.75 -23.75 -15.8 -18 -15.8 -18 -18 -20.75 -20.5 -20.5 0 -23 0 -19.5 0 0 -20.5 -21.25 -21.25 -20.5 -20.5 -22 -21.75 -21.75 -21.75 -15.2 -15.2 -25.2857 0 -25.2857 -25.2857 -15.3333 -6.25 -18.5 0 -22.3333 0 -20.2143 0 0 -20.2143 0 0 -11 -21.3333 0 -15.4286 -29.7143 0 -14.6667 -14.6667 -14.6667 -14.6667 -26.5 23.0667 0 6.83333 0 0 -23.5 -14 -31.4091 0 0 0 0 0 0 0 -40.2 0 -32.0556 0 0 -31 -31 0 -31 -31 -31 0 -21.5 -21.5 -21.5 0 -20 0 0 -24.4286 0 -40 -11.1667 -17.5 0 0 0 -16 -12.5 -18.8 -15.1667 -15.1667 -15.1667 -5.25 -17.6111 -12.875 -12.875 -16.7333 -16.7333 -16.7333 -16.7333 -13.5 -15.625 -14 -15.625 -15.625 -14 -12.7846 -12.7846 0 0 0 -12.7846 0 -6.42857 0 0 0 0 -12.6667 0 -12.4524 -12.4524 -10.75 0 -12.4524 -16.3333 -19.2105 0 0.833333 0 0 0 -4.33333 0 0 -15.6667 -15.6667 -17.3929 3.56667 3.5 -19.2105 15.7667 2 15.7667 15.7667 -6 2 16.3333 -14.697 0 0 -10.1667 7.84615 7.84615 7.84615 12.9091 12.9091 18.25 14.4 0 0 -10.7222 -10.7222 10 38.0667 5.58333 9.54545 4.875 4.875 4.875 0 0 0 0 0 -14.5 0 0 -57.625 0.333333 -57.625 0 -3.75 0 -9.35714 0 -77.25 -9.35714 0 0 -16.5 -16.5 -0.969697 -0.969697 -0.969697 -0.969697 -4 6.71429 0 -4 1.5 1.5 0 0 -36.5556 -28 6.75 0 0 0 -7.93333 -7.93333 -3 0 0 -13.8333 -41 0 -17.8636 -75.6 -75.6 0 -31.0833 0 0 0 0 0 0 -31.0833 -31.0833 -8.14286 33.7083 0 0 0 -75.6 15.8471 15.8471 -21.5556 3.5 0 0 0 0 0 0 0 0 0 0 0 0 0 0 0 0 0 0 0 0 0 0 0 0 0 0 0 0 0 0
