ply
format ascii 1.0
comment Kinect v1 generated
element vertex 1330
property double x
property double y
property double z
property uchar red
property uchar green
property uchar blue
end_header
-105.395 96.3141 583.882 175 176 203
-102.912 97.3455 588.868 175 175 205
-98.1292 97.5945 588.604 177 176 208
-90.1507 94.4945 568.203 177 176 206
-91.2959 97.9503 588.228 179 179 206
-90.6125 97.9859 588.191 180 180 208
-53.9281 83.7837 494.678 154 205 188
-49.9285 82.0938 483.679 156 211 193
-46.6659 83.5197 490.632 138 196 176
-45.1872 82.9641 486.958 139 197 178
-30.4433 80.7033 468.95 127 182 164
-9.90461 79.5005 454.917 173 199 190
-9.37223 79.5282 454.887 235 255 252
-6.1356 79.1482 451.594 209 226 221
-1.37234 79.1247 449.79 147 207 187
-0.845419 79.1522 449.761 147 207 187
18.7146 80.4421 450.227 250 255 253
20.1626 79.9764 447.074 161 212 195
20.6877 80.0037 447.045 159 210 193
24.389 75.4802 420.06 143 213 189
26.364 75.583 419.952 146 214 186
63.7022 89.2665 484.559 144 202 182
62.6481 87.0374 472.27 143 201 181
63.2055 87.0664 472.24 140 198 179
64.3642 85.0598 460.439 140 198 179
65.3687 85.6922 463.677 142 199 180
67.8653 85.5311 461.887 149 206 187
68.4108 85.5595 461.857 149 206 187
68.9564 85.588 461.827 149 206 187
69.502 85.6164 461.797 149 206 187
75.7615 86.8217 466.446 154 217 193
76.3129 86.8504 466.416 152 218 191
77.4179 87.5048 469.745 152 218 191
78.2469 87.2485 467.998 152 218 191
78.8002 87.2773 467.968 154 217 191
80.1948 87.6494 469.592 152 217 193
83.2274 87.5078 467.724 152 217 195
102.106 105.361 562.484 152 217 195
121.267 106.793 563.892 22 25 24
121.312 104.664 551.787 223 224 255
127.872 102.564 537.564 216 217 251
134.722 107.06 560.689 214 218 251
178.116 130.193 676.831 210 213 246
144.298 105.033 545.823 210 213 246
147.542 105.202 545.645 212 210 247
157.3 106.538 549.806 207 208 242
155.301 103.205 531.585 207 206 240
169.733 107.185 549.122 200 202 231
167.544 105.43 539.924 201 203 232
-133.108 96.0033 587.954 163 163 188
-128.46 95.7934 585.149 167 167 197
-127.105 95.8639 585.074 167 167 197
-126.865 96.7845 590.183 167 167 195
-123.448 96.9624 589.995 171 170 202
-122.483 97.9369 595.156 171 171 198
-119.348 97.1759 589.769 172 171 203
-118.665 97.2115 589.732 174 171 201
-117.298 97.2826 589.656 174 174 206
-116.615 97.3182 589.619 174 174 206
-115.761 97.8228 592.167 174 174 204
-105.184 96.1131 578.835 175 176 203
-102.948 98.0298 588.867 175 175 205
-98.1649 98.2789 588.604 177 177 204
-96.1149 98.3856 588.491 181 176 205
-90.1852 95.1554 568.202 177 176 206
-91.3316 98.6347 588.227 178 178 205
-90.6482 98.6703 588.19 179 179 206
-63.6227 88.6674 522.341 149 156 179
-50.5115 83.5741 489.039 154 209 190
-49.3492 84.6006 494.424 139 199 179
-45.2168 83.5326 486.958 139 197 178
-43.8365 84.2413 490.474 136 194 174
-40.9773 84.3902 490.317 131 188 171
-36.4339 83.3623 482.934 129 187 167
-35.7399 83.0881 481.145 129 186 169
-35.1784 83.1173 481.115 129 186 169
-33.252 82.6037 477.545 131 188 171
-32.6946 82.6327 477.515 134 189 173
-31.4661 82.393 475.734 133 188 169
-13.5654 79.2923 452.001 146 206 186
-0.875931 79.953 451.303 147 207 187
12.2582 80.0922 447.507 146 213 190
21.1854 80.557 447.016 148 210 189
45.435 82.9167 451.869 136 201 175
46.823 83.5489 454.951 136 201 179
47.0321 82.9998 451.781 134 201 179
54.5504 85.0948 460.976 131 189 169
65.3401 86.2405 463.677 145 203 183
76.2841 87.4027 466.415 152 217 193
77.3889 88.061 469.744 152 217 193
80.4079 87.3202 464.512 149 219 193
80.9574 87.3488 464.482 149 219 193
82.3496 87.7185 466.082 153 218 196
83.7519 88.0909 467.693 151 216 194
116.364 104.23 547.358 29 35 24
123.911 108.71 569.994 170 179 190
134.687 107.726 560.688 214 218 251
134.662 106.721 555.026 213 216 254
134.532 105.176 546.358 213 216 254
146.073 107.457 555.2 214 212 249
169.699 107.84 549.121 200 205 233
168.677 105.33 535.315 198 201 229
169.269 101.158 511.578 192 197 225
169.879 101.19 511.544 194 195 227
178.887 105.861 534.753 194 198 231
-133.144 96.6847 587.953 163 163 188
-128.495 96.4717 585.148 167 167 197
-127.14 96.5423 585.073 167 167 197
-127.584 97.4333 590.22 167 167 197
-122.519 98.6274 595.155 172 172 199
-119.384 97.8602 589.768 172 172 201
-117.334 97.967 589.656 173 173 201
-116.65 98.0026 589.618 173 173 201
-116.314 98.9505 594.813 174 174 202
-105.219 96.7855 578.834 175 176 203
-101.147 99.7403 593.978 175 175 205
-91.3672 99.319 588.227 178 178 207
-90.6839 99.3546 588.189 178 177 209
-53.0161 84.3376 490.977 161 208 199
-40.4353 84.9927 490.284 131 188 171
-4.31244 84.9782 477.676 150 211 190
-3.13674 83.5218 469.107 141 207 185
13.9009 81.2534 450.487 145 204 177
15.942 86.6554 480.05 143 204 179
18.1307 81.4736 450.254 219 246 235
18.6594 81.5012 450.225 237 255 252
19.0743 74.9327 413.275 162 205 190
49.9816 85.9906 464.519 134 200 178
52.1716 86.1047 464.399 133 195 174
59.3715 83.621 447.985 145 201 182
64.3075 86.1488 460.437 146 204 185
66.0936 87.1266 465.297 150 206 187
66.6431 87.1552 465.267 150 206 187
68.5965 86.9599 463.495 150 208 188
69.2002 86.4035 460.168 152 210 190
70.453 86.6638 461.192 151 209 189
70.9979 86.6921 461.162 151 209 189
72.6327 86.7773 461.072 153 213 191
79.5638 88.1272 466.233 150 219 191
80.6921 88.7908 469.56 150 219 191
79.8106 87.2489 461.225 149 219 191
80.3562 87.2773 461.195 149 219 191
82.8722 88.2995 466.05 151 216 194
83.9264 87.7581 462.651 148 213 192
85.3243 88.128 464.239 118 169 152
135.639 106.724 550.993 213 216 254
137.163 101.975 523.856 212 213 249
179.023 130.35 668.338 207 211 244
147.008 104.044 532.036 208 209 243
147.641 104.077 532.001 206 210 243
148.274 104.11 531.966 205 209 242
150.805 104.242 531.827 205 206 242
161.564 104.802 531.235 200 205 233
162.197 104.835 531.2 200 205 233
170.694 106.886 539.745 200 201 233
176.661 105.195 528.197 196 197 233
177.291 105.227 528.162 197 198 234
-140.166 100.817 609.574 151 150 153
-139.461 100.854 609.535 151 150 153
-128.531 97.1501 585.147 167 166 201
-127.176 97.2206 585.072 167 167 197
-127.619 98.1176 590.219 167 167 197
-123.519 98.3311 589.993 170 169 199
-122.555 99.3179 595.154 171 171 200
-119.419 98.5446 589.767 172 172 201
-117.369 98.6513 589.655 173 173 201
-116.686 98.6869 589.617 173 173 201
-115.833 99.1976 592.165 174 174 202
-115.146 99.2333 592.127 174 174 202
-105.254 97.458 578.833 175 176 203
-101.183 100.431 593.977 175 175 205
-91.4029 100.003 588.226 177 176 206
-90.7196 100.039 588.188 177 176 208
-89.6391 99.6331 585.556 177 176 208
-88.9588 99.6686 585.519 177 176 208
-86.5362 99.3367 582.836 177 177 204
-50.5616 85.6946 494.485 148 203 185
-48.8332 85.7846 494.39 140 198 179
-43.3961 86.7326 497.792 135 190 172
-40.3157 85.2493 488.473 133 188 169
-39.7459 85.279 488.441 133 188 169
-33.9904 83.9946 479.306 135 190 174
-33.431 84.0238 479.276 135 190 174
-13.7622 81.1862 456.696 143 206 185
-1.49054 82.6852 460.808 143 213 189
9.57776 81.0073 447.65 143 204 181
13.6856 80.6767 444.393 192 251 224
15.3542 81.3081 447.332 194 255 232
17.2178 77.9928 428.234 210 237 226
35.3863 83.7454 453.991 145 211 184
35.9205 83.7732 453.962 144 210 183
42.7175 83.8444 452.014 141 204 178
45.6948 84.5668 455.009 137 202 180
50.8732 85.4118 457.926 135 198 176
66.9254 87.4227 463.585 151 207 188
68.5679 87.5082 463.494 150 208 186
70.4246 87.2095 461.191 149 210 187
70.9695 87.2379 461.161 149 210 187
72.6042 87.323 461.071 146 213 190
75.1093 89.0578 469.864 150 218 195
75.9466 88.7959 468.118 150 219 191
76.5 88.8247 468.087 150 219 191
76.7779 88.5359 466.383 150 219 191
78.4322 88.622 466.292 154 217 191
80.0446 87.5141 459.569 149 219 191
124.505 108.975 563.705 216 216 255
127.662 104.882 539.829 213 216 254
128.303 104.915 539.794 213 216 252
132.699 105.554 541.833 214 214 251
135.113 106.51 546.321 211 214 249
135.762 106.543 546.285 211 214 249
136.41 106.577 546.249 211 214 249
138.246 103.434 528.119 211 212 248
148.547 110.673 564.866 210 213 248
144.196 106.983 545.821 210 213 248
146.823 106.703 543.357 209 210 244
147.469 106.736 543.321 208 209 243
146.277 105.445 536.543 208 209 243
148.874 104.777 531.931 206 209 245
152.425 106.856 542.279 206 209 245
152.011 106.15 538.489 205 208 244
152.651 106.183 538.454 207 207 244
159.224 109.902 556.891 207 208 242
155.214 106.317 538.313 204 207 240
155.855 106.35 538.278 204 207 240
160.22 106.113 535.454 203 204 240
160.858 106.146 535.418 203 205 236
159.588 104.545 526.945 203 205 236
169.63 109.151 549.12 201 202 238
167.443 107.363 539.921 201 202 238
177.352 106.26 530.363 196 197 233
-138.863 101.098 606.76 151 150 155
-129.705 98.6952 590.33 167 166 201
-126.972 98.8376 590.18 169 168 198
-123.555 99.0155 589.992 170 169 199
-122.591 100.008 595.153 171 171 200
-118.772 99.2645 589.729 171 170 202
-117.405 99.3357 589.654 173 173 205
-117.241 99.8135 592.24 173 173 205
-105.289 98.1304 578.832 174 174 204
-101.219 101.121 593.976 175 175 205
-98.9552 100.296 588.638 175 175 205
-91.4386 100.688 588.225 175 175 207
-90.355 100.279 585.593 175 175 207
-89.6747 100.314 585.555 175 175 207
-87.2489 99.9798 582.872 175 175 207
-86.5716 100.015 582.835 177 176 206
-85.8942 100.05 582.797 178 178 207
-83.4403 98.819 575.146 178 178 205
-79.7983 100.368 582.462 178 177 209
-42.7824 86.019 490.409 134 189 171
-10.4046 80.4942 448.747 142 210 187
-6.82155 81.7996 454.738 159 210 193
-6.28918 81.8273 454.709 165 216 199
-5.22442 81.8827 454.65 179 228 211
-1.97559 79.8443 442.262 206 252 252
-0.968729 82.3889 455.99 199 240 242
-0.434507 82.4167 455.96 195 238 237
0.625275 81.3453 449.672 192 238 236
1.15615 81.6517 451.184 188 233 232
3.82602 82.354 454.152 195 255 241
10.1445 82.1197 450.689 192 249 223
11.7307 82.2023 450.602 195 249 222
14.2765 81.7793 447.389 191 236 226
16.454 79.744 435.386 183 230 221
19.1329 82.5877 450.195 165 218 200
39.566 97.1841 523.912 144 209 185
40.1825 97.2162 523.878 144 209 185
44.8192 84.4885 451.896 137 202 180
45.9865 85.6994 458.193 137 202 180
59.6912 86.7056 459.057 143 206 185
60.2329 86.7338 459.027 146 204 185
64.25 90.9426 480.926 146 204 185
64.1593 87.8285 463.735 149 206 187
65.2543 87.8855 463.674 150 208 188
66.2723 88.5426 466.959 151 209 189
66.8237 88.5713 466.929 151 209 189
67.3751 88.6 466.899 150 208 188
68.2969 87.7451 461.854 150 208 186
68.8424 87.7735 461.824 151 209 187
70.1818 88.1421 463.403 151 209 187
71.235 88.801 466.686 149 210 187
70.9057 85.8468 450.461 147 214 192
75.0949 89.002 466.474 150 219 191
75.9177 89.3501 468.117 150 219 191
76.4711 89.3789 468.087 150 219 191
77.5779 89.4366 468.026 154 217 191
78.1313 89.4654 467.995 154 217 191
78.9548 89.203 466.261 151 216 192
79.4561 87.4422 456.351 152 217 193
82.7742 88.7978 462.71 154 217 193
82.1552 87.5827 456.203 158 214 195
83.8692 88.8548 462.65 143 199 180
101.506 94.1913 486.115 23 23 21
115.932 103.697 533.741 213 216 254
120.521 107.251 551.819 213 216 254
124.697 106.619 546.891 213 216 254
127.629 105.524 539.828 215 216 252
128.269 105.557 539.793 212 215 251
134.583 109.726 560.686 212 215 251
136.225 108.069 550.955 208 212 247
138.213 104.063 528.118 210 211 247
147.001 104.52 527.635 203 209 244
158.3 105.109 527.013 202 204 235
157.645 104.292 522.724 202 204 235
169.725 106.498 530.78 197 200 235
177.319 106.894 530.362 194 199 227
177.952 106.927 530.328 193 198 226
-138.9 101.801 606.759 151 150 155
-125.385 100.555 595.303 170 169 201
-122.627 100.699 595.152 171 171 198
-119.491 99.9133 589.765 171 171 198
-118.124 99.9845 589.69 172 171 203
-119.201 101.519 598.491 172 171 203
-116.758 100.056 589.615 172 171 203
-116.074 100.091 589.577 172 171 203
-114.354 101.13 594.696 173 173 201
-105.324 98.8028 578.831 174 174 204
-106.77 101.524 594.279 172 171 203
-106.081 101.56 594.241 173 173 205
-106.342 102.513 599.563 173 173 205
-107.587 104.433 610.54 174 174 206
-101.255 101.812 593.976 174 175 200
-91.0708 100.925 585.629 175 175 207
-90.3905 100.96 585.592 175 175 207
-89.3162 100.552 582.983 175 175 207
-87.2843 100.658 582.871 175 175 207
-86.6069 100.693 582.834 175 175 205
-85.9296 100.729 582.797 177 176 206
-84.575 100.799 582.722 177 177 204
-79.1563 101.081 582.424 178 177 209
-50.6218 86.8486 494.484 151 204 186
-47.959 86.3237 490.691 139 197 178
-41.3619 86.0135 486.736 135 188 171
-38.8057 85.5023 483.055 133 188 169
-32.6929 84.56 475.792 137 195 175
-3.63002 81.9334 451.445 158 204 202
1.12468 81.9005 449.642 192 238 236
3.75886 95.3681 522.745 161 215 201
5.92773 82.998 454.034 179 227 215
15.8244 82.3872 447.302 162 207 197
33.4958 84.1491 450.954 144 209 185
49.1077 117.889 631.024 144 209 187
35.7409 84.5504 452.394 144 209 187
36.2733 84.5781 452.364 144 209 187
38.4006 85.8465 458.608 146 206 186
40.56 85.959 458.489 143 206 185
41.8863 85.4452 455.214 143 204 181
50.8168 86.493 457.925 136 201 179
51.7154 86.2474 456.268 139 199 177
52.2534 86.2754 456.239 139 199 177
59.698 85.7978 451.075 147 205 186
65.2257 88.4338 463.674 150 208 188
68.0278 87.9803 460.225 150 208 186
68.5714 88.0086 460.196 150 208 186
69.115 88.0369 460.166 147 210 186
70.8779 86.38 450.46 146 214 188
75.4009 91.2364 475.602 148 216 191
75.9631 91.2657 475.571 149 217 192
75.0661 89.5542 466.473 150 218 193
77.0873 91.3242 475.509 154 216 195
77.549 89.9908 468.025 154 217 193
78.1024 90.0196 467.994 154 217 193
78.926 89.7552 466.261 151 216 192
81.1316 89.8701 466.139 150 215 191
82.706 88.7446 459.418 156 211 193
101.186 100.441 517.384 146 158 154
115.899 104.331 533.74 212 215 253
137.915 106.291 536.997 210 211 247
106.754 81.9221 413.726 209 210 246
138.181 104.691 528.117 209 210 246
144.296 106.623 536.646 208 207 244
147.486 106.789 536.471 203 209 244
146.939 105.546 529.825 202 208 242
147.569 105.579 529.79 203 209 244
158.3 106.539 531.406 202 204 233
161.465 106.704 531.232 198 202 231
162.098 106.737 531.197 198 201 237
158.784 103.44 514.214 198 202 235
165.943 107.342 533.211 198 200 233
166.578 107.375 533.176 198 200 233
169.182 107.919 535.277 197 198 234
169.82 107.952 535.242 197 198 234
170.458 107.985 535.206 196 199 234
171.449 106.424 526.287 195 196 230
171.38 106.025 524.119 196 197 231
172.005 106.057 524.085 196 198 229
169.083 103.226 509.525 195 196 230
177.286 107.528 530.362 194 199 227
177.919 107.561 530.327 193 198 226
-138.936 102.504 606.758 153 151 165
-133.876 99.8505 590.554 160 160 188
-126.174 98.3915 579.976 166 166 198
-125.421 101.246 595.302 169 168 200
-122.663 101.389 595.151 170 170 197
-119.527 100.598 589.765 171 171 198
-118.843 100.633 589.727 172 166 200
-117.122 99.7847 584.51 172 166 200
-117.477 100.704 589.652 171 170 202
-116.793 100.74 589.614 171 170 202
-116.11 100.776 589.576 172 171 203
-114.743 100.847 589.501 170 169 201
-105.82 99.9102 581.361 173 173 205
-99.2225 102.61 593.861 173 173 201
-90.029 101.195 583.019 176 173 206
-86.6423 101.372 582.833 177 175 203
-85.965 101.407 582.796 177 175 203
-84.6103 101.478 582.721 177 175 203
-82.2173 101.139 580.062 178 176 204
-79.1917 101.76 582.423 178 175 208
-51.9918 86.688 490.911 130 182 167
-47.0195 87.2796 492.453 138 196 176
-46.4455 87.3095 492.422 137 195 175
-29.945 85.2608 475.639 140 200 180
-29.3896 85.2898 475.608 138 201 180
-28.4248 84.1073 468.825 138 201 180
-26.2463 86.0832 478.873 138 196 176
5.20027 100.854 548.841 155 207 196
9.56058 83.1512 450.717 160 204 198
17.9342 80.8478 435.3 151 216 194
18.4454 80.8744 435.272 150 215 193
21.0483 83.1866 447.012 151 216 194
21.7213 83.7845 450.048 151 216 194
23.148 78.0625 418.325 148 213 192
37.3303 105.999 566.032 146 212 187
32.9376 84.6528 450.983 144 209 185
36.2455 85.1113 452.363 142 210 183
43.7708 86.6683 458.31 141 204 178
51.5118 90.132 474.594 135 203 180
59.9657 87.5115 457.419 146 206 186
63.5546 88.8966 463.763 149 206 187
71.2196 89.2957 463.341 149 212 188
71.8048 88.7229 460.015 147 212 190
70.8501 86.9131 450.459 147 215 189
76.1113 92.7003 480.269 149 217 192
77.5201 90.545 468.024 154 217 193
78.0735 90.5738 467.994 154 217 193
78.6161 89.9857 464.599 152 216 190
79.1656 90.0144 464.569 151 216 194
81.6542 90.451 466.108 148 214 187
83.2212 89.3173 459.387 104 152 136
101.346 101.832 521.56 138 150 146
115.866 104.965 533.739 212 213 249
138.148 105.32 528.117 208 209 245
148.288 104.276 518.977 200 206 240
171.417 107.052 526.286 194 195 231
-128.672 99.8635 585.143 167 163 199
-127.317 99.934 585.068 167 163 199
-122.699 102.08 595.15 171 165 199
-118.512 100.392 584.584 173 168 199
-118.879 101.318 589.726 174 169 202
-116.829 101.424 589.613 170 169 201
-116.146 101.46 589.576 171 170 202
-114.779 101.531 589.5 167 167 199
-105.395 100.148 578.829 171 170 202
-90.0643 101.874 583.018 171 168 201
-89.387 101.909 582.981 172 167 198
-86.6777 102.05 582.832 175 172 201
-86.0004 102.085 582.795 176 174 202
-84.6457 102.156 582.72 176 174 202
-79.9044 102.403 582.459 176 173 206
-79.2271 102.438 582.422 177 174 207
-51.0673 87.6452 492.674 109 162 144
-35.7855 86.1483 479.396 131 189 169
-30.5294 85.7881 475.668 140 200 180
-26.0783 84.1721 465.4 143 201 181
-4.80864 84.0905 457.779 143 211 188
12.0937 83.2477 447.503 151 216 192
12.7931 84.4248 453.652 151 216 192
13.7628 83.901 450.483 150 215 193
22.9082 84.9515 453.095 147 214 192
23.4406 84.9792 453.066 147 214 192
35.3973 86.184 455.566 142 210 183
36.4981 85.0848 449.232 142 210 183
47.8024 85.107 445.538 141 207 185
50.0309 88.135 461.211 141 207 185
58.1855 88.5596 460.762 144 209 187
59.2335 86.2687 447.981 147 207 187
63.526 89.4449 463.762 150 208 188
66.8837 89.0126 460.284 151 209 185
69.6545 88.5581 456.884 149 210 185
70.6892 89.2107 460.074 149 210 185
71.2328 89.239 460.044 149 212 186
71.7764 89.2673 460.015 151 215 189
71.8138 88.6706 456.765 152 215 194
75.5257 92.5873 476.759 154 216 195
78.5874 90.536 464.598 151 215 189
79.1369 90.5646 464.568 151 216 194
79.6863 90.5932 464.538 152 217 195
80.2358 90.6218 464.507 152 217 195
81.074 90.9745 466.138 151 216 194
81.5934 90.3857 462.768 150 215 189
83.1928 89.8618 459.386 90 138 122
102.756 100.994 513.17 144 148 165
115.833 105.599 533.738 212 213 249
125.366 108.181 544.526 208 212 247
134.478 111.726 560.683 212 208 248
132.851 109.864 551.132 209 211 242
136.425 108.333 541.617 205 209 238
140.285 108.534 541.405 205 209 238
138.115 105.949 528.116 205 208 244
146.719 108.869 541.051 204 207 240
149.972 108.2 536.328 198 206 240
158.301 109.472 540.414 200 200 237
156.98 108.152 533.699 198 199 235
157.615 108.185 533.664 198 200 233
167.094 108.268 530.917 195 195 234
171.524 108.499 530.673 194 194 233
168.301 103.658 505.505 195 195 223
177.757 108.416 528.123 193 194 226
178.387 108.449 528.089 191 193 224
-129.164 101.468 590.289 139 135 171
-122.735 102.77 595.149 172 166 200
-119.598 101.966 589.763 173 168 199
-116.865 102.109 589.612 155 152 174
-114.484 101.282 584.359 162 159 181
-105.43 100.82 578.828 174 168 204
-106.615 102.642 589.048 178 172 208
-99.098 103.034 588.634 174 171 201
-89.7665 99.8163 568.159 177 174 207
-93.9292 105.255 598.871 159 155 181
-90.0997 102.552 583.017 162 158 185
-87.3904 102.693 582.868 174 171 192
-86.7131 102.728 582.831 179 172 200
-86.0357 102.764 582.794 177 170 197
-84.6811 102.834 582.719 176 172 197
-82.6491 102.94 582.607 174 169 200
-79.2624 103.116 582.421 176 173 204
-51.4797 87.8632 490.878 105 158 140
-50.336 87.9228 490.815 151 204 186
-49.1923 87.9823 490.752 147 200 182
-48.2274 88.3695 492.515 139 197 178
-47.6534 88.3994 492.483 139 197 178
-42.5277 86.359 479.764 135 192 173
-36.3742 86.6794 479.426 130 188 168
-28.3369 86.46 475.545 140 205 185
-21.9121 85.546 468.462 140 198 179
-7.56965 85.0792 461.131 145 208 187
22.4454 90.0645 477.927 148 216 189
23.0069 90.0938 477.896 146 216 193
22.1948 84.871 450.017 145 215 192
31.6168 86.5255 455.772 143 211 188
34.7126 86.3927 454.017 145 208 187
35.2468 86.4205 453.988 147 209 188
36.3758 84.1987 441.633 145 208 187
36.8956 84.2258 441.604 145 208 187
51.4525 89.3661 464.424 146 211 189
58.7007 89.1324 460.732 148 209 186
59.578 88.8758 459.054 147 207 187
60.1198 88.904 459.024 149 206 187
70.9543 89.4681 458.428 149 212 186
71.496 89.4963 458.398 151 215 189
70.7945 87.9795 450.458 152 215 194
75.5424 90.6204 463.099 151 216 194
76.6339 91.2971 466.38 149 217 194
78.2882 91.3832 466.289 150 215 191
78.5587 91.0863 464.597 150 215 191
79.1082 91.1149 464.567 151 216 194
79.359 90.2081 459.595 150 215 193
80.4699 90.877 462.828 148 213 192
80.7308 90.584 461.161 148 213 192
115.8 106.233 533.737 210 211 249
122.074 110.847 556.501 210 213 250
121.693 109.94 551.744 210 213 250
124.166 108.34 542.289 208 212 247
127.383 108.508 542.112 207 213 245
134.444 112.393 560.682 209 211 242
136.088 110.69 550.951 208 210 239
135.024 109.332 543.992 208 210 239
135.67 109.366 543.956 206 211 239
136.316 109.4 543.921 205 209 238
138.12 110.358 548.481 205 209 238
138.965 109.111 541.475 207 208 242
147.065 110.246 544.874 204 208 238
147.713 110.28 544.838 204 208 238
148.076 107.913 531.961 199 205 235
147.046 104.675 514.852 201 202 234
169.593 109.034 530.777 191 195 228
169.53 108.621 528.573 193 194 226
170.16 108.654 528.539 193 194 226
171.835 107.532 521.932 194 193 226
168.269 104.263 505.504 194 194 222
180.144 111.255 539.209 194 194 222
-105.926 101.936 581.358 130 124 160
-89.8009 100.477 568.158 154 150 176
-93.9656 105.952 598.87 159 155 181
-78.6205 103.83 582.383 168 165 196
-53.2664 90.4175 502.077 153 204 189
-48.0784 88.6146 490.688 145 198 180
-43.751 88.1692 486.858 136 194 174
-41.1774 87.6424 483.176 132 190 171
-39.4869 87.7304 483.083 131 189 169
-27.8105 87.0452 475.514 143 207 188
-23.5831 86.0088 468.551 146 204 185
-21.9406 86.0943 468.461 144 202 182
-21.3931 86.1228 468.431 144 202 182
-19.1352 85.9318 466.654 142 203 182
-18.5897 85.9603 466.624 142 203 182
-8.08111 84.9968 457.954 145 208 187
-7.1241 80.2812 432.377 145 208 187
-5.36343 84.5486 454.646 144 209 187
-2.56015 80.255 430.713 145 210 188
28.1295 87.7823 460.782 149 212 190
28.4712 87.198 457.538 149 212 190
29.0092 87.226 457.509 149 212 188
29.7547 87.8669 460.693 148 211 187
31.5888 87.0624 455.771 147 209 188
32.0136 86.7886 454.163 142 210 187
32.5478 86.8165 454.134 142 210 187
33.197 87.1461 455.683 147 209 188
33.6162 86.8721 454.075 147 209 188
34.1505 86.8999 454.046 145 208 187
36.6684 87.9248 458.694 145 208 187
42.6065 88.234 458.367 143 208 184
51.0614 89.2806 461.15 148 215 193
51.6051 89.3089 461.12 148 215 193
52.1487 89.3372 461.09 146 216 193
56.6422 88.9648 457.595 148 210 189
63.4689 90.5416 463.761 145 209 183
67.5411 91.0644 465.201 150 208 186
68.0905 91.093 465.171 150 208 186
69.5451 90.243 460.133 149 210 187
80.4413 91.4253 462.827 150 215 193
81.2479 91.1588 461.13 148 213 192
81.6041 86.0647 433.727 6 9 6
101.079 101.747 511.22 162 168 186
101.684 101.779 511.187 165 172 188
120.993 117.144 587.041 40 48 50
100.431 95.6768 478.923 208 212 247
115.767 106.867 533.736 207 207 246
127.35 109.152 542.111 206 212 244
147.991 109.379 536.432 202 204 235
146.807 108.071 529.821 199 205 235
147.438 108.104 529.786 199 205 235
151.156 110.392 540.801 199 204 239
151.8 110.425 540.766 199 204 239
151.182 109.545 536.256 200 201 233
149.959 108.235 529.648 200 201 233
150.589 108.268 529.613 201 202 234
148.191 106.132 518.975 200 201 233
158.996 113.432 554.467 200 201 233
156.947 110.693 540.483 198 200 231
157.59 110.727 540.447 198 200 231
158.234 110.76 540.412 197 201 231
158.877 110.794 540.376 197 201 231
159.521 110.827 540.341 198 200 231
157.968 109.34 532.895 197 199 230
160.115 110.01 535.765 195 196 230
160.753 110.043 535.73 195 196 230
161.391 110.077 535.694 196 197 231
162.667 110.143 535.624 192 196 229
163.306 110.176 535.589 195 197 228
160.621 107.976 524.7 196 198 229
161.246 108.008 524.666 196 198 229
168.649 112.165 544.458 195 196 230
165.763 109.47 530.985 195 197 228
167.311 110.105 533.871 192 196 229
169.751 110.934 537.497 191 195 228
170.391 110.968 537.461 190 194 226
172.724 109.832 530.602 193 192 224
189.387 119.226 575.351 192 191 223
190.073 119.262 575.314 192 191 223
185.799 116.195 560.315 192 191 223
186.467 116.23 560.278 192 192 219
178.321 109.712 528.087 193 190 225
-105.92 101.214 573.904 3 9 2
-91.5251 103.838 583.09 36 31 58
-81.9996 103.389 577.533 7 9 13
-51.5394 89.0086 490.876 126 181 162
-49.4572 88.4422 487.169 130 188 168
-48.1083 89.1873 490.687 142 199 180
-44.3483 88.7082 486.888 137 195 175
-43.2826 90.1236 494.068 133 191 172
-40.3748 88.9151 486.669 132 190 171
-26.5376 87.0325 472.053 144 209 187
-21.4217 86.6712 468.43 146 206 186
-20.3992 87.0371 470.038 143 204 183
-17.5893 86.8707 468.219 143 204 183
-16.9815 86.5918 466.533 145 203 183
-16.4359 86.6202 466.503 145 203 183
-7.57303 85.5616 457.924 142 210 187
9.04543 86.4269 457.009 151 215 189
12.1773 85.9966 453.679 145 215 192
18.8257 87.5378 459.674 148 216 191
24.0501 97.9645 513.435 148 216 191
28.7439 88.6644 462.376 149 212 190
31.2419 88.1843 458.991 148 210 189
35.5605 88.4092 458.753 145 211 184
36.9216 87.8784 455.475 148 211 185
39.9172 91.1294 471.784 147 209 188
43.8906 88.2413 455.092 156 213 194
45.2775 88.9152 458.218 157 215 195
46.3572 88.9714 458.159 154 216 195
57.6936 89.5617 457.535 148 209 186
63.9878 91.1184 463.73 149 207 185
66.1777 91.2324 463.609 150 208 186
69.5699 90.1801 456.881 150 211 188
71.1476 90.8724 460.042 151 214 193
71.7293 90.2925 456.763 155 216 193
73.8427 91.6315 463.188 155 216 193
74.3902 91.66 463.158 155 216 193
74.9377 91.6886 463.127 154 217 193
75.4852 91.7171 463.097 154 217 193
76.0327 91.7456 463.067 151 216 192
77.6792 92.459 466.317 150 215 191
80.4127 91.9736 462.826 146 217 191
100.413 103.478 517.413 182 186 205
120.956 117.841 587.04 45 54 56
115.733 107.5 533.735 205 204 238
126.029 109.73 542.181 207 208 242
126.673 109.763 542.146 205 208 246
133.107 110.098 541.792 201 202 234
136.967 110.299 541.579 204 206 237
137.525 106.996 523.815 204 206 239
145.181 112.478 550.445 203 204 238
146.682 109.951 536.501 199 203 234
149.275 109.247 531.89 201 202 234
149.908 109.28 531.855 200 201 235
150.541 109.313 531.82 200 201 235
151.174 109.346 531.785 199 203 236
148.159 106.751 518.974 197 201 233
157.613 113.125 549.761 197 201 233
158.2 111.405 540.411 197 201 231
156.88 110.061 533.696 197 201 231
157.516 110.094 533.661 197 199 230
161.55 110.444 534.185 192 196 229
166.995 110.17 530.914 193 194 228
168.954 110.69 533.032 193 194 226
169.59 110.723 532.997 191 193 224
170.225 110.756 532.962 191 193 224
170.861 110.789 532.927 190 192 223
171.496 110.822 532.892 190 192 223
169.28 108.65 522.067 190 192 223
177.658 110.31 528.121 193 190 225
-50.6221 88.9516 487.231 137 193 174
-48.1382 89.76 490.686 142 199 180
-47.5663 89.7898 490.655 140 198 179
-45.1807 88.5657 483.392 137 195 175
-41.2362 88.771 483.175 134 189 171
-30.6454 88.013 475.665 143 201 181
-28.9793 88.0998 475.574 147 205 186
-23.1751 87.4443 470.189 149 212 190
-22.6256 87.4729 470.159 149 210 189
-19.9495 87.9292 471.688 145 212 191
-18.1654 87.3905 468.249 145 210 190
-7.65423 86.7011 461.129 142 210 187
2.60258 87.2352 460.564 148 210 189
4.66105 110.495 582.916 147 212 190
9.55352 86.9917 456.979 150 215 191
13.26 86.8851 455.191 148 215 193
13.7942 86.9129 455.161 148 215 193
18.6669 87.4662 456.478 148 216 191
19.2029 87.4941 456.448 148 216 191
19.739 87.522 456.419 148 216 191
33.373 88.8374 458.871 146 212 185
39.8882 91.6857 471.784 150 213 192
40.1319 89.8033 461.747 148 213 192
48.2179 87.238 445.506 153 218 196
73.7905 92.8102 466.529 154 217 191
75.9961 92.9251 466.408 149 217 190
77.6466 92.3794 462.976 148 216 189
78.1941 92.4079 462.946 148 216 189
100.567 104.893 521.59 206 214 234
102.42 104.989 521.488 174 178 197
120.92 118.538 587.039 47 53 58
116.9 109.255 539.266 198 197 231
119.27 110.897 547.17 198 197 231
121.451 112.349 554.128 194 197 235
122.108 112.383 554.092 196 199 236
121.865 111.032 547.028 194 197 235
124.709 110.307 542.251 200 200 237
125.996 110.374 542.18 198 200 233
134.677 112.588 551.021 196 198 229
135.647 110.877 541.649 198 200 231
139.569 110.649 539.152 200 201 235
140.209 110.683 539.117 200 201 235
137.493 107.62 523.814 199 203 234
146.389 114.101 555.155 197 199 232
147.976 109.815 531.958 197 201 231
148.609 109.848 531.924 198 200 231
169.494 110.935 530.774 190 192 223
172.361 109.436 521.895 190 192 223
178.553 112.252 534.745 190 192 225
176.274 110.457 526.005 189 190 224
-52.9564 91.481 498.296 143 181 168
-50.6517 89.5201 487.23 145 201 182
-49.6993 89.9101 488.967 111 164 146
-48.168 90.3327 490.686 142 199 180
-41.9825 89.6335 484.977 135 190 172
-41.417 89.663 484.945 134 189 171
-26.0438 88.1656 472.021 146 213 190
-13.173 87.5737 464.678 147 205 186
-12.6293 87.602 464.648 144 207 186
-6.60276 87.298 461.069 145 208 187
21.3193 88.1427 456.329 147 214 192
22.9275 88.2264 456.241 148 213 192
37.1236 89.5748 458.662 149 217 194
42.8217 90.4893 461.596 153 218 196
69.1601 92.1729 461.788 148 211 185
69.7056 92.2013 461.758 148 211 185
70.0036 91.9047 460.101 145 213 185
70.7967 92.2581 461.698 146 214 186
71.3423 92.2866 461.668 151 215 189
74.8318 94.7169 473.296 154 217 191
73.7855 92.7282 463.186 154 217 191
74.333 92.7567 463.156 154 217 191
74.8805 92.7852 463.126 149 217 190
75.428 92.8137 463.096 149 217 190
76.523 92.8707 463.035 148 216 189
77.0705 92.8992 463.005 148 216 189
78.1655 92.9563 462.945 151 214 191
80.5923 92.146 457.888 132 192 172
81.134 92.1742 457.858 106 149 135
110.949 119.229 590.275 43 47 39
100.724 106.331 525.835 199 207 227
100.535 105.511 521.589 188 196 216
102.388 105.608 521.487 174 178 197
116.321 112.289 552.028 193 193 230
116.976 112.323 551.992 195 195 234
118.637 113.319 556.679 196 197 235
117.289 111.446 547.277 196 196 228
117.938 111.479 547.241 198 197 229
123.388 115.432 566.225 191 190 222
121.831 111.682 547.027 192 191 225
124.828 112.732 551.56 192 197 223
124.426 111.817 546.884 190 195 220
125.46 111.65 545.665 194 196 225
133.23 112.055 545.237 190 192 223
134.159 112.324 546.348 190 192 223
134.97 111.487 541.684 195 197 228
135.613 111.521 541.648 195 197 228
138.83 111.688 541.471 198 197 229
137.46 108.244 523.813 194 199 229
185.505 143.055 691.013 193 192 224
147.31 110.416 531.992 195 195 227
148.095 107.988 518.972 195 195 225
155.559 112.56 540.551 192 192 221
161.866 111.174 531.191 191 193 224
161.176 110.301 526.833 191 193 224
168.828 111.536 530.808 188 190 219
172.625 111.734 530.599 189 193 223
169.469 107.52 509.486 186 192 222
178.52 112.891 534.744 185 191 221
176.242 111.086 526.004 188 190 219
-124.075 107.866 604.107 5 8 4
-123.375 107.902 604.069 5 8 4
-121.975 107.975 603.992 6 9 6
-50.2988 90.451 488.998 114 169 151
-49.3416 90.8459 490.748 148 201 183
-40.7316 89.9291 483.142 132 190 171
-37.6391 89.4224 479.483 130 188 168
-24.245 88.1736 468.578 147 214 192
-15.4851 88.6297 468.096 152 212 192
4.67281 87.8142 457.243 148 213 192
7.83482 87.3744 453.911 148 214 189
9.96434 87.4852 453.794 147 214 192
28.7964 89.0703 455.916 148 215 193
29.5378 89.7219 459.077 148 213 192
34.7463 88.1794 449.315 150 218 195
36.5556 90.0873 458.691 150 218 195
69.377 93.0484 463.426 146 211 189
68.9455 91.7739 456.909 146 211 189
69.4854 91.802 456.879 147 213 188
70.7682 92.8045 461.697 147 213 188
71.3138 92.8329 461.667 150 215 191
71.6447 91.9144 456.76 152 217 193
77.0414 94.087 466.345 151 216 192
79.7794 93.5901 462.854 159 226 203
80.8479 93.0153 459.501 110 170 150
78.7974 85.717 422.043 29 33 25
99.2675 106.066 521.656 173 180 198
101.738 106.194 521.521 186 192 213
102.155 105.414 517.309 165 166 186
106.445 105.638 517.073 47 55 59
114.324 112.842 552.135 141 145 166
115.468 113.357 554.451 177 181 202
116.125 113.391 554.415 186 185 217
116.606 112.062 547.311 189 189 221
117.255 112.095 547.276 181 181 213
118.905 113.081 551.883 184 183 215
123.353 116.104 566.224 184 183 215
126.039 116.244 566.076 191 190 224
123.744 112.433 546.919 183 188 213
124.918 112.942 549.193 180 185 211
125.81 112.097 544.485 192 191 223
126.456 112.131 544.45 189 189 221
127.637 112.636 546.704 189 189 221
128.285 112.67 546.669 192 191 223
128.934 112.704 546.633 187 192 222
133.476 112.94 546.383 189 189 221
135.343 113.485 548.619 192 192 221
135.995 113.519 548.584 188 188 218
137.369 113.143 546.169 189 188 223
138.018 113.177 546.133 189 188 223
137.01 111.37 537.025 189 189 221
138.797 112.333 541.47 192 189 222
139.907 112.743 543.248 195 192 224
141.262 113.346 545.955 197 194 227
140.201 111.536 536.85 193 190 223
145.193 113.106 543.419 186 185 217
147.161 112.768 541.01 191 190 222
147.858 111.935 536.428 189 188 223
152.292 113.92 545.348 191 190 222
151.035 112.533 538.516 192 191 223
148.038 109.011 521.092 192 192 221
148.658 109.043 521.058 192 192 221
156.845 114.605 547.436 183 187 215
158.706 112.5 535.831 189 189 221
161.896 112.666 535.656 188 190 219
168.513 114.764 544.455 186 191 219
177.464 111.78 525.934 183 186 212
-51.4681 90.9622 489.06 162 205 181
-51.0871 91.3293 490.841 152 205 187
-49.3715 91.4186 490.747 144 197 179
-44.4669 90.9822 486.885 136 194 174
-38.7871 89.9244 479.544 135 188 171
-32.0742 90.2739 479.175 139 199 181
-29.0663 89.7684 475.571 145 205 185
-26.6528 89.2414 472.049 148 210 189
-25.55 89.2988 471.989 151 214 193
-22.2415 89.4711 471.807 150 218 195
-20.5873 89.5572 471.716 150 218 195
-17.9956 87.789 461.691 152 217 195
-16.0611 89.1495 468.126 155 215 195
-14.4187 89.235 468.035 152 215 194
-9.3583 88.2387 461.216 148 210 189
-3.9879 89.1438 464.168 145 210 188
2.518 88.8571 460.562 150 213 192
13.7105 88.518 455.159 148 213 192
15.3132 88.6014 455.071 150 215 193
16.4386 88.9652 456.594 148 213 192
23.246 88.7114 453.061 151 216 194
26.9727 88.9055 452.856 151 216 194
27.4685 87.1559 443.61 149 217 194
35.7374 89.9701 455.531 152 222 199
44.3147 90.4167 455.059 157 227 203
45.1647 91.0777 458.215 157 227 203
62.3473 94.2008 468.84 149 207 185
62.0108 92.8964 462.177 149 207 185
62.5563 92.9248 462.147 149 207 185
64.0075 94.2872 468.749 149 207 185
67.2286 92.852 460.249 146 212 187
67.7722 92.8804 460.219 148 210 189
68.3159 92.9087 460.189 148 210 189
69.3484 93.5968 463.426 147 212 190
78.645 93.4465 459.62 154 214 194
80.8195 93.5597 459.501 97 148 131
101.088 106.781 521.554 210 215 236
101.915 106.419 519.406 173 174 195
102.531 106.451 519.372 151 152 172
102.538 104.088 507.101 10 14 19
117.275 116.462 566.555 49 57 61
113.977 112.576 547.453 155 159 180
116.413 113.154 549.658 180 180 212
117.065 113.188 549.622 178 177 209
123.581 113.527 549.264 171 167 191
124.232 113.561 549.228 178 176 202
125.895 112.307 542.178 181 178 206
130.648 114.349 551.234 187 189 218
129.112 112.475 542.001 158 160 189
132.329 112.642 541.824 173 173 205
132.972 112.676 541.788 175 175 207
138.954 111.68 534.672 190 187 220
139.59 111.713 534.637 188 185 217
137.395 109.491 523.811 172 172 199
144.554 113.279 541.151 178 178 207
146.419 114.266 545.668 180 180 210
146.548 112.508 536.498 184 183 213
150.393 112.276 534.042 184 187 215
151.028 112.309 534.008 187 189 218
148.204 109.779 521.79 184 189 217
157.476 115.746 549.758 172 177 205
154.846 113.375 538.303 172 177 205
155.487 113.409 538.268 175 179 207
156.758 113.039 535.936 177 179 210
160.194 113.8 538.767 182 182 214
160.613 113.676 537.986 184 183 215
161.254 113.709 537.951 182 184 213
158.6 111.428 526.97 182 184 213
171.363 113.368 532.888 179 181 208
171.999 113.401 532.854 181 183 210
170.527 112.049 526.313 180 182 209
179.942 115.121 539.203 185 184 207
175.462 111.888 523.87 178 178 203
176.087 111.92 523.836 179 180 204
175.999 111.501 521.687 179 181 208
-51.4978 91.5329 489.059 156 199 175
-49.4013 91.9913 490.746 135 188 171
-48.8295 92.0211 490.715 149 204 186
-45.6318 91.4916 486.947 138 196 176
-41.3539 91.0284 483.171 133 191 172
-38.8163 90.4846 479.543 131 189 169
-25.5788 89.8511 471.988 151 214 193
-22.9036 90.3175 473.529 150 218 195
-22.3502 90.3463 473.499 150 218 195
-20.6161 90.1095 471.715 150 218 195
-20.0647 90.1382 471.685 150 219 198
-16.6372 89.6693 468.155 156 218 197
-15.5422 89.7263 468.095 156 218 197
-15.0482 90.0746 469.732 156 218 197
-14.4987 90.1032 469.702 156 218 197
-12.0857 88.6388 461.363 154 216 195
-7.87729 90.1255 467.673 150 215 193
-0.210833 89.8864 463.957 147 212 190
8.1984 87.2636 447.699 150 215 193
12.7022 89.6182 458.392 149 217 194
30.8847 90.2558 455.796 150 218 195
33.1442 90.6826 457.268 159 226 203
41.8975 91.4497 458.393 159 226 203
44.2867 90.9536 455.059 160 227 204
44.9791 91.2988 456.616 159 226 203
45.5171 91.3269 456.587 159 226 203
46.055 91.3549 456.557 157 225 202
46.5929 91.3829 456.527 157 225 202
46.4824 90.1532 450.217 157 225 202
47.6688 91.4389 456.468 157 225 202
48.2068 91.4669 456.439 158 223 201
48.0741 90.236 450.129 157 222 200
51.2489 95.1743 474.587 158 221 198
62.4239 94.1085 465.469 149 207 185
62.9733 94.1371 465.439 149 207 185
63.2973 93.8315 463.756 149 207 185
66.6566 93.3682 460.278 147 210 184
67.2002 93.3965 460.248 147 210 184
67.7438 93.4248 460.218 149 210 185
68.2875 93.4531 460.188 149 210 185
69.3198 94.1451 463.425 149 212 186
73.3862 95.3313 468.23 152 216 190
73.9396 95.3601 468.2 152 216 190
75.5998 95.4466 468.108 151 217 190
76.1532 95.4754 468.078 151 217 190
75.3548 93.8211 459.799 149 217 190
79.1602 94.0193 459.59 169 229 209
79.7039 94.0476 459.56 184 239 225
80.2475 94.0759 459.53 118 169 152
80.2256 93.4455 456.283 74 125 108
101.883 107.035 519.405 193 192 213
102.499 107.067 519.371 168 167 188
117.836 113.429 547.238 19 17 33
116.524 111.585 538.147 25 22 41
125.861 112.952 542.177 142 140 168
135.029 112.549 537.129 156 157 175
141.522 117.44 560.273 160 162 180
141.194 114.645 545.953 169 169 196
139.496 112.781 536.883 171 171 198
142.492 114.713 545.881 174 174 202
143.325 112.981 536.672 159 159 187
148.281 115.925 550.261 166 166 196
146.451 114.024 541.044 167 167 197
149.668 114.191 540.867 174 174 206
147.896 111.501 527.556 175 175 205
150.407 111.632 527.418 173 178 206
157.389 114.593 540.442 169 165 192
157.363 113.712 535.9 176 172 197
159.256 113.375 533.552 177 175 203
160.527 113.442 533.482 178 176 206
160.501 113.009 531.258 185 183 211
161.134 113.042 531.223 179 177 205
160.161 110.75 519.711 179 177 205
164.931 113.24 531.014 171 169 197
166.197 113.306 530.945 169 169 196
166.148 112.875 528.741 168 171 197
169.487 114.343 535.233 169 172 198
169.994 113.503 530.736 172 174 201
170.56 113.105 528.498 174 176 203
171.191 113.138 528.463 173 175 202
173.237 114.103 532.783 174 177 199
173.872 114.136 532.748 175 178 200
174.508 114.169 532.713 178 177 198
179.909 115.766 539.202 179 178 201
177.399 113.037 525.932 180 181 206
-50.7703 91.7941 487.227 163 211 195
-48.8594 92.5938 490.714 150 206 187
-42.4535 90.1868 476.303 135 192 173
-41.9469 91.5634 483.202 132 190 171
-39.4049 91.0158 479.573 131 189 169
-23.5705 91.17 475.264 150 218 195
-20.0935 90.6904 471.684 149 218 197
-17.2746 90.5104 469.852 157 220 199
-16.7252 90.539 469.822 157 220 199
-9.48106 89.9497 464.465 154 216 195
-7.90588 90.6738 467.672 154 219 197
-5.13196 90.1761 464.226 146 216 193
-4.03048 89.9158 462.536 146 216 193
-3.48875 89.944 462.506 145 215 192
-1.85704 89.7136 460.798 150 215 193
-1.31721 89.7417 460.768 150 215 193
-0.77738 89.7698 460.739 148 213 192
1.92178 89.9103 460.59 152 217 197
2.46161 89.9384 460.561 152 217 197
12.3515 91.7286 466.558 149 219 195
17.4547 90.0948 456.533 149 219 195
23.8877 90.4298 456.179 154 221 199
27.0103 90.2835 454.423 153 223 200
27.5445 90.3113 454.393 153 223 200
32.5782 91.1933 457.296 157 225 202
41.5783 91.3509 455.205 162 229 207
43.4888 92.0747 458.303 161 228 206
57.93 93.4597 460.756 145 210 186
76.6839 94.7562 461.365 151 216 194
77.5036 95.121 462.972 151 216 194
77.5009 94.4788 459.679 154 214 194
78.0446 94.5071 459.649 154 214 194
99.7884 107.954 521.62 189 192 214
99.4707 105.135 507.264 164 163 184
102.059 107.255 517.307 161 160 181
148.991 114.802 540.901 137 136 141
149.634 114.836 540.866 145 144 149
150.278 114.869 540.83 148 148 152
149.672 113.952 536.32 154 153 162
159.882 114.483 535.758 162 160 188
162.367 113.742 531.153 171 169 195
159.701 111.073 518.323 174 171 199
169.328 114.104 530.77 167 168 193
172.493 114.269 530.596 169 169 194
-50.2323 92.3921 487.195 156 204 188
-37.7559 91.6634 479.48 131 190 173
-35.0861 92.1432 481.071 133 193 173
-26.7392 90.8981 472.047 149 210 189
-21.7765 91.1565 471.774 152 219 196
-20.6737 91.214 471.713 150 219 198
-20.1222 91.2427 471.683 149 218 197
-16.1469 90.7945 468.123 155 222 200
-13.9569 90.9085 468.003 158 223 201
-9.98272 89.8326 461.243 154 219 199
-7.93447 91.2221 467.672 155 220 199
-5.74448 91.3361 467.551 153 220 197
-3.49251 89.8554 459.279 149 219 195
-2.95456 89.8834 459.249 152 217 195
-1.34071 89.9674 459.161 152 217 195
-0.802765 89.9954 459.131 152 217 195
-0.260275 88.4805 451.233 152 217 195
2.43342 90.4791 460.56 153 220 197
9.65397 92.7931 470.044 150 218 195
16.469 91.2099 459.787 151 221 197
20.7877 91.4348 459.55 152 222 199
23.3236 90.9388 456.208 159 224 202
24.0267 91.6034 459.371 159 224 202
24.8455 90.7072 454.539 160 225 203
25.3797 90.735 454.51 160 225 203
26.004 91.0783 456.06 159 226 203
26.9824 90.8185 454.422 159 226 203
27.5166 90.8463 454.392 159 226 203
27.4798 89.0241 445.113 159 226 203
28.0031 89.0513 445.084 159 226 203
30.8287 91.3295 455.795 159 226 203
31.3648 91.3575 455.765 159 226 203
33.5091 91.4691 455.647 162 229 207
36.8537 91.9562 457.059 163 231 208
37.3916 91.9842 457.029 163 231 208
41.5503 91.8878 455.205 164 232 209
43.4606 92.6153 458.302 162 229 207
46.4852 93.4097 461.383 159 224 202
47.854 90.9857 448.585 155 220 199
51.1904 96.2948 474.586 154 219 197
55.8768 93.2618 457.619 146 212 187
56.4166 93.29 457.589 146 212 187
56.9564 93.3181 457.559 145 210 186
63.3979 97.6146 477.402 148 209 186
62.6926 94.8996 463.785 149 207 183
63.4654 95.2663 465.407 149 207 183
64.0148 95.2949 465.377 147 210 184
64.3351 94.9851 463.695 145 209 183
65.5125 94.4005 460.336 150 208 186
69.8101 95.2702 463.393 150 211 190
70.8606 95.9801 466.676 149 210 187
73.0663 96.095 466.555 154 215 192
74.1691 96.1524 466.494 151 216 192
73.6671 94.8251 459.887 152 217 193
75.2719 96.2098 466.433 151 216 192
75.8233 96.2385 466.403 151 216 192
76.1099 95.2741 461.394 150 215 193
76.3853 94.9666 459.738 151 216 194
77.475 95.6693 462.971 151 216 194
78.0162 95.0515 459.648 154 214 194
79.0896 94.4705 456.341 152 203 186
76.164 90.3861 436.453 117 168 151
80.1692 94.5267 456.282 78 120 103
81.2489 94.583 456.223 0 8 2
98.5911 111.933 539.129 18 26 21
97.2856 108.443 521.755 122 133 136
99.1385 108.54 521.653 162 168 184
99.3583 108.139 519.539 171 178 194
99.9735 108.171 519.505 162 168 184
100.189 107.773 517.407 164 170 189
170.428 113.935 526.311 139 140 167
169.31 110.564 509.481 165 168 190
-50.262 92.9606 487.194 161 207 192
-46.6843 92.7964 485.221 138 196 176
-46.1187 92.8259 485.19 137 195 175
-43.6962 92.6041 483.293 135 192 173
-43.6107 93.66 488.617 133 191 172
-42.0057 92.6921 483.2 132 190 171
-41.9015 93.749 488.523 132 190 171
-36.1069 92.3111 479.387 131 190 173
-33.4311 92.7932 480.978 138 198 178
-26.7913 93.4843 482.363 153 211 192
-24.7392 92.2246 475.324 154 214 194
-20.151 91.7949 471.682 150 219 198
-17.818 91.2573 468.213 155 220 199
-17.394 91.9385 471.531 157 222 200
-13.9855 91.4568 468.002 158 223 201
-13.438 91.4853 467.972 158 223 201
-10.0109 90.3732 461.242 155 220 201
-9.25517 93.7092 477.91 156 226 202
-6.27602 91.2084 464.284 156 224 201
-5.18874 91.265 464.224 154 221 199
-2.45326 90.7667 460.826 152 222 199
-1.36881 90.5062 459.16 150 219 198
-0.830858 90.5342 459.13 150 219 198
-0.287888 89.01 451.232 151 220 199
2.40523 91.0197 460.559 156 224 201
7.13879 89.7029 452.375 154 220 193
8.73043 89.7858 452.288 152 219 196
11.664 92.1425 463.297 150 220 196
16.8627 91.1407 456.561 156 224 201
23.9985 92.1441 459.371 161 226 204
24.3678 91.5315 456.148 161 226 204
24.9038 91.5594 456.118 162 227 206
25.4399 91.5873 456.089 162 227 206
27.4524 89.5482 445.112 163 231 208
27.9758 89.5754 445.083 162 229 207
32.096 92.5657 458.925 163 231 208
33.4811 92.006 455.647 165 233 210
36.1615 92.1456 455.499 168 233 213
36.9545 92.8187 458.658 167 232 210
56.3884 93.8306 457.588 152 210 190
74.1615 96.0466 463.151 151 216 192
77.4441 95.5677 459.677 153 213 193
79.6012 95.0393 456.311 91 144 126
98.4886 109.126 521.686 126 132 148
99.7239 109.191 521.618 170 176 193
100.342 109.223 521.584 171 178 194
100.157 108.387 517.406 150 156 175
101.995 108.483 517.305 128 135 151
148.924 116.091 540.899 18 18 16
158.539 115.695 535.827 13 12 19
-50.8592 93.4996 487.224 151 197 181
-49.5208 94.2822 490.743 108 166 146
-48.949 94.312 490.711 137 195 175
-45.9796 93.0511 483.416 137 195 175
-27.8996 91.9452 472.106 149 206 187
-26.6261 93.3665 478.863 152 210 190
-25.3236 92.7519 475.353 154 214 194
-24.7682 92.7809 475.323 154 214 194
-22.9369 92.2036 471.833 154 216 195
-13.4666 92.0337 467.971 157 225 200
-10.6912 91.8502 466.166 157 225 202
-7.99166 92.3187 467.67 157 226 205
-5.80167 92.4328 467.549 159 226 203
-2.49895 91.951 464.074 155 224 201
0.762878 92.1209 463.895 155 222 200
5.07619 91.7009 460.41 159 226 203
5.61603 91.729 460.38 159 226 203
8.61383 89.3946 447.667 156 224 201
11.092 92.6587 463.326 156 224 201
16.9525 92.3193 459.756 159 226 203
23.9703 92.6847 459.37 162 231 210
24.8758 92.0963 456.118 164 234 210
27.366 91.5991 452.823 165 235 211
29.7856 94.2858 465.591 164 234 210
29.9085 92.9939 459.043 163 233 209
31.2004 92.1111 454.185 165 235 211
31.7346 92.1389 454.156 165 235 211
34.2869 91.9595 452.442 169 236 214
34.8193 91.9872 452.412 169 236 214
35.3517 92.0149 452.383 171 235 216
36.1335 92.6824 455.498 172 236 217
37.2057 92.7383 455.439 171 236 214
40.7051 93.5561 458.449 164 234 210
41.2449 93.5842 458.419 164 234 210
41.7848 93.6123 458.39 162 231 210
43.7102 94.3571 461.531 161 228 206
66.1552 96.5099 465.254 148 209 184
66.7047 96.5385 465.224 148 209 184
69.2054 96.3384 463.422 148 211 185
68.7764 95.0177 456.904 148 211 185
70.3004 96.3954 463.362 149 213 184
70.8479 96.4239 463.331 149 213 184
71.3954 96.4524 463.301 150 214 185
70.9357 95.1302 456.785 151 215 187
74.0679 98.6096 473.322 151 215 189
73.5601 97.2282 466.523 151 215 189
74.1115 97.2569 466.493 151 215 189
74.6629 97.2856 466.462 152 216 190
76.3055 98.7261 473.199 154 217 189
76.8686 97.4004 466.341 150 219 191
77.4178 96.766 462.97 151 215 189
79.0332 95.5518 456.34 111 164 146
97.221 109.681 521.753 138 150 157
97.8387 109.713 521.719 141 154 161
99.8739 110.663 525.863 135 144 159
99.6917 109.809 521.617 129 133 149
101.14 109.467 519.435 158 162 179
101.755 109.499 519.401 148 148 164
-50.8889 94.068 487.224 141 184 169
-50.3213 94.0976 487.192 164 207 193
-49.5507 94.8549 490.742 117 170 152
-46.9154 94.2749 487.005 138 195 178
-45.0466 94.0176 485.126 131 196 176
-44.4811 94.0471 485.095 131 196 176
-43.1916 93.7621 483.26 132 190 173
-26.8962 90.9013 463.785 147 209 188
-26.3545 90.9295 463.755 147 209 188
-25.3526 93.3082 475.353 148 215 193
-20.2086 92.8994 471.681 156 218 197
-15.6852 92.4679 468.091 153 223 200
-15.2459 93.1578 471.408 156 224 197
-14.0427 92.5535 468.001 157 225 200
-8.59827 93.1693 469.365 159 226 203
-8.04882 93.1979 469.335 159 226 203
-2.52734 92.4955 464.073 157 225 202
-1.43501 92.227 462.384 157 225 202
-0.893276 92.2552 462.354 159 226 203
7.77437 92.7066 461.877 159 226 201
8.3161 92.7348 461.847 159 226 201
9.63648 95.13 473.427 159 226 203
17.4641 92.8881 459.726 159 229 206
19.493 94.9667 469.496 159 229 206
22.8625 93.1691 459.429 163 233 209
25.92 92.689 456.058 166 236 213
26.4561 92.7169 456.029 164 234 210
29.7761 93.2083 457.441 165 235 211
30.314 93.2363 457.412 165 235 211
31.2808 92.9681 455.763 167 237 214
40.9637 94.76 461.68 164 234 210
65.2601 97.3497 466.977 149 210 185
66.4393 96.7441 463.572 148 209 184
69.1768 96.8867 463.421 149 212 186
68.7482 95.5584 456.904 149 212 186
