ply
format ascii 1.0
comment Kinect v1 generated
element vertex 1272
property double x
property double y
property double z
property uchar red
property uchar green
property uchar blue
end_header
-2.68178 -0.256973 8.73444 225 231 222
-2.68823 -0.231304 8.64322 172 172 164
-2.66926 -0.19211 8.73638 174 173 164
-2.68256 -0.171427 8.55462 159 160 153
-2.6586 -0.113627 8.55656 166 163 154
-2.65854 -0.107771 8.5567 190 187 178
-2.6479 0.00784312 8.38368 167 156 150
-2.64785 0.013485 8.38382 174 162 156
-2.63093 0.103634 8.30028 182 168 161
-2.64224 0.114945 8.30045 181 167 160
-2.63061 0.137533 8.30098 167 149 141
-2.63051 0.148832 8.30119 180 162 155
-2.63041 0.160131 8.30141 169 153 147
-2.61375 0.248323 8.21914 167 152 156
-2.62058 0.257219 8.13642 163 149 154
-2.61354 0.270733 8.21953 158 144 150
-2.60852 0.346128 8.13812 169 159 171
-2.60839 0.357243 8.13844 157 147 159
-2.58783 0.47139 7.97881 172 159 170
-2.58784 0.476875 7.97836 173 159 168
-2.58794 0.476759 7.97804 171 158 170
-2.58774 0.482315 7.97894 172 158 168
-2.58762 0.493248 7.97923 173 157 166
-2.58233 0.619162 7.90279 222 190 201
-2.57118 0.640943 7.90289 167 128 133
-2.56268 0.726345 7.75013 187 141 135
-2.55531 0.754017 7.82694 205 155 148
-2.55031 0.87583 7.75275 226 168 151
-2.54549 0.985085 7.67934 215 170 143
-2.54537 0.995674 7.6796 224 181 154
-2.53425 1.04342 7.67921 210 182 151
-2.53384 1.06995 7.68065 190 167 136
-2.54107 1.0611 7.60653 208 185 154
-2.54095 1.07161 7.60678 206 185 152
-2.53361 1.09112 7.68103 201 183 149
-2.53364 1.09635 7.68025 206 189 154
-2.54082 1.08211 7.607 210 193 158
-2.54085 1.0873 7.60624 216 198 164
-2.54088 1.08727 7.60676 204 189 152
-2.54071 1.09261 7.60719 209 194 158
-2.54023 1.1346 7.60795 192 187 146
-2.53973 1.1766 7.60882 221 224 183
-2.5217 1.19719 7.68262 217 221 179
-2.52903 1.1873 7.6085 232 235 194
-2.5289 1.1978 7.60869 226 230 188
-2.52827 1.25032 7.60982 229 235 193
-2.52816 1.2608 7.60989 230 237 194
-2.52801 1.27133 7.61025 232 242 202
-2.52726 1.33432 7.61142 221 231 203
-2.52687 1.36583 7.61207 210 216 185
-2.52675 1.37633 7.61226 221 226 195
-2.5385 1.57245 7.69114 169 168 161
-2.8521 -4.35447 9.96082 94 126 165
-2.85219 -4.34181 9.96137 93 125 164
-2.85255 -4.27863 9.96477 97 129 174
-2.8527 -4.25323 9.96595 103 135 181
-2.85289 -4.21521 9.96806 92 127 175
-2.85303 -4.1897 9.96915 84 120 170
-2.85309 -4.177 9.96988 79 115 165
-2.85316 -4.16422 9.97038 84 121 172
-2.85323 -4.15144 9.97095 94 130 182
-2.85327 -4.13874 9.97171 98 133 188
-2.85338 -4.11323 9.97303 97 131 185
-2.85345 -4.10039 9.97349 94 129 183
-2.85362 -4.06201 9.97534 95 132 185
-2.85366 -4.04921 9.97598 103 141 195
-2.85388 -3.99783 9.97822 95 135 199
-2.85399 -3.97206 9.97923 91 132 197
-2.85407 -3.94634 9.98043 92 135 203
-2.85415 -3.92058 9.98162 87 131 198
-2.8542 -3.90769 9.9822 99 144 212
-2.85437 -3.85597 9.98426 76 116 192
-2.8544 -3.84305 9.98481 92 131 206
-3.62975 -0.744753 1.89797 79 94 135
-3.62791 -0.734598 1.86979 93 108 150
-3.60684 -0.775136 2.03099 91 104 139
-3.53266 -0.924312 2.65244 85 88 109
-2.84923 -3.54738 10.1146 116 132 184
-2.84925 -3.53413 10.115 107 121 172
-2.84926 -3.52091 10.1155 111 124 175
-2.84927 -3.50769 10.116 113 125 176
-3.05228 -1.89349 6.31748 54 94 89
-2.62973 -2.11613 8.17309 195 197 184
-2.62978 -2.12735 8.17278 186 187 173
-2.62981 -2.13861 8.17263 166 167 151
-2.62306 -2.21989 8.25607 200 217 196
-2.62413 -2.18992 8.25039 196 203 185
-2.62306 -2.20274 8.25555 201 207 187
-2.62314 -2.19135 8.25604 194 196 179
-2.63396 -2.05471 8.25848 194 190 181
-2.6342 -2.04861 8.25638 206 203 194
-2.66408 -1.97351 8.6109 207 185 182
-2.66403 -1.96177 8.61115 200 179 173
-2.68221 -1.87369 8.52233 186 166 159
-2.66373 -1.89129 8.61247 185 166 157
-2.68215 -1.86206 8.5226 182 163 157
-2.67027 -1.82774 8.5236 223 206 208
-2.67021 -1.82199 8.52439 217 202 206
-2.67511 -1.79676 8.61406 213 202 208
-2.6564 -1.81381 8.70592 193 183 188
-2.68177 -1.78061 8.52422 203 193 198
-2.66329 -1.79734 8.61436 184 173 179
-2.66999 -1.76955 8.5248 193 184 191
-2.66304 -1.7563 8.6159 189 181 192
-2.663 -1.73862 8.61556 200 193 205
-2.66293 -1.72688 8.61582 196 189 203
-2.60872 -1.69996 8.87391 156 153 164
-2.68119 -1.66425 8.52653 202 201 220
-2.67446 -1.66762 8.61668 212 212 223
-2.59799 -1.71359 8.99143 127 125 135
-2.68886 -1.60745 8.42833 120 122 138
-2.67433 -1.64414 8.61718 164 166 181
-2.69457 -1.58837 8.3471 114 115 131
-2.68095 -1.61771 8.52741 119 121 137
-2.62455 -1.65197 8.80272 71 73 82
-2.60498 -1.66795 8.8982 92 93 101
-2.68085 -1.60027 8.5282 56 59 75
-2.68104 -1.59418 8.52707 59 63 78
-2.64045 -1.50143 8.44215 154 155 178
-2.64038 -1.48989 8.44239 162 163 186
-2.63333 -1.49165 8.53108 123 125 149
-2.65188 -1.46633 8.44259 127 131 154
-2.63326 -1.48001 8.53131 122 126 149
-2.67836 -1.41008 8.10264 105 109 131
-2.66064 -1.42276 8.18509 100 104 126
-2.63083 -1.40793 8.27134 138 142 161
-2.61653 -1.38686 8.44468 112 109 126
-2.63056 -1.36254 8.27221 134 133 151
-2.62808 -1.36908 8.445 100 96 111
-2.60924 -1.38184 8.53372 122 118 134
-2.63023 -1.30581 8.27325 206 200 218
-2.62285 -1.2487 8.36009 134 125 141
-2.60115 -1.26502 8.62609 138 131 146
-2.62271 -1.22582 8.36055 132 125 136
-2.62263 -1.21438 8.3608 154 145 154
-2.6296 -1.20374 8.27525 148 139 149
-2.63388 -1.16824 8.36148 144 123 132
-2.61988 -1.04992 8.11108 246 217 217
-2.61998 -1.04427 8.1101 238 209 207
-2.63288 -1.01961 8.36445 154 125 124
-2.87723 -1.35925 10.2839 125 134 170
-2.87705 -1.33208 10.2845 132 140 179
-2.87696 -1.31849 10.2848 113 121 160
-2.67622 -0.861932 8.54203 148 147 142
-2.67444 -0.853704 8.72381 98 100 96
-2.67451 -0.847677 8.7233 84 86 82
-2.6556 -0.855785 8.8171 104 107 103
-2.88854 -1.00549 10.2889 130 146 164
-2.88845 -0.991904 10.2891 133 150 168
-2.88835 -0.978328 10.2894 132 150 168
-2.88814 -0.951182 10.29 102 122 140
-2.88062 -0.700612 10.4187 128 183 188
-2.66994 -0.268898 8.73464 171 175 166
-2.66983 -0.257094 8.73495 211 215 206
-2.67641 -0.231414 8.64356 156 155 146
-2.6763 -0.219719 8.64392 146 143 133
-2.67621 -0.20802 8.64408 182 178 168
-2.66556 -0.135653 8.46746 192 190 184
-2.6655 -0.12985 8.46763 177 175 168
-2.65374 -0.112741 8.46815 179 176 167
-2.65365 -0.101245 8.46835 182 177 171
-2.64155 -0.0495162 8.46966 138 126 117
-2.62967 -0.0208758 8.47046 177 166 156
-2.63663 -0.0207487 8.38329 178 167 157
-2.63654 -0.00935016 8.38348 180 169 161
-2.66111 0.0243307 8.21428 127 113 106
-2.64307 0.0245678 8.29852 144 129 121
-2.62471 0.0248091 8.38426 161 146 138
-2.66762 0.0240629 8.1316 137 123 115
-2.6498 0.0242954 8.21433 154 138 129
-2.63164 0.0245325 8.29868 171 155 146
-2.63172 0.0414217 8.29752 189 170 162
-2.63144 0.0471338 8.29914 187 168 161
-2.63134 0.058434 8.29934 165 148 142
-2.6313 0.0641373 8.29932 169 152 147
-2.6315 0.0640196 8.29809 151 134 128
-2.63123 0.0697347 8.29965 155 138 133
-2.63797 0.0802686 8.21558 157 143 139
-2.6192 0.137527 8.30101 166 148 141
-2.62583 0.169877 8.21741 180 166 164
-2.62579 0.175527 8.2173 179 165 165
-2.62596 0.175403 8.21636 179 165 163
-2.62571 0.181081 8.2177 178 164 164
-2.62529 0.225894 8.21862 223 209 216
-2.60947 0.246132 8.13615 186 172 175
-2.60904 0.290577 8.13707 155 141 150
-2.5976 0.312835 8.13743 167 154 167
-2.60419 0.35416 8.05684 146 136 149
-2.57848 0.382949 8.22164 152 142 153
-2.58573 0.379568 8.13865 152 141 154
-2.59285 0.376245 8.05711 154 143 156
-2.5767 0.498689 7.97821 177 163 173
-2.57647 0.504254 7.97923 185 170 179
-2.54644 0.900417 7.67767 229 168 152
-2.54631 0.911003 7.6779 243 185 168
-2.53488 0.990454 7.67859 207 162 135
-2.53029 1.08745 7.60625 199 182 147
-2.53013 1.09278 7.60662 205 189 154
-2.53006 1.10845 7.60659 218 209 170
-2.52989 1.11379 7.60704 217 208 169
-2.52977 1.12429 7.60724 209 202 163
-2.52964 1.13479 7.60746 237 233 193
-2.52928 1.16629 7.60807 186 188 147
-2.53512 1.27131 7.5374 237 248 210
-2.53307 1.43796 7.54071 191 193 175
-2.53241 1.49004 7.54178 153 152 138
-2.52505 1.51283 7.61493 162 161 148
-2.52769 1.57806 7.6907 137 134 126
-2.53796 1.60951 7.69179 166 162 160
-2.83884 -4.34399 9.96362 99 129 170
-2.8392 -4.28073 9.96692 84 117 161
-2.83934 -4.25536 9.9682 96 129 176
-3.74858 -0.52479 0.987335 77 89 131
-2.83517 -3.85838 10.1052 116 152 225
-2.83519 -3.85161 10.1045 115 151 225
-2.85506 -3.4456 9.99942 123 132 182
-2.85505 -3.43254 10 124 133 182
-2.85515 -3.4259 10.0003 129 138 188
-2.85508 -3.40628 10.0009 148 157 203
-2.85517 -3.38652 10.0016 152 161 204
-2.8552 -3.36018 10.0022 142 149 189
-2.84937 -3.15532 10.1273 121 144 167
-2.84906 -3.01534 10.1322 121 162 177
-2.84905 -3.00194 10.1325 119 162 178
-2.84902 -2.98859 10.1329 114 159 176
-2.849 -2.97518 10.1332 125 169 185
-2.61633 -2.3137 8.33893 160 186 179
-2.6347 -2.27006 8.25407 121 145 134
-2.61619 -2.28529 8.34044 138 162 150
-2.62322 -2.24806 8.25453 149 174 157
-2.62318 -2.23673 8.25479 176 199 179
-2.61173 -2.19197 8.25595 176 179 161
-2.61157 -2.18071 8.25603 162 161 145
-2.61161 -2.19204 8.25577 179 182 163
-2.65127 -1.7627 8.6155 189 181 191
-2.64058 -1.52452 8.44168 142 143 161
-2.60979 -1.48093 8.53165 96 99 122
-2.61699 -1.46771 8.44311 108 112 136
-2.63577 -1.44835 8.35438 114 117 141
-2.63553 -1.44283 8.35625 108 111 134
-2.61915 -1.36294 8.27219 141 139 158
-2.63052 -1.25997 8.2698 146 135 154
-2.63008 -1.25465 8.27289 141 129 148
-2.63923 -1.26469 8.44523 143 132 153
-2.666 -1.22115 8.10656 141 130 147
-2.62924 -1.14704 8.27637 211 189 196
-2.62909 -1.12436 8.27679 226 199 204
-2.62903 -1.11302 8.27695 204 177 180
-2.59166 -1.11616 8.44974 134 106 108
-2.62003 -1.07221 8.11065 156 126 128
-2.55705 -1.10538 8.7194 120 92 85
-2.56486 -1.09535 8.62752 128 100 94
-2.55697 -1.09352 8.71964 129 100 95
-2.56479 -1.08359 8.62769 139 109 104
-2.57249 -1.07383 8.53733 151 120 119
-2.6285 -1.03366 8.27849 177 149 145
-2.86348 -1.35992 10.2862 86 93 121
-2.87659 -1.26413 10.2859 139 143 185
-2.8765 -1.25054 10.2862 120 122 163
-2.87632 -1.22336 10.2867 116 120 155
-2.87623 -1.20977 10.287 113 119 152
-2.87604 -1.1826 10.2876 108 114 139
-2.87577 -1.14182 10.2883 142 143 169
-2.87566 -1.12825 10.2887 153 154 180
-2.87557 -1.11466 10.2889 151 155 181
-2.87538 -1.08749 10.2895 139 146 172
-2.87518 -1.06032 10.2901 130 137 163
-2.87508 -1.04673 10.2903 120 131 155
-2.88599 -0.666179 10.2957 102 155 154
-2.67579 -0.354596 8.82593 133 140 129
-2.69442 -0.339444 8.73217 123 131 118
-2.6757 -0.342681 8.82612 141 149 136
-2.65782 -0.251253 8.73562 146 146 138
-2.66415 -0.184726 8.6451 138 135 127
-2.64206 -0.107009 8.4685 196 192 183
-2.63638 0.00780275 8.3838 154 142 135
-2.62519 0.237095 8.2188 146 131 136
-2.60706 0.233531 8.3019 185 170 175
-2.60682 0.239265 8.30312 141 126 131
-2.63201 0.234985 8.13604 146 131 136
-2.61411 0.231432 8.2176 185 170 175
-2.61387 0.237115 8.21882 141 126 131
-2.5768 0.471458 7.97855 172 159 171
-2.57229 0.532525 7.90069 172 151 161
-2.57161 0.59758 7.90208 197 166 180
-2.57172 0.602899 7.9014 195 163 177
-2.5714 0.619259 7.90245 188 152 163
-2.54907 0.662841 7.90267 194 153 155
-2.55634 0.657211 7.82496 181 141 142
-2.5561 0.678729 7.82548 198 155 159
-2.54134 0.701382 7.98232 223 178 182
-2.54873 0.695381 7.90332 213 167 172
-2.54861 0.70623 7.90356 195 147 153
-2.55587 0.700243 7.82594 182 135 140
-2.55136 0.779804 7.75079 219 166 158
-2.55123 0.790478 7.75106 196 144 135
-2.55112 0.801144 7.75124 209 155 145
-2.54002 0.833284 7.75142 220 162 149
-2.53978 0.85463 7.75188 210 153 137
-2.5471 0.852692 7.67616 206 147 133
-2.53966 0.865304 7.75211 217 159 143
-2.53955 0.875973 7.7523 208 150 133
-2.54677 0.868678 7.67715 207 149 133
-2.52355 1.03835 7.67944 217 186 159
-2.52357 1.0436 7.67879 222 194 165
-2.53048 1.06128 7.60605 200 177 146
-2.53037 1.07178 7.60622 199 178 146
-2.51152 1.15503 7.68129 217 215 175
-2.51869 1.16649 7.60752 214 215 174
-2.51856 1.177 7.60777 230 233 192
-2.51844 1.1875 7.60795 217 220 179
-2.51794 1.22952 7.60882 218 222 177
-2.51745 1.27153 7.6096 234 242 203
-2.52449 1.28195 7.53709 226 237 202
-2.52437 1.29236 7.53725 203 215 183
-2.52424 1.30278 7.5375 222 233 203
-2.52411 1.3132 7.5377 232 237 212
-2.52347 1.36529 7.53874 206 209 179
-2.52351 1.37043 7.53866 200 202 172
-2.52296 1.40696 7.53956 206 209 186
-2.49931 1.54917 7.76427 151 149 138
-2.49937 1.55434 7.76317 152 149 138
-2.52796 1.5569 7.69031 180 179 166
-2.50981 1.57023 7.76516 161 160 147
-2.52755 1.58866 7.69096 166 162 157
-2.52743 1.59922 7.69105 143 138 134
-2.84096 -3.85787 9.98646 93 131 207
-2.8411 -3.79943 9.98814 113 149 222
-2.84129 -3.72812 9.99158 97 128 195
-2.84139 -3.68905 9.99298 93 118 184
-2.8357 -3.50937 10.1182 109 119 169
-2.83574 -3.35021 10.1238 148 155 195
-2.83573 -3.33692 10.1242 148 157 195
-2.83573 -3.32363 10.1247 138 147 184
-2.83572 -3.31036 10.1253 142 151 186
-2.83571 -3.28374 10.1261 135 143 177
-2.8357 -3.27044 10.1266 134 143 175
-2.83571 -3.25706 10.1268 134 145 176
-2.83569 -3.24378 10.1274 130 143 172
-2.83566 -3.2038 10.1287 149 165 193
-2.83566 -3.19043 10.129 133 149 178
-2.83564 -3.17711 10.1295 120 139 164
-2.83578 -3.15683 10.1295 129 153 175
-2.83558 -3.09696 10.1318 160 194 216
-2.62338 -2.30472 8.25342 40 68 62
-2.61176 -2.23738 8.25481 192 214 194
-2.62674 -2.15989 8.11404 189 199 183
-2.6334 -2.14153 8.03335 181 192 175
-2.62207 -2.16167 8.14651 196 203 184
-2.60011 -2.16998 8.25619 166 167 150
-2.61936 -2.17167 8.16595 180 186 166
-2.55659 -1.74273 8.89808 93 87 92
-2.61565 -1.50906 8.18516 137 137 151
-2.62895 -1.52499 8.44184 158 158 175
-2.60102 -1.4556 8.35624 108 113 129
-2.61522 -1.43026 8.18662 124 127 148
-2.61977 -1.43652 8.26915 108 114 131
-2.60095 -1.44415 8.35645 109 116 131
-2.62657 -1.40154 8.18564 125 130 150
-2.62635 -1.3961 8.18733 127 131 150
-2.62636 -1.36781 8.18638 137 138 159
-2.60779 -1.37471 8.27202 137 135 156
-2.60745 -1.31795 8.27312 174 170 188
-2.60014 -1.30673 8.35916 144 138 156
-2.60732 -1.29524 8.27349 150 144 163
-2.61174 -1.28901 8.35793 148 140 158
-2.61154 -1.28343 8.35949 152 143 162
-2.61867 -1.25502 8.27289 154 143 160
-2.61839 -1.23814 8.27463 158 148 161
-2.62532 -1.19915 8.18982 150 141 151
-2.60676 -1.20447 8.27529 150 137 147
-2.63214 -1.18882 8.10729 163 154 164
-2.6138 -1.194 8.19123 163 150 160
-2.61782 -1.14738 8.27636 221 198 205
-2.6088 -1.07253 8.1106 171 142 143
-2.59044 -1.08217 8.1932 177 148 150
-2.5904 -1.05397 8.19257 236 210 210
-2.59007 -1.02593 8.19429 175 136 136
-2.59017 -1.02024 8.19329 180 139 141
-2.5972 -1.01709 8.11162 186 146 148
-2.61708 -1.03398 8.2785 159 129 125
-2.6705 -1.01041 8.6293 88 70 73
-2.65171 -1.02 8.72149 100 79 83
-2.6773 -0.99547 8.53822 99 80 83
-2.65875 -1.00483 8.62866 111 89 93
-3.05845 -0.785172 6.39554 118 101 108
-2.63674 -0.895724 8.45269 141 126 119
-2.86285 -1.26473 10.2881 118 121 157
-2.86256 -1.22396 10.289 81 85 117
-3.03733 -0.761923 6.77886 64 60 70
-2.86229 -1.18317 10.2898 92 98 121
-2.8622 -1.16957 10.29 103 107 130
-2.86201 -1.14238 10.2906 145 148 171
-2.86191 -1.1288 10.2909 152 156 179
-2.86162 -1.08802 10.2917 143 152 175
-2.87459 -0.978823 10.2918 133 151 169
-2.87439 -0.95166 10.2923 105 125 142
-2.87419 -0.924498 10.2929 132 155 171
-2.8741 -0.910905 10.293 135 159 175
-2.8739 -0.883746 10.2936 133 162 176
-2.87368 -0.8566 10.2943 124 159 172
-2.87358 -0.843018 10.2945 124 161 175
-2.87349 -0.82943 10.2947 128 169 184
-2.87329 -0.802272 10.2952 150 196 211
-2.87298 -0.761544 10.296 134 186 197
-2.86638 -0.65983 10.4221 76 128 125
-2.66342 -0.319002 8.82729 130 134 122
-2.67033 -0.316126 8.73375 143 148 134
-2.6771 -0.313303 8.64193 152 156 143
-2.64415 -0.310035 8.92312 143 147 135
-2.65129 -0.307217 8.82788 158 163 150
-2.6583 -0.30445 8.73433 156 160 147
-2.64396 -0.291936 8.9238 137 141 130
-2.65811 -0.286685 8.73501 148 152 140
-2.65799 -0.269022 8.73507 130 133 124
-2.66487 -0.26663 8.6433 137 138 130
-2.65284 -0.24334 8.64408 144 140 133
-2.64566 -0.227748 8.73656 142 137 127
-2.65266 -0.22573 8.64467 144 138 128
-2.65237 -0.190616 8.64532 154 150 140
-2.65233 -0.184821 8.64537 156 153 143
-2.65921 -0.183209 8.55512 158 154 143
-2.63049 -0.112889 8.46857 206 202 191
-2.63042 -0.107083 8.46882 201 195 185
-2.6307 -0.107175 8.46695 198 193 184
-2.63038 -0.101387 8.46887 192 186 178
-2.63009 -0.0668807 8.46948 125 114 104
-2.61157 -0.0733368 8.55663 137 126 116
-2.60777 0.137521 8.30104 184 166 160
-2.57026 0.409419 8.05742 169 158 172
-2.5494 0.630302 7.90203 200 164 171
-2.54929 0.64115 7.90227 193 156 159
-2.55654 0.635706 7.82462 175 139 142
-2.54549 0.657313 7.82458 177 137 139
-2.53778 0.695495 7.90298 197 153 157
-2.54526 0.684213 7.82459 192 147 152
-2.54514 0.689589 7.82525 190 146 149
-2.55238 0.683784 7.74885 188 144 147
-2.54069 0.785161 7.74982 223 169 158
-2.54048 0.790602 7.75059 215 162 152
-2.54759 0.794587 7.67559 199 142 133
-2.54767 0.79978 7.67511 204 147 137
-2.54024 0.811946 7.75104 197 139 129
-2.52206 0.818961 7.82703 212 154 143
-2.54755 0.810365 7.67535 201 143 133
-2.52957 0.817309 7.75007 217 158 147
-2.53646 0.837051 7.67595 200 141 130
-2.53635 0.847635 7.67614 221 162 149
-2.53611 0.868809 7.67659 217 158 143
-2.53599 0.879396 7.67682 212 152 137
-2.53588 0.88998 7.67701 221 161 145
-2.53553 0.921738 7.67765 236 182 162
-2.53518 0.953493 7.67826 238 191 167
-2.52426 0.974827 7.67821 213 165 138
-2.53109 1.00877 7.60497 218 182 153
-2.53098 1.01927 7.60514 204 170 142
-2.51264 1.0597 7.67932 212 187 157
-2.51992 1.06144 7.60542 205 182 153
-2.51967 1.08246 7.60587 209 191 157
-2.51948 1.10863 7.60605 223 212 174
-2.51931 1.11396 7.60646 227 218 179
-2.50698 1.26123 7.60883 231 240 197
-2.50686 1.27173 7.60901 235 244 204
-2.50673 1.28225 7.60926 237 248 210
-2.50597 1.34528 7.61047 231 239 210
-2.50584 1.35578 7.6107 232 239 209
-2.51298 1.36551 7.5381 179 182 151
-2.51302 1.37065 7.538 189 191 161
-2.51897 1.45777 7.46837 214 212 196
-2.50119 1.46995 7.53954 215 212 196
-2.5008 1.5012 7.54012 171 169 157
-2.51709 1.58346 7.68902 151 147 138
-2.82563 -4.32084 9.96711 94 126 167
-2.82585 -4.28281 9.96899 84 117 161
-2.82606 -4.24468 9.97083 105 138 186
-2.82613 -4.23194 9.97138 104 138 187
-2.82625 -4.20651 9.97272 94 130 178
-2.82639 -4.18098 9.97385 87 122 171
-2.82643 -4.16829 9.97465 87 122 171
-2.8266 -4.12996 9.97647 100 135 188
-2.82672 -4.10433 9.97758 97 133 187
-2.82677 -4.09154 9.97822 101 137 191
-2.82688 -4.06589 9.97937 90 128 183
-2.82696 -4.04027 9.9807 97 135 193
-2.82706 -4.01455 9.9818 97 137 199
-2.82716 -3.98879 9.98287 87 127 192
-2.82718 -3.976 9.9837 91 131 197
-2.82197 -3.68944 10.114 104 132 193
-2.60482 -2.31437 8.33891 169 196 189
-2.6119 -2.28272 8.25388 200 225 218
-2.61187 -2.27139 8.2541 118 144 134
-2.61179 -2.26588 8.25513 140 164 153
-2.60023 -2.22117 8.25601 212 229 208
-2.60027 -2.21535 8.25527 222 236 216
-2.61075 -2.16233 8.14665 199 208 189
-2.60871 -2.16557 8.16105 183 189 170
-2.61099 -2.02187 8.25922 169 160 154
-2.61799 -2.00427 8.17537 165 156 148
-2.59952 -2.0111 8.25943 165 157 149
-2.62876 -2.02243 8.61093 174 158 150
-2.63331 -1.99289 8.70311 198 176 172
-2.64042 -1.97477 8.61147 201 179 174
-2.65209 -1.93891 8.61196 207 185 177
-2.65204 -1.92716 8.61215 182 161 152
-2.64709 -1.88713 8.52295 196 177 168
-2.63289 -1.89801 8.70499 195 177 170
-2.63998 -1.88079 8.6135 186 169 161
-2.56179 -1.86182 8.98993 170 160 162
-2.65144 -1.79795 8.61484 196 185 192
-2.69112 -1.69919 8.09663 143 133 137
-2.6973 -1.6847 8.0158 156 146 149
-2.71681 -1.62438 7.76905 148 138 142
-2.6667 -1.71279 8.26513 148 139 145
-2.67322 -1.6979 8.18125 137 128 132
-2.55286 -1.82473 9.09299 140 132 134
-2.56102 -1.80749 8.99403 126 118 121
-2.63931 -1.73976 8.6163 205 197 207
-2.69346 -1.59551 8.07742 165 156 165
-2.60144 -1.66514 8.51055 105 96 96
-2.69784 -1.59515 8.00998 149 140 149
-2.60712 -1.66376 8.43394 89 81 81
-2.65097 -1.70395 8.61667 222 215 230
-2.60073 -1.71295 8.80227 124 121 128
-2.5807 -1.73586 8.89902 129 125 131
-2.56054 -1.7589 8.99581 136 130 135
-2.55996 -1.61615 8.71094 139 136 147
-2.56776 -1.60143 8.61903 143 140 151
-2.59725 -1.53411 8.26895 156 156 171
-2.64984 -1.51312 8.18332 86 86 95
-2.65023 -1.50704 8.18024 105 105 116
-2.66966 -1.46879 7.93748 108 108 121
-2.61577 -1.49195 8.18378 121 121 134
-2.61554 -1.48653 8.18552 128 129 142
-2.5973 -1.5055 8.26784 126 127 140
-2.59707 -1.50003 8.26957 140 142 155
-2.63615 -1.517 8.35305 125 125 141
-2.64299 -1.5037 8.26767 111 110 125
-2.61726 -1.51391 8.44219 147 147 166
-2.62434 -1.5005 8.35515 146 147 163
-2.59817 -1.49885 8.53163 119 121 146
-2.55915 -1.51543 8.71422 109 114 138
-2.56696 -1.50163 8.62226 121 125 147
-2.59668 -1.4319 8.27095 115 120 138
-2.60805 -1.42011 8.27111 139 143 160
-2.61502 -1.39651 8.18731 116 120 139
-2.61504 -1.36821 8.18634 140 140 161
-2.60002 -1.28381 8.35947 164 154 172
-2.59995 -1.27235 8.35965 165 154 172
-2.60712 -1.2612 8.27415 182 171 190
-2.60697 -1.23851 8.27466 186 174 187
-2.6069 -1.22716 8.27487 180 168 180
-2.60667 -1.16464 8.27474 213 193 202
-2.63673 -0.913062 8.45347 124 107 101
-2.64363 -0.905007 8.36644 117 99 93
-2.64372 -0.89925 8.36548 129 110 104
-2.63416 -0.876455 8.63189 100 96 86
-2.63399 -0.870626 8.63307 97 94 84
-2.66467 -0.867994 8.5411 148 146 140
-2.66449 -0.862233 8.5424 158 156 150
-2.64601 -0.876149 8.63152 139 137 131
-2.64583 -0.870329 8.63278 146 144 137
-2.62689 -0.872546 8.72436 130 128 120
-2.64574 -0.858603 8.63303 98 95 89
-2.86104 -1.00648 10.2934 128 143 163
-2.86094 -0.992891 10.2937 129 145 164
-2.86084 -0.979297 10.2939 135 153 171
-2.65303 -0.266753 8.64373 154 155 144
-2.64079 -0.220039 8.64496 145 137 127
-2.64061 -0.196623 8.64536 164 159 146
-2.62836 -0.149882 8.64664 216 214 207
-2.63545 -0.148587 8.55638 225 220 214
-2.63525 -0.125379 8.5568 198 195 186
-2.63714 -0.0777444 8.3821 140 129 119
-2.64398 -0.077118 8.29649 143 133 122
-2.61845 -0.0669422 8.46971 132 121 110
-2.61116 -0.0558795 8.55868 163 151 141
-2.6111 -0.0500194 8.55882 157 145 135
-2.61835 -0.0554373 8.4699 177 163 153
-2.6183 -0.0496295 8.46997 171 157 147
-2.60641 -0.0209727 8.47076 174 162 152
-2.59442 0.0193177 8.47158 156 141 132
-2.6017 0.0190872 8.38434 163 147 134
-2.60859 0.047074 8.29925 176 156 151
-2.60133 0.0589591 8.38527 179 161 156
-2.60152 0.0645974 8.38386 176 157 153
-2.60849 0.0583805 8.29949 171 152 148
-2.60866 0.0639698 8.2982 169 150 146
-2.6083 0.0809919 8.29985 168 153 149
-2.61511 0.102641 8.21615 180 165 159
-2.59666 0.103589 8.30039 182 165 160
-2.60798 0.11491 8.30059 166 149 144
-2.58928 0.115979 8.38643 172 155 150
-2.59612 0.160132 8.3016 198 181 177
-2.59602 0.17144 8.30183 190 174 171
-2.59593 0.182746 8.30197 177 163 162
-2.59581 0.194055 8.30224 176 162 163
-2.59559 0.216672 8.30275 187 172 177
-2.59549 0.227979 8.30294 227 212 218
-2.59548 0.233676 8.3027 186 172 177
-2.60278 0.231449 8.21756 203 188 193
-2.60253 0.237136 8.21886 162 148 152
-2.59792 0.279494 8.13678 159 146 150
-2.60472 0.29907 8.05573 164 152 162
-2.58648 0.301754 8.13711 168 156 165
-2.57904 0.326879 8.22045 175 164 177
-2.58636 0.318465 8.13701 179 166 180
-2.58626 0.323988 8.13758 178 166 180
-2.5746 0.368502 8.13836 160 150 163
-2.58181 0.365274 8.0568 156 146 159
-2.58172 0.376294 8.05694 143 133 145
-2.58881 0.373027 7.9768 140 130 144
-2.58893 0.3784 7.97591 144 134 148
-2.57036 0.398397 8.05728 147 136 149
-2.58827 0.427672 7.97789 163 152 166
-2.57027 0.425866 8.05685 158 148 161
-2.54292 0.548232 7.97927 179 156 168
-2.56079 0.586828 7.90153 199 172 186
-2.50859 1.12466 7.60616 186 180 142
-2.50848 1.13515 7.6063 179 175 137
-2.50791 1.19286 7.60717 222 225 183
-2.50774 1.19819 7.60757 221 224 183
-2.49526 1.356 7.61004 209 215 186
-2.49517 1.37165 7.60937 182 185 155
-2.50467 1.45033 7.61258 193 195 176
-2.4928 1.56073 7.61305 148 143 129
-2.4819 1.5769 7.6138 139 131 119
-2.48949 1.56399 7.54078 155 147 136
-2.81215 -4.3482 9.96776 101 131 171
-2.81235 -4.31023 9.96975 97 128 170
-2.81242 -4.29757 9.97043 93 125 168
-2.8125 -4.28484 9.97095 87 119 164
-2.81268 -4.24677 9.97299 101 134 183
-2.81274 -4.23406 9.97365 95 129 178
-2.81306 -4.17027 9.97663 93 127 178
-2.80778 -3.96671 10.105 99 140 208
-2.80789 -3.92754 10.1067 109 151 224
-2.80796 -3.90139 10.1078 107 146 221
-2.80799 -3.88832 10.1084 108 145 221
-2.82796 -3.69082 9.99508 85 111 175
-2.82804 -3.606 9.99792 116 142 198
-2.82809 -3.5798 9.99869 112 133 188
-2.82809 -3.56677 9.9993 77 97 150
-2.82812 -3.5406 10.0002 92 109 159
-2.82212 -3.28526 10.1281 142 149 185
-2.8221 -3.25866 10.1291 140 150 180
-2.8221 -3.2453 10.1294 136 147 177
-2.82205 -3.1786 10.1315 114 134 159
-2.82202 -3.1519 10.1324 132 157 176
-2.82211 -3.13146 10.1312 134 163 182
-2.82199 -3.12518 10.1332 126 157 177
-2.82198 -3.11183 10.1336 140 173 194
-2.82196 -3.09844 10.1339 160 196 217
-2.82194 -3.08508 10.1344 132 169 190
-2.82192 -3.07171 10.1348 142 179 201
-2.82191 -3.05833 10.1352 117 156 175
-2.8219 -3.04492 10.1354 120 159 177
-2.82185 -3.01819 10.1363 113 154 169
-2.82182 -3.00481 10.1368 112 153 167
-2.82179 -2.99144 10.1372 110 153 166
-2.82175 -2.96463 10.1379 123 168 176
-2.62224 -2.14214 8.03334 167 179 162
-2.59589 -2.15169 8.17224 163 166 148
-2.58889 -2.19323 8.25588 174 180 161
-2.59576 -2.11795 8.17299 196 198 183
-2.58836 -2.0798 8.25799 156 153 140
-2.6137 -1.99868 8.09259 166 157 147
-2.58809 -2.01167 8.25937 167 159 151
-2.62413 -2.00482 8.52105 174 157 149
-2.62406 -1.99909 8.52193 192 175 167
-2.6403 -1.95129 8.61205 221 198 192
-2.64027 -1.93951 8.61214 227 205 196
-2.62107 -1.94024 8.70527 172 151 142
-2.60164 -1.95884 8.79897 180 158 150
-2.6283 -1.92259 8.61356 166 145 136
-2.60913 -1.94084 8.70546 174 152 144
-2.6354 -1.89938 8.52302 181 160 150
-2.61647 -1.91724 8.61323 190 168 158
-2.62815 -1.88137 8.61368 197 179 174
-2.65361 -1.80106 8.43607 161 148 151
-2.6466 -1.78232 8.52507 187 176 181
-2.62758 -1.76383 8.61609 200 193 197
-2.65585 -1.68977 8.2603 137 128 131
-2.52851 -1.81908 9.09036 168 159 162
-2.52794 -1.81356 9.09379 168 159 162
-2.64624 -1.71245 8.5265 186 178 188
-2.62741 -1.72856 8.61678 158 149 156
-2.52841 -1.79439 9.09069 151 143 150
-2.64607 -1.67751 8.52719 149 143 154
-2.62716 -1.68154 8.61777 59 55 62
-2.56866 -1.71797 8.89828 96 92 99
-2.61329 -1.5926 8.35358 146 142 147
-2.61323 -1.58114 8.35379 131 128 134
-2.59442 -1.59575 8.44083 121 118 124
-2.55572 -1.61988 8.62027 120 118 125
-2.59283 -1.47613 8.18558 210 211 228
-2.56308 -1.52354 8.53133 143 146 159
-2.60557 -1.50281 8.44247 119 121 140
-2.56711 -1.53109 8.6215 120 123 142
-2.61274 -1.48952 8.35554 109 111 126
-2.57476 -1.51729 8.53131 110 113 127
-2.60371 -1.3969 8.18718 142 145 165
-2.60385 -1.39112 8.18587 136 138 160
-2.61087 -1.37911 8.10325 138 140 161
-2.57736 -1.35333 8.3582 128 124 144
-2.60318 -1.30686 8.18894 203 199 219
-2.60304 -1.28436 8.18943 174 168 188
-2.59569 -1.26157 8.27414 173 163 181
-2.60283 -1.22234 8.18921 171 157 170
-2.60625 -1.12505 8.27682 154 125 131
-2.59902 -0.935984 8.63198 122 104 95
-2.61331 -0.890589 8.4542 134 116 104
-2.61324 -0.87905 8.45436 99 88 72
-2.62947 -0.868879 8.54193 131 122 110
-2.62931 -0.863098 8.54306 132 124 112
-2.62979 -0.862888 8.5394 131 119 109
-2.62939 -0.857254 8.54219 132 121 110
-2.6219 -0.835717 8.63402 120 114 103
-2.27921 -1.38294 13.658 48 56 58
-2.84844 -1.17013 10.2922 62 66 84
-2.84814 -1.12935 10.2931 81 87 104
-2.62846 -0.746829 8.54533 59 58 52
-2.84795 -1.10215 10.2937 134 143 161
-2.84786 -1.08855 10.294 152 162 181
-2.85871 -0.694012 10.2996 146 201 207
-2.85848 -0.666859 10.3002 113 167 169
-2.64109 -0.255164 8.64427 140 136 127
-2.62355 -0.131205 8.557 210 205 198
-2.62352 -0.125457 8.55702 198 194 184
-2.63063 -0.130088 8.46826 200 194 187
-2.60682 -0.0670035 8.46984 137 125 113
-2.5847 0.160129 8.30153 194 177 173
-2.58426 0.211072 8.30222 162 147 151
-2.59142 0.214729 8.21832 163 149 154
-2.57526 0.301783 8.1369 161 149 158
-2.57516 0.312902 8.13711 183 170 182
-2.57529 0.318373 8.13613 181 169 181
-2.56348 0.357426 8.13795 153 142 156
-2.57068 0.365318 8.0566 147 137 150
-2.55473 0.471592 7.97802 157 146 158
-2.55462 0.48253 7.97827 166 155 166
-2.55451 0.493467 7.97849 182 168 181
-2.5545 0.498956 7.97811 177 161 173
-2.56157 0.510913 7.89991 153 135 147
-2.54325 0.515412 7.97857 158 141 153
-2.54984 0.586917 7.9012 197 169 184
-2.53451 0.668179 7.82446 196 155 157
-2.51872 0.812201 7.75009 217 158 149
-2.52531 0.87954 7.67637 219 159 143
-2.51359 0.974983 7.67767 226 178 151
-2.51347 0.985576 7.67791 224 178 151
-2.51336 0.996161 7.67807 238 195 167
-2.50207 1.04929 7.67863 231 203 176
-2.4979 1.13533 7.60568 226 222 184
-2.49795 1.14051 7.6055 233 231 193
-2.49654 1.25092 7.60795 216 224 181
-2.49641 1.26143 7.60818 196 206 163
-2.50312 1.31363 7.53649 236 244 215
-2.503 1.32404 7.53664 233 241 212
-2.50288 1.33446 7.53682 220 226 197
-2.49408 1.45057 7.61196 195 196 177
-2.50621 1.58921 7.68981 179 174 164
-2.50621 1.59447 7.68997 177 171 163
-2.51424 1.56506 7.61196 159 154 140
-2.81422 -3.82893 9.99096 108 144 221
-2.81429 -3.80299 9.99205 115 151 224
-2.81432 -3.79666 9.99305 109 145 217
-2.81434 -3.78368 9.99359 97 133 206
-2.8085 -3.52603 10.1221 115 124 173
-2.8085 -3.51278 10.1226 106 115 163
-2.80854 -3.44642 10.1248 118 127 172
-2.80853 -3.38004 10.1272 138 144 184
-2.80854 -3.35341 10.128 135 142 181
-2.80852 -3.34015 10.1286 142 150 189
-2.80854 -3.32677 10.1288 146 155 192
-2.80854 -3.31345 10.1293 145 154 190
-2.80851 -3.28685 10.1303 145 152 187
-2.80851 -3.27349 10.1306 150 158 191
-2.80851 -3.26014 10.131 151 161 192
-2.80849 -3.24683 10.1315 142 153 183
-2.80861 -3.22661 10.1317 117 133 160
-2.8084 -3.15341 10.1345 123 148 167
-2.80849 -3.13295 10.1333 135 164 183
-2.60051 -2.29472 8.25366 178 206 200
-2.58893 -2.23865 8.25467 152 173 156
-2.61107 -2.14277 8.03336 149 159 144
-2.5771 -2.12581 8.25702 194 196 182
-2.57694 -2.08037 8.25786 153 151 138
-2.58832 -2.06844 8.2582 165 160 148
-2.59553 -2.05042 8.17428 171 167 154
-2.56931 -2.05883 8.34485 153 146 135
-2.63569 -1.97518 8.52223 185 164 158
-2.62852 -1.96365 8.61202 218 195 188
-2.62842 -1.94015 8.61252 228 203 196
-2.6208 -1.88092 8.70644 203 188 185
-2.62082 -1.8749 8.7058 205 191 189
-2.62075 -1.86306 8.70614 181 167 168
-2.63485 -1.7829 8.52538 190 179 183
-2.6348 -1.77124 8.52557 160 150 154
-2.62315 -1.74236 8.52437 117 109 110
-2.62288 -1.73685 8.52655 114 105 107
-2.6038 -1.74731 8.61728 109 99 99
-2.61563 -1.74678 8.6172 149 141 144
-2.61561 -1.74088 8.61685 131 123 126
-2.62992 -1.70978 8.43824 103 95 96
-2.67043 -1.61115 7.93444 110 100 102
-2.67098 -1.60498 7.93029 114 106 109
-2.66922 -1.5987 8.09108 137 128 136
-2.66858 -1.59386 8.09575 120 113 122
-2.59454 -1.61887 8.44044 134 131 138
-2.60184 -1.60451 8.35327 133 130 138
-2.60177 -1.59306 8.35355 127 126 130
-2.58412 -1.23924 8.27453 163 148 163
-2.59519 -1.18212 8.27567 182 165 173
-2.59512 -1.17077 8.27588 189 170 176
-2.5763 -1.18149 8.36151 168 146 155
-2.58769 -1.15824 8.36198 157 132 139
-2.59499 -1.14806 8.27621 133 108 114
-2.5951 -1.1423 8.27516 139 112 118
-2.58761 -1.1468 8.36223 141 114 121
-2.59483 -1.12538 8.27678 146 116 122
-2.58747 -1.12389 8.36263 161 130 135
-2.54107 -1.13752 8.629 143 113 117
-2.58636 -1.07315 8.11029 173 143 145
-2.59809 -0.986236 8.36522 151 120 114
-2.6016 -0.879341 8.45452 150 134 118
-2.60168 -0.873537 8.45363 158 142 126
-2.5912 -0.897137 8.72471 108 99 86
-2.61308 -0.855985 8.45478 159 145 129
-2.59838 -0.859761 8.63397 150 136 122
-2.60567 -0.8404 8.54387 164 147 132
-2.59837 -0.842036 8.63366 147 133 119
-2.61749 -0.834276 8.54282 111 99 85
-2.59069 -0.826037 8.726 124 120 107
-2.62905 -0.810746 8.54309 139 135 123
-2.62889 -0.804959 8.5442 138 135 124
-2.61004 -0.818371 8.63363 127 123 110
-2.62937 -0.804773 8.54057 131 129 117
-2.62896 -0.799128 8.5434 130 129 118
-2.61037 -0.812331 8.63097 119 117 104
-2.64301 -0.756364 8.36592 104 99 90
-2.84708 -0.97978 10.2962 129 146 168
-2.84687 -0.952592 10.2967 110 133 154
-2.84669 -0.925394 10.2971 128 154 173
-2.84658 -0.911806 10.2975 118 145 163
-2.84639 -0.884615 10.2979 138 167 181
-2.84616 -0.857447 10.2987 119 150 163
-2.84608 -0.843844 10.2988 129 163 175
-2.83863 -0.653653 10.4255 104 153 153
-2.64635 -0.310443 8.73497 163 166 154
-2.64634 -0.304585 8.73477 164 167 154
-2.64625 -0.292771 8.73498 145 148 135
-2.62698 -0.289547 8.82935 152 154 142
-2.62915 -0.243568 8.64477 169 163 154
-2.63594 -0.206609 8.55522 179 174 161
-2.63585 -0.195004 8.55541 159 154 140
-2.62865 -0.185013 8.64597 143 139 128
-2.63574 -0.1834 8.55571 143 138 125
-2.61199 -0.148755 8.55672 178 172 165
-2.58461 0.171439 8.3017 195 178 176
-2.59129 0.231592 8.21841 220 206 210
-2.54755 0.453651 8.05787 150 140 154
-2.55484 0.460654 7.97778 168 157 171
-2.53868 0.6087 7.90124 185 154 165
-2.52344 0.689802 7.82443 192 149 150
-2.5336 0.754265 7.8262 217 164 158
-2.54094 0.747917 7.74975 207 154 148
-2.52576 0.852964 7.6752 225 165 152
-2.5145 0.906045 7.67576 226 163 147
-2.50668 0.929785 7.75189 239 187 167
-2.51419 0.922027 7.67659 241 189 169
-2.50656 0.940466 7.75214 249 201 179
-2.52439 0.964234 7.67795 192 143 118
-2.48771 0.980903 7.82879 212 163 137
-2.5028 0.985729 7.67734 218 173 144
-2.50268 0.996322 7.67755 221 178 148
-2.49105 1.08123 7.6786 213 191 160
-2.49826 1.10382 7.60514 185 172 136
-2.49813 1.11433 7.60537 173 163 127
-2.49752 1.16686 7.60636 222 222 182
-2.49727 1.18788 7.60679 233 235 194
-2.49733 1.19305 7.60655 241 246 203
-2.49703 1.20889 7.60718 197 199 158
-2.48582 1.26163 7.60757 232 240 197
-2.48569 1.27214 7.60776 231 241 200
-2.49288 1.29299 7.53542 189 200 165
-2.49212 1.35553 7.53663 206 211 179
-2.49215 1.36063 7.53579 215 218 186
-2.4835 1.4508 7.61127 194 195 176
-2.50144 1.44911 7.53916 209 208 190
-2.50131 1.45954 7.53941 220 219 202
-2.48322 1.47184 7.6118 211 210 193
-2.48329 1.47694 7.61075 195 194 176
-2.49553 1.59474 7.68939 172 167 158
-2.79938 -4.23604 9.97554 86 119 168
-2.79949 -4.21057 9.97684 98 133 182
-2.79962 -4.18502 9.97798 109 143 193
-2.79985 -4.13382 9.98027 89 125 177
-2.79994 -4.10827 9.98166 93 130 183
-2.80004 -4.0826 9.9828 99 135 191
-2.80013 -4.05694 9.98403 85 122 179
-2.80018 -4.04406 9.98454 98 136 194
-2.79463 -3.79831 10.1141 81 116 185
-2.79469 -3.77198 10.1151 84 116 182
-2.79471 -3.75882 10.1156 87 117 182
-2.79479 -3.6731 10.1185 103 130 189
-2.79481 -3.65991 10.119 97 125 183
-2.79482 -3.64672 10.1196 106 132 188
-2.8082 -3.00623 10.1388 117 158 172
-2.8082 -2.99277 10.139 116 161 173
-2.5891 -2.29536 8.25353 180 208 205
-2.58906 -2.28403 8.2538 182 208 202
-2.56244 -2.2936 8.31218 118 158 151
-2.5775 -2.23929 8.25464 150 172 156
-2.57746 -2.22795 8.25488 162 181 163
-2.60501 -2.1224 7.96544 166 176 162
-2.6067 -2.11428 7.95408 172 181 167
-2.61178 -2.10456 7.88693 171 181 168
-2.57742 -2.21661 8.25515 176 192 173
-2.57748 -2.19381 8.25565 188 196 178
-2.56568 -2.12639 8.25684 202 203 190
-2.58419 -2.05102 8.17426 171 166 154
-2.59048 -1.63937 8.35266 136 128 137
-2.57454 -1.5577 8.26824 150 152 165
-2.57378 -1.42134 8.27089 160 163 186
-2.58093 -1.34689 8.18661 164 160 181
-2.58072 -1.34141 8.18817 159 154 175
-2.5731 -1.30776 8.27319 205 199 220
-2.57303 -1.2964 8.2734 197 191 211
-2.58425 -1.26195 8.27413 175 164 184
-2.5844 -1.25614 8.27282 170 159 179
-2.57268 -1.23961 8.27451 149 131 147
-2.57247 -1.20554 8.27515 157 139 148
-2.57241 -1.19417 8.27528 147 128 137
-2.57254 -1.18838 8.27409 144 125 133
-2.57969 -1.17253 8.19139 155 134 141
-2.57239 -1.16568 8.27458 150 127 133
-2.57974 -1.15555 8.19047 172 149 154
-2.56471 -1.17038 8.36158 170 147 152
-2.5834 -1.12572 8.27673 157 127 132
-2.54526 -1.14064 8.44924 158 131 135
-2.5907 -1.09896 8.19169 144 114 116
-2.5528 -1.11344 8.36265 140 112 114
-2.57524 -1.06781 8.10915 209 178 180
-2.56771 -1.07155 8.19317 240 213 215
-2.56776 -1.05459 8.1923 239 204 205
-2.57509 -1.04549 8.10956 222 185 187
-2.57484 -1.02883 8.11101 223 182 185
-2.55617 -1.03808 8.19359 226 185 188
-2.58204 -1.02005 8.02976 209 168 171
-2.56361 -1.02913 8.11084 212 171 174
-2.56752 -1.02084 8.19305 196 153 158
-2.57486 -1.01204 8.11029 200 157 162
-2.54838 -1.03397 8.54021 162 128 127
-2.55601 -1.01906 8.45197 173 136 135
-2.56375 -1.00425 8.36371 142 104 102
-2.57125 -0.995445 8.27801 131 92 89
-2.51652 -1.02646 8.63143 146 109 107
-2.59861 -0.949096 8.1001 135 94 85
-2.54839 -0.981234 8.53897 152 125 117
-2.52864 -0.990445 8.62924 179 148 142
-2.59794 -0.946149 8.36495 143 116 108
-2.57783 -0.87434 8.19609 207 176 159
-2.57774 -0.863105 8.1964 194 161 147
-2.5776 -0.857505 8.19732 183 151 137
-2.60144 -0.856268 8.45494 174 157 140
-2.64298 -0.807357 7.9536 134 111 95
-3.03715 -0.709199 6.45202 60 49 52
-2.59341 -0.770861 8.54543 123 117 103
-2.60077 -0.764003 8.45672 122 114 100
-2.83408 -1.08908 10.2961 151 162 176
-2.83399 -1.07547 10.2964 139 151 165
-2.83379 -1.04827 10.297 118 132 149
-2.8336 -1.02106 10.2975 122 134 156
-2.83341 -0.99385 10.298 118 133 155
-2.8333 -0.98026 10.2984 123 141 164
-2.83312 -0.953048 10.2988 105 129 151
-2.82475 -0.674578 10.4286 63 118 123
-2.63439 -0.304719 8.73516 181 185 171
-2.60024 -0.148841 8.55698 152 143 137
-2.60013 -0.137228 8.55728 187 178 172
-2.60006 -0.131367 8.55748 191 182 175
-2.58143 -0.120694 8.64314 159 150 144
-2.59738 0.0244239 8.29873 183 164 152
-2.53653 0.442679 8.05736 168 159 175
-2.54358 0.482596 7.97795 160 148 161
-2.53222 0.515484 7.97823 165 147 161
-2.52049 0.586712 7.97888 202 176 191
-2.48274 0.602695 8.13834 183 158 170
-2.52038 0.592171 7.97951 195 169 182
-2.48239 0.608348 8.14044 177 151 161
-2.52389 0.652135 7.8231 189 153 156
-2.52378 0.657511 7.82375 181 144 146
-2.5127 0.67914 7.82377 183 144 143
-2.51258 0.689906 7.82399 194 153 153
-2.512 0.743739 7.82515 201 148 142
-2.51919 0.769498 7.74924 213 156 148
-2.52647 0.773659 7.67421 205 149 141
-2.52637 0.784242 7.67437 193 136 127
-2.50821 0.79096 7.74905 207 150 141
-2.50809 0.801643 7.74933 203 145 137
-2.50785 0.823001 7.74977 202 140 132
-2.51547 0.81082 7.67376 189 128 121
-2.50762 0.844357 7.75019 225 165 153
-2.51512 0.837308 7.67491 237 176 166
-2.51501 0.847894 7.67508 245 184 172
-2.51502 0.853168 7.67453 252 193 181
-2.49675 0.855162 7.74983 248 187 176
-2.49639 0.88721 7.75054 234 173 158
-2.49627 0.897889 7.75073 233 172 156
-2.50383 0.906182 7.67518 227 165 149
-2.4958 0.940608 7.75154 255 208 186
-2.49566 0.951306 7.75191 241 191 168
-2.50317 0.953945 7.67664 212 160 137
-2.4919 1.00707 7.67713 214 173 146
-2.49155 1.0441 7.6771 238 209 181
-2.48768 1.10398 7.60445 200 188 152
-2.48755 1.11449 7.6047 198 189 152
-2.48744 1.125 7.60483 209 204 167
-2.48731 1.13551 7.60509 251 246 212
-2.48658 1.19857 7.60631 202 206 163
-2.46783 1.24056 7.68055 203 208 164
-2.47561 1.23029 7.60628 189 194 151
-2.47522 1.26184 7.60701 229 236 194
-2.4751 1.27235 7.60719 190 200 158
-2.47498 1.28286 7.60734 155 165 125
-2.46426 1.29357 7.6069 210 219 181
-2.46429 1.29874 7.60612 208 217 180
-2.47201 1.28296 7.53387 210 218 179
-2.47204 1.28808 7.53306 208 216 178
-2.47205 1.28809 7.5337 212 221 184
-2.47189 1.29338 7.53405 209 218 182
-2.48227 1.3036 7.53488 201 208 177
-2.46404 1.31976 7.60649 190 195 165
-2.4643 1.32473 7.60445 184 188 159
-2.47211 1.51411 7.61196 180 179 165
-2.80104 -3.70074 9.9983 80 109 174
-2.80108 -3.67466 9.99933 103 131 193
-2.79478 -3.15488 10.1365 106 132 152
-2.79475 -3.12813 10.1373 128 159 178
-2.79473 -3.11476 10.1377 133 167 188
-2.7947 -3.08796 10.1384 134 171 192
-2.79467 -3.07461 10.139 129 166 188
-2.79465 -3.0478 10.1396 124 162 180
-2.79462 -3.0344 10.14 118 157 174
-2.5692 -2.10134 8.08984 182 184 170
-2.56797 -2.18601 8.24462 157 167 147
-2.56645 -2.18818 8.25346 183 193 171
-2.56581 -2.17762 8.25664 182 188 168
-2.60065 -2.00605 8.5214 169 154 145
-2.61668 -1.96427 8.61224 202 179 172
-2.61659 -1.94074 8.61263 191 166 158
-2.61652 -1.93494 8.61348 190 165 156
-2.60446 -1.88256 8.61413 201 185 179
-2.6234 -1.8476 8.5249 232 217 214
-2.6234 -1.84171 8.52439 230 216 214
-2.61612 -1.84672 8.6148 166 153 154
-2.60418 -1.82375 8.61534 148 133 133
-2.59036 -1.61645 8.35312 126 122 132
-2.57134 -1.63138 8.44015 121 118 129
-2.59762 -1.60226 8.26761 116 113 122
-2.57883 -1.61693 8.35311 110 109 119
-2.5978 -1.59633 8.26594 119 116 125
-2.57902 -1.61094 8.35139 113 112 121
-2.60492 -1.58244 8.18201 118 116 125
-2.58637 -1.5968 8.26593 112 112 122
-2.59024 -1.59353 8.35356 108 108 113
-2.55182 -1.6174 8.52967 120 119 125
-2.5631 -1.55815 8.26819 161 161 178
-2.56303 -1.54679 8.26842 165 164 186
-2.56295 -1.49544 8.26784 179 182 203
-2.58141 -1.42569 8.18495 148 153 179
-2.58118 -1.42024 8.18662 158 162 188
-2.56973 -1.3981 8.18684 155 158 184
-2.58052 -1.30763 8.1888 180 176 196
-2.56175 -1.31949 8.2728 178 173 192
-2.58067 -1.30185 8.18745 196 191 213
-2.56189 -1.31367 8.27152 194 188 209
-2.57282 -1.26232 8.27405 192 181 200
-2.56125 -1.23997 8.2744 159 141 157
-2.56133 -1.22279 8.27328 155 136 146
-2.56105 -1.20588 8.27499 153 134 142
-2.56836 -1.17287 8.19127 168 148 151
-2.56496 -1.06747 8.10249 186 154 155
-2.56432 -1.0623 8.10661 199 166 167
-2.55216 -0.995932 8.11118 195 151 154
-2.55225 -0.990299 8.11032 205 161 162
-2.55958 -0.987415 8.02978 218 174 176
-2.5937 -0.955208 8.27999 127 99 89
-2.52814 -0.973086 8.6319 169 138 130
-2.59754 -0.888966 8.36605 184 154 139
-2.58981 -0.856541 8.45498 196 174 157
-2.64082 -0.770755 8.11338 115 100 83
-2.62238 -0.772205 8.19845 132 116 101
-2.58511 -0.780622 8.36911 100 87 69
-2.58175 -0.765277 8.5447 135 128 112
-2.8204 -1.10321 10.2979 67 75 83
-2.82031 -1.0896 10.2982 112 123 131
-2.82011 -1.06238 10.2988 86 98 109
-2.83169 -0.762681 10.3026 151 199 211
-2.83148 -0.735493 10.3031 103 155 166
-2.63519 -0.399264 8.73316 93 98 97
-2.83074 -0.640343 10.305 49 88 94
-2.6347 -0.340169 8.73436 158 166 153
-2.60498 -0.191011 8.64654 146 141 127
-2.6121 -0.166118 8.55658 157 151 140
-2.59747 0.0131143 8.2986 175 157 144
-2.57849 0.0360768 8.38478 186 165 158
-2.57867 0.041723 8.38339 177 156 150
-2.57817 0.070316 8.38551 159 140 136
-2.58512 0.114884 8.30061 183 165 160
-2.57327 0.160127 8.30149 183 165 162
-2.57295 0.194069 8.3022 186 169 169
-2.57285 0.205381 8.30236 180 165 166
-2.5568 0.282079 8.21934 164 151 155
-2.55679 0.287727 8.21907 165 152 157
-2.56391 0.312937 8.13702 175 161 174
-2.56381 0.324059 8.13723 172 160 173
-2.55237 0.346341 8.13745 160 149 163
-2.55225 0.357467 8.13772 139 128 142
-2.54842 0.365402 8.05607 146 134 148
-2.54832 0.376432 8.05627 152 142 156
-2.52539 0.442735 8.05704 153 144 162
-2.5438 0.460717 7.9775 170 160 173
-2.52518 0.464806 8.05745 170 160 175
-2.52506 0.475844 8.05772 168 159 172
-2.53244 0.493601 7.9778 170 157 173
-2.53232 0.504545 7.97806 170 155 171
-2.52106 0.526502 7.97813 171 150 162
-2.52106 0.53199 7.97773 171 148 160
-2.52118 0.531875 7.97736 175 154 165
-2.52096 0.537443 7.9783 176 153 163
-2.50185 0.679236 7.82324 185 144 145
-2.50173 0.690004 7.82347 189 146 146
-2.50092 0.765383 7.82505 231 173 167
-2.48506 0.946063 7.75038 240 194 172
-2.47709 1.10415 7.60382 208 195 160
-2.47697 1.11466 7.60404 214 204 170
-2.46884 1.15576 7.6788 240 241 204
-2.4761 1.18825 7.60552 186 187 145
-2.47614 1.19343 7.60476 185 186 144
-2.47616 1.19342 7.60525 188 190 146
-2.47599 1.19876 7.60567 186 188 145
-2.47586 1.20927 7.60588 226 230 187
-2.47975 1.26217 7.46182 201 209 168
-2.47447 1.3249 7.60818 217 225 195
-2.46341 1.37231 7.60748 207 210 178
-2.47277 1.46155 7.61089 224 223 205
-2.76539 -4.4119 10.0896 89 120 160
-2.76551 -4.38636 10.091 118 148 188
-2.78592 -4.25082 9.97698 77 110 158
-2.786 -4.238 9.97738 92 125 174
-2.78649 -4.12299 9.98291 97 133 186
-2.78654 -4.11019 9.98355 94 130 184
-2.78663 -4.08452 9.98475 93 130 186
-2.78673 -4.05882 9.9859 100 136 195
-2.78677 -4.04598 9.98654 111 148 209
-2.78686 -4.02022 9.98764 98 138 198
-2.78693 -3.99448 9.9889 117 156 221
-2.78699 -3.98154 9.98934 95 134 201
-2.78707 -3.95571 9.99043 105 145 213
-2.78718 -3.91692 9.99208 103 145 216
-2.78721 -3.89733 9.99215 119 161 234
-2.78725 -3.89102 9.99314 137 178 243
-2.78732 -3.86509 9.99417 109 148 224
-2.78734 -3.85215 9.99479 92 130 207
-2.78741 -3.82616 9.99577 98 132 209
-2.78125 -3.60881 10.1232 106 125 180
-2.78134 -3.60213 10.1235 104 123 178
-2.78128 -3.5823 10.124 112 128 178
-2.78139 -3.53585 10.1257 120 129 177
-2.78132 -3.47624 10.1279 123 131 179
-2.78132 -3.46296 10.1284 121 129 176
-2.78132 -3.44968 10.1289 117 126 172
-2.78132 -3.42311 10.1298 132 142 182
-2.78134 -3.40975 10.1301 136 145 185
-2.78131 -3.39651 10.1308 138 145 185
-2.57765 -2.28466 8.25367 161 189 182
-2.5776 -2.27334 8.25399 134 160 149
-2.56604 -2.22857 8.25476 160 179 163
-2.57685 -2.16418 8.14652 159 169 155
-2.57476 -2.16742 8.16089 168 176 161
-2.56164 -2.07465 8.17341 149 149 134
-2.56903 -2.0567 8.09081 156 156 141
-2.57283 -2.0403 8.17427 187 181 168
-2.57275 -2.01777 8.17466 152 145 133
-2.5651 -1.97871 8.25986 178 171 164
-2.57253 -1.96145 8.17579 190 183 176
-2.5498 -2.00846 8.43326 158 151 142
-2.60789 -1.98241 8.43363 203 190 181
-2.61221 -1.97641 8.52264 164 143 136
-2.60472 -1.94137 8.61299 213 189 179
-2.60467 -1.93556 8.61374 208 184 174
-2.61193 -1.90056 8.52341 209 187 177
-2.59267 -1.90084 8.61453 216 198 188
-2.6001 -1.88369 8.52439 196 177 168
-2.61166 -1.84228 8.52457 238 227 224
-2.61161 -1.83062 8.52478 185 172 172
-2.59245 -1.84784 8.615 169 156 156
-2.6188 -1.81427 8.43628 167 154 153
-2.59987 -1.83119 8.52493 151 138 137
-2.63342 -1.77017 8.2588 123 110 105
-2.61498 -1.78636 8.34412 107 94 89
-2.59233 -1.82432 8.61554 144 131 128
-2.51211 -1.88316 8.99366 143 131 128
-2.51261 -1.87639 8.99059 129 118 115
-2.607 -1.78015 8.4371 101 91 88
-2.58796 -1.79675 8.52572 89 78 74
-2.56886 -1.8192 8.61376 95 84 78
-2.61437 -1.75835 8.34831 127 118 114
-2.59558 -1.7746 8.43531 115 104 100
-2.57697 -1.79632 8.52001 121 111 105
-2.59524 -1.75759 8.43772 165 156 152
-2.55979 -1.65772 8.18174 135 133 131
-2.56369 -1.67183 8.26598 120 117 114
-2.556 -1.66373 8.35207 142 138 141
-2.57889 -1.62838 8.35286 131 125 135
-2.55976 -1.64343 8.43995 129 123 134
-2.58619 -1.59701 8.26782 97 97 108
-2.56729 -1.61163 8.35333 105 104 114
-2.54805 -1.62653 8.44043 99 98 106
-2.59337 -1.57749 8.18367 107 108 119
-2.5747 -1.59181 8.26768 115 115 125
-2.5557 -1.60638 8.35317 109 109 117
-2.5328 -1.60133 8.35139 121 121 130
-2.55564 -1.58915 8.35366 135 134 144
-2.53629 -1.60384 8.44076 122 120 132
-2.56322 -1.57517 8.26798 134 134 145
-2.54411 -1.5896 8.35354 122 121 133
-2.56316 -1.56952 8.26797 161 161 174
-2.54405 -1.58389 8.35346 149 148 162
-2.5706 -1.55584 8.18383 165 165 178
-2.55172 -1.56997 8.26786 152 152 166
-2.5516 -1.54722 8.26829 173 173 195
-2.55915 -1.53373 8.18412 184 184 207
-2.55932 -1.52788 8.1826 171 170 194
-2.5121 -1.61807 8.71105 115 114 131
-2.57035 -1.51077 8.18474 166 167 192
-2.55148 -1.52448 8.2687 162 163 189
-2.51971 -1.54473 8.62153 156 159 175
-2.55833 -1.38723 8.18693 151 152 178
-2.55057 -1.36534 8.27186 147 142 164
-2.55808 -1.34216 8.18775 211 206 226
-2.56147 -1.27404 8.27369 179 165 188
-2.56141 -1.26267 8.27384 167 153 174
-2.54954 -1.19487 8.27507 155 139 142
-2.55723 -1.17873 8.1897 166 149 152
-2.61099 -0.911958 7.94872 166 130 122
-2.57841 -0.874095 8.45375 197 166 155
-2.58964 -0.833467 8.45544 184 166 146
-2.58946 -0.793071 8.45532 120 106 89
-2.81931 -0.953528 10.3011 113 138 160
-2.81914 -0.926295 10.3014 127 154 173
-2.81902 -0.912702 10.3018 127 155 174
-2.81881 -0.885496 10.3024 143 174 193
-2.81822 -0.80386 10.3039 115 161 173
-2.81811 -0.790266 10.3042 118 162 173
-2.81103 -0.702411 10.4303 116 178 183
-3.00153 -0.3835 6.89648 82 118 111
-2.6157 -0.379209 8.82757 128 138 131
-2.6156 -0.3732 8.82812 124 135 126
-2.62283 -0.352137 8.73454 131 144 131
-2.62274 -0.34618 8.73502 129 142 128
-2.62264 -0.328494 8.73501 158 164 151
-2.58365 -0.0786407 8.46977 146 133 122
-2.5715 -0.0211201 8.47098 166 150 139
-2.5714 -0.00960355 8.47122 167 151 138
-2.57889 -0.00957738 8.38391 159 142 131
-2.57879 0.00183638 8.38411 196 179 166
-2.58616 0.00176128 8.29829 206 189 175
-2.58604 0.0130745 8.29861 177 159 144
-2.56715 0.0132097 8.38435 178 159 144
-2.56707 0.0246258 8.38446 148 129 115
