ply
format ascii 1.0
comment Kinect v1 generated
element vertex 1306
property double x
property double y
property double z
property uchar red
property uchar green
property uchar blue
end_header
-3.94243 19.9676 373.836 174 248 226
-3.48609 19.8636 371.725 174 248 227
-3.48671 21.6262 371.825 174 247 226
-3.05382 22.509 371.968 174 247 224
-3.50807 23.0712 374.099 174 247 223
-3.05396 22.9496 371.987 174 247 224
-3.50847 23.9584 374.15 171 246 224
-2.65008 31.1782 379.043 167 242 218
-2.19491 31.0088 376.876 167 242 219
-0.463876 42.0345 382.488 162 229 208
-0.921944 43.4334 387.117 163 227 207
-0.467203 43.189 384.857 162 227 207
-0.0178512 42.9476 382.624 162 227 207
5.69761 72.7887 409.481 176 229 213
6.23783 74.9304 412.079 140 203 182
8.14582 82.1079 412.877 154 220 198
7.71178 83.1103 415.503 154 220 198
7.71149 83.602 415.509 157 220 199
8.14545 83.0889 412.908 157 220 199
7.71154 84.0971 415.532 157 220 199
7.71134 84.5887 415.537 157 218 198
8.14526 84.0696 412.937 155 219 198
7.71129 85.0841 415.562 157 218 198
8.14532 84.5617 412.96 155 219 198
7.22361 88.5284 415.572 155 218 196
7.66063 87.9846 412.972 155 218 196
7.22313 89.0208 415.581 156 218 197
7.66035 88.4735 412.978 156 218 197
7.22308 89.5166 415.605 157 219 197
7.66025 88.9663 413.003 157 219 197
7.22273 90.0087 415.611 157 219 197
7.65992 89.4553 413.009 157 219 197
7.22233 90.501 415.619 158 218 196
7.65955 89.9445 413.016 158 218 196
7.17409 93.8589 413.037 156 220 199
6.73296 95.9209 415.676 155 219 198
7.17326 95.3307 413.074 156 219 199
6.66625 98.5517 413.259 152 219 198
6.68636 100.223 413.093 153 217 195
7.12427 99.6093 410.523 154 217 196
-2.6016 3.81889 370.801 175 248 225
-1.31614 31.9082 377.104 167 242 219
-1.3328 34.982 381.791 168 238 217
-0.442387 38.6152 382.153 166 234 211
3.20789 58.328 395.818 151 212 193
42.6744 -125.177 503.786 206 204 242
6.87379 -63.9245 397.665 123 173 156
5.91799 -60.2731 395.326 133 185 167
5.39746 -56.772 390.628 138 194 173
4.9466 -54.9396 390.716 142 198 177
3.55299 -47.0048 386.327 152 210 188
3.09227 -45.8842 386.475 153 211 192
3.10511 -45.6391 386.356 153 212 192
3.08723 -44.9035 384.049 155 214 194
3.07552 -44.6985 384.21 152 215 194
2.64375 -44.5181 386.508 152 215 194
2.64193 -43.5454 384.077 153 216 195
2.6449 -44.0668 386.551 152 216 194
2.64311 -43.0967 384.12 153 216 195
2.19739 -41.7367 384.136 154 218 196
2.19833 -41.288 384.181 155 219 198
2.17433 -39.9303 382.105 155 221 199
1.74665 -37.4413 382.071 158 225 203
0.84352 -32.5278 380.128 162 228 206
0.403334 -28.3228 378.085 164 227 209
0.403833 -27.8786 378.115 164 228 209
-0.0342957 -25.6491 378.191 166 230 211
-0.472944 -23.4188 378.27 169 233 212
-0.472328 -22.9747 378.313 168 232 211
-0.468534 -21.943 376.129 169 234 213
-0.467672 -21.0579 376.189 169 238 216
-0.481305 -20.847 376.338 169 238 215
-0.905002 -19.723 376.194 168 239 216
-1.35543 -16.4038 376.483 170 241 217
-0.896756 -16.5137 374.196 169 240 217
-0.911032 -16.3022 374.345 170 241 217
-1.33113 -14.3038 374.26 171 241 217
-1.34592 -14.0914 374.412 172 241 218
-1.76549 -11.211 374.401 172 242 218
-1.75311 -8.06056 372.398 173 245 222
-2.21579 -7.45803 374.7 174 245 222
-1.75279 -7.62132 372.427 173 245 222
-2.1856 -5.41935 372.48 173 246 224
-2.20177 -4.76473 372.667 174 246 223
-2.18521 -4.10047 372.572 175 247 225
-2.18499 -3.22083 372.633 175 248 224
-2.63536 -2.12066 372.753 173 247 224
-2.61841 -1.89689 372.626 173 247 224
-2.18777 -2.10021 370.654 173 247 225
-2.17119 -1.87771 370.529 173 247 225
-2.61852 -1.45686 372.658 173 248 223
-2.61841 -1.01674 372.688 173 248 224
-2.61775 0.744497 372.795 174 248 226
-2.60209 2.06605 370.694 174 248 226
-2.6192 2.28304 370.851 176 248 226
-2.61901 3.15975 370.911 174 248 224
-3.03327 6.01361 370.845 175 248 226
-3.03298 6.89093 370.903 177 248 226
-3.05109 7.11017 371.065 177 248 226
-3.03305 8.20731 370.983 176 249 228
-3.03339 10.5739 369.111 177 248 226
-3.48423 12.8222 371.319 181 248 227
-3.48438 13.7014 371.368 184 250 233
-3.46539 13.9187 371.234 184 250 233
-3.4656 14.7979 371.283 180 250 232
-2.62014 20.7462 371.964 175 247 225
-2.61666 23.732 374.168 173 245 226
-1.75548 30.1168 376.92 166 242 221
6.61387 71.3919 407.014 142 203 182
7.0904 72.8528 407.166 156 203 194
8.68533 81.1549 415.615 152 215 194
8.68528 81.6504 415.641 153 216 195
8.68506 82.142 415.646 156 218 197
8.6852 82.637 415.669 154 220 198
8.68491 83.1289 415.675 154 220 198
8.6849 83.6244 415.7 158 221 200
8.68474 84.6116 415.729 156 220 198
8.68449 85.1035 415.735 156 220 199
8.19687 88.0568 415.74 153 218 197
8.19651 88.5492 415.747 154 219 197
8.19621 89.5372 415.777 157 218 198
8.19588 90.0294 415.784 157 218 198
8.19589 90.5254 415.808 157 219 198
8.14168 93.3908 413.199 156 222 198
8.14132 94.3735 413.229 156 220 200
7.7064 95.451 415.842 156 219 199
7.65421 99.2667 413.249 154 220 199
7.65379 99.7565 413.256 155 218 197
7.63205 101.033 413.5 152 218 197
43.0953 -136.604 502.255 203 202 241
44.0959 -132.549 487.495 201 204 241
43.1026 -136.031 502.319 201 204 243
44.1031 -131.992 487.556 203 204 244
43.112 -135.464 502.408 202 205 243
44.1124 -131.442 487.642 203 204 244
44.1218 -130.892 487.727 204 204 243
43.1287 -134.324 502.563 203 204 242
44.2689 -130.299 515.753 204 205 243
42.9414 -123.651 500.056 205 204 245
9.02631 -64.1551 390.651 121 168 152
9.01937 -63.9517 390.799 123 169 153
7.33908 -63.9394 397.757 123 173 156
7.47962 -65.1898 405.365 123 174 157
7.28705 -62.8679 395.482 125 175 158
7.43573 -63.8323 402.891 126 177 159
8.51697 -61.7321 388.496 125 176 159
8.68544 -62.6586 395.645 126 177 160
6.8361 -62.1402 395.327 128 179 161
8.47602 -60.6527 386.076 127 178 161
7.57326 -58.1773 386.266 134 188 170
7.58296 -57.9308 386.161 134 189 171
5.50351 -56.4776 398.107 142 198 179
5.52713 -57.1015 400.751 143 197 179
6.77309 -55.448 391.03 142 199 178
6.8048 -56.0538 393.578 143 198 177
4.93796 -54.2767 390.903 146 200 178
5.03098 -55.3282 398.272 146 200 178
5.37158 -54.1531 388.444 146 200 178
5.47235 -55.1954 395.718 146 200 178
6.61324 -53.1881 381.701 146 200 178
6.73495 -54.1945 388.725 146 200 178
6.60433 -52.9867 381.852 147 201 179
6.72597 -53.9896 388.879 147 201 179
3.55646 -45.6505 386.444 154 213 193
3.53599 -44.9166 384.15 155 214 194
3.52437 -44.7117 384.313 152 215 194
4.78518 -43.9184 377.708 151 215 194
3.0954 -44.5291 386.593 153 214 194
3.09164 -43.1079 384.208 153 216 195
4.34823 -42.14 377.766 154 216 195
2.63263 -41.9922 384.359 153 218 196
2.64601 -41.7492 384.239 154 218 196
2.64869 -42.2578 386.7 153 218 196
3.06312 -41.7402 382.13 153 219 197
3.07618 -41.4989 382.012 154 219 197
3.08151 -42.003 384.446 153 219 197
2.64699 -41.2987 384.267 155 218 197
2.63449 -41.0925 384.433 153 219 197
3.92245 -40.5643 377.667 153 219 197
4.338 -40.325 375.516 153 219 197
2.63557 -40.6433 384.476 154 221 198
3.91222 -39.9195 377.866 157 221 199
2.62055 -39.9407 382.191 155 221 199
3.89 -39.2331 375.658 157 222 200
3.4387 -35.4824 373.644 159 225 203
1.75095 -35.2034 382.262 162 226 204
2.15649 -28.6458 373.771 164 228 206
2.14287 -28.4406 373.934 164 228 206
-0.0317901 -23.4273 378.37 169 233 212
1.69487 -22.8681 369.876 169 233 212
1.68279 -22.6612 370.016 169 233 212
-0.0298489 -21.9502 376.214 169 234 213
1.26507 -21.5557 369.88 169 233 212
-0.46923 -19.8602 378.553 168 240 216
1.26815 -19.3807 370.05 168 240 217
-0.464134 -17.5164 376.456 170 239 218
0.839134 -17.1961 370.113 171 240 218
-1.32765 -9.00896 374.65 174 244 222
-0.0133159 -6.17757 366.398 174 246 223
-0.450293 -2.04408 364.595 173 247 224
-2.60119 6.01136 370.939 175 249 226
-1.28069 5.93683 364.777 177 249 227
-0.850303 5.91254 362.769 177 249 227
-1.29648 10.0388 365.173 177 249 227
-2.19402 24.7542 376.548 172 246 226
4.1798 60.7922 398.36 147 211 189
4.64568 61.2744 398.482 147 209 189
7.37999 67.3375 396.953 142 201 182
8.36177 71.0819 399.741 198 245 237
10.3654 78.2379 405.372 147 209 189
10.3655 78.7209 405.396 148 212 192
9.11233 85.5623 413.162 156 220 198
10.3652 84.0142 405.542 157 220 199
9.11217 86.5437 413.191 155 220 199
10.3648 85.4579 405.578 155 220 200
8.68356 88.0672 415.828 155 220 200
9.88898 88.8194 405.587 157 220 199
8.62689 90.9508 413.233 156 220 196
8.62612 91.9298 413.248 157 218 196
9.88838 90.2641 405.624 157 219 195
8.62604 92.4232 413.273 157 218 196
8.13996 96.3362 413.276 158 220 199
8.11878 97.6057 413.497 154 220 199
44.0484 -120.531 512.915 162 162 198
1.30348 -31.4074 380.162 162 229 207
-0.896201 32.1458 377.374 166 241 218
0.418419 31.6292 370.999 167 241 221
0.420446 32.6873 373.231 166 240 218
-0.439367 35.6936 379.728 167 238 215
4.13323 59.2807 396.027 149 211 191
9.17191 82.151 415.732 156 218 197
9.1718 82.6469 415.758 155 220 199
44.1853 -134.564 494.838 201 204 241
44.1926 -133.998 494.898 202 204 244
43.7296 -133.774 502.727 202 205 241
43.7369 -133.201 502.793 202 205 241
44.2357 -131.193 495.289 201 206 242
44.1219 -131.374 507.118 204 205 243
7.75504 -61.5037 395.71 130 181 164
7.3038 -60.7761 395.554 132 185 167
7.71857 -60.4055 393.198 133 185 167
-0.45602 32.1488 377.469 167 242 219
-0.0152647 31.9746 375.319 167 242 219
3.18865 54.2453 393.207 150 212 191
4.59627 59.2891 396.128 149 212 191
8.0437 72.8685 407.336 159 204 195
9.59695 79.6858 413.072 147 210 188
10.0166 79.2 410.501 147 210 188
9.59727 80.1773 413.093 148 211 191
10.0169 79.6887 410.523 148 211 191
8.62431 95.8575 413.353 157 219 199
8.96929 100.782 408.474 154 218 200
44.2483 -138.337 502.133 203 202 243
44.2676 -137.205 502.312 202 204 242
44.2773 -136.639 502.403 202 203 241
44.2848 -136.068 502.473 201 203 242
44.2944 -135.5 502.559 202 205 243
44.3018 -134.926 502.624 204 203 243
44.3211 -133.793 502.804 203 204 241
44.3285 -133.218 502.868 203 204 241
43.9977 -131.626 499.103 206 204 243
44.3382 -132.652 502.961 206 204 243
44.0241 -129.929 499.344 205 204 244
44.0315 -129.358 499.408 204 205 243
44.041 -128.794 499.498 204 205 243
44.0843 -125.958 499.894 203 204 242
40.0029 -92.2939 414.064 170 171 198
44.1181 -123.685 500.205 205 204 245
44.1254 -123.112 500.267 206 204 245
43.9267 -120.963 504.739 204 200 241
44.1774 -120.038 500.922 204 200 241
8.66852 -64.7503 395.573 122 169 153
8.72287 -65.1645 398.049 122 169 153
8.21673 -64.0223 395.421 126 172 156
8.26822 -64.4319 397.895 125 171 156
8.62593 -63.6325 393.065 127 173 157
8.67963 -64.0372 395.511 126 172 156
7.74975 -62.8829 395.574 126 176 159
7.75947 -62.6292 395.465 127 177 160
7.79829 -63.2856 398.052 126 176 159
8.16197 -62.4995 393.216 128 177 160
8.17141 -62.2477 393.109 128 178 161
8.21276 -62.8976 395.665 128 177 160
7.29852 -62.1551 395.419 128 179 162
7.71313 -61.7765 393.065 129 178 161
8.12289 -61.4023 390.737 128 178 161
7.30028 -61.6955 395.464 131 180 164
7.31244 -61.4377 395.326 131 181 164
6.83424 -60.0952 395.665 134 187 169
6.87694 -60.4811 398.145 134 187 169
6.80384 -59.0055 393.151 134 189 171
7.21901 -58.6477 390.823 134 189 171
6.37625 -58.7009 395.711 136 190 171
6.80549 -58.5483 393.196 136 189 171
7.22078 -58.193 390.867 136 189 171
6.35049 -57.1622 393.24 139 193 173
6.76855 -56.815 390.911 140 195 175
5.89364 -56.231 393.224 143 196 178
5.93036 -56.5905 395.673 143 196 179
5.8841 -56.0247 393.384 143 197 178
5.92075 -56.3831 395.835 143 197 178
6.30518 -55.684 391.051 143 197 178
6.34431 -56.038 393.472 143 197 178
5.81648 -53.9638 388.704 146 201 179
5.85232 -54.3052 391.097 146 201 179
6.24208 -53.8429 386.274 146 200 178
6.28039 -54.1814 388.636 146 200 178
6.23301 -53.6391 386.426 146 201 179
6.27105 -53.9768 388.793 146 201 179
5.37591 -52.7958 388.577 148 203 180
5.40899 -53.1302 390.969 148 203 180
5.36607 -52.5907 388.734 149 203 180
5.3992 -52.9238 391.127 150 204 181
5.79478 -52.4782 386.301 150 203 180
5.83022 -52.8087 388.666 151 203 181
4.94474 -51.9999 391.128 150 205 182
4.95613 -51.7488 390.998 147 206 184
5.36891 -51.6849 388.823 150 206 183
5.38012 -51.4353 388.693 148 207 185
5.78804 -51.3737 386.545 150 206 183
5.79896 -51.1258 386.418 148 207 185
4.87672 -47.1961 384.223 150 211 188
4.89466 -47.7403 386.693 151 209 187
4.90637 -47.4931 386.562 150 210 187
4.00789 -45.6642 386.549 153 214 194
3.97346 -44.7229 384.399 152 216 194
3.99771 -45.005 386.74 151 215 194
4.3961 -44.4553 382.171 152 216 194
4.42273 -44.7341 384.485 151 215 194
3.54705 -44.5423 386.697 153 214 194
3.56875 -44.8251 389.067 153 214 194
3.97465 -44.2742 384.443 152 215 194
3.99869 -44.5539 386.786 152 215 194
3.53937 -43.5694 384.267 152 216 194
3.54812 -44.0891 386.725 151 215 194
3.56086 -43.8445 386.607 152 216 194
3.96433 -43.3086 382.041 153 215 194
3.97567 -43.8237 384.472 152 215 194
3.98825 -43.5806 384.354 153 215 194
3.52229 -41.5097 382.1 154 218 196
3.53086 -42.0153 384.547 152 218 196
3.54363 -41.7709 384.413 152 219 196
3.08365 -41.1048 384.534 153 219 197
3.10228 -41.3654 386.879 152 221 198
3.51167 -40.858 382.304 154 220 198
3.53288 -41.1154 384.621 153 221 198
3.08468 -40.6538 384.562 154 221 198
3.51255 -40.4098 382.334 154 221 198
3.08558 -40.2047 384.608 156 222 200
3.09893 -39.9622 384.488 156 222 200
3.51365 -39.963 382.377 156 222 200
3.52673 -39.7221 382.259 156 222 200
3.05811 -39.2956 382.457 157 222 201
3.5066 -39.0288 379.999 156 222 200
3.52774 -39.2738 382.287 156 222 200
2.63935 -38.8427 384.623 157 223 201
3.06995 -38.609 382.393 157 222 202
2.6252 -37.7035 382.381 159 224 203
2.63897 -37.4628 382.259 159 224 203
3.05341 -37.4777 380.176 160 224 202
3.06701 -37.2384 380.055 160 224 202
3.04331 -37.2696 380.314 159 224 203
3.05431 -37.0332 380.221 159 224 203
2.1814 -36.3507 382.412 160 226 203
2.19458 -36.5811 384.731 162 227 205
2.61217 -36.1327 380.208 160 226 203
2.6279 -36.3605 382.499 162 227 205
3.03816 -35.917 378.027 160 226 203
3.05633 -36.1422 380.292 162 227 205
2.19723 -35.213 382.348 160 226 203
2.17252 -33.8946 380.297 161 227 205
2.601 -33.6918 378.116 161 227 205
1.73102 -32.5472 380.313 162 228 206
2.16369 -31.4654 378.205 164 230 208
2.17793 -31.2278 378.069 163 230 207
1.72369 -30.5683 378.179 164 230 208
2.15239 -30.3856 376.022 164 230 208
2.15318 -29.9451 376.065 164 231 208
1.72523 -29.681 378.251 164 230 208
1.74078 -29.0008 378.156 164 228 206
1.72649 -28.7936 378.326 164 228 206
1.28575 -28.3407 378.27 164 228 207
1.71719 -28.1705 376.111 164 228 207
0.847652 -26.1107 378.346 164 231 212
0.409713 -23.4357 378.468 167 233 212
0.396671 -23.2242 378.617 167 233 212
0.846332 -23.2934 376.308 167 233 212
0.833601 -23.0831 376.454 167 233 212
1.26563 -22.9435 374.315 167 233 212
0.409076 -21.9583 376.312 169 233 212
0.843217 -21.8252 374.176 169 233 212
0.41008 -21.0738 376.386 169 238 216
0.396929 -20.8626 376.533 169 237 217
0.844206 -20.9457 374.25 169 238 216
0.411762 -19.745 376.474 172 240 217
0.846131 -19.6244 374.335 171 239 216
-0.0400351 -18.6402 376.598 170 239 216
0.410465 -18.7367 374.311 170 239 216
0.39716 -18.5258 374.458 170 239 216
-0.0249573 -17.5235 376.553 171 240 219
0.411986 -17.4155 374.414 172 240 218
-0.457624 -13.4345 374.516 172 242 219
-0.0205755 -13.3502 372.4 173 242 219
-0.452974 -11.5892 372.433 173 243 219
-0.892362 -11.2221 374.581 173 243 219
-0.451985 -10.2722 372.523 170 244 221
-0.891104 -9.45573 374.702 174 244 221
-0.451244 -9.39376 372.583 174 244 221
-0.885082 -8.51022 372.561 172 245 223
-0.89954 -7.4173 372.772 174 244 223
-0.461977 -7.36713 370.675 175 245 224
-1.31764 -5.86827 372.644 174 246 223
-1.32574 -5.91497 374.861 174 246 223
-0.877789 -5.82679 370.548 174 246 223
-0.883185 -5.87297 372.74 174 246 223
-1.7498 -1.90465 372.817 174 248 225
-1.30756 -1.88545 370.722 173 248 224
-0.869932 -1.86642 368.646 173 248 224
-0.869728 -1.43109 368.677 173 248 224
-1.74954 -1.02413 372.879 173 248 226
-1.30706 -1.00985 370.781 173 248 226
-0.869539 -0.995732 368.707 173 248 226
-1.73803 1.62173 370.853 176 248 227
-1.29794 1.62115 368.777 175 248 226
-1.29734 2.92871 368.867 175 248 225
-1.73728 3.81349 370.991 176 248 227
-1.29695 3.80066 368.913 176 248 226
-2.19966 4.92817 373.313 176 249 227
-1.75414 4.909 371.211 177 249 228
-2.16907 6.00909 371.035 176 249 226
-1.72616 5.98396 368.956 177 249 227
-1.74327 7.07485 369.175 177 248 226
-2.16863 8.20369 371.174 177 249 228
-1.72555 8.16627 369.094 177 249 229
-2.16817 9.08179 371.219 177 248 226
-1.72523 9.03948 369.14 177 248 227
-1.71448 11.6059 367.158 179 248 226
-2.61897 12.8204 371.508 180 248 228
-2.60053 13.9174 371.424 182 250 233
-2.15471 13.848 369.341 180 250 233
-2.17299 15.8197 369.599 178 249 227
-1.73187 15.74 367.538 178 249 227
-2.18625 18.1024 371.909 175 249 227
-1.74226 18.0094 369.822 175 249 227
-1.30003 22.7268 372.194 174 246 227
-1.74436 23.7346 374.358 171 246 226
-1.29998 23.6093 372.244 171 246 226
-0.884655 25.6043 372.59 172 246 223
0.901238 42.5004 384.926 162 230 209
1.34278 42.2628 382.691 161 231 209
1.76978 43.8748 383.03 160 227 207
3.60448 52.2353 388.429 152 217 197
4.64565 60.8007 398.461 144 208 187
6.0997 67.1063 404.202 146 206 186
7.51958 70.9739 404.616 137 201 180
9.17191 79.6827 415.651 145 207 186
9.59686 79.1938 413.048 145 207 186
10.0164 78.7113 410.479 144 206 186
9.65904 81.6685 415.813 153 216 195
10.081 81.1673 413.21 154 217 195
9.65879 82.1604 415.819 155 218 196
10.0808 81.6561 413.216 155 218 196
10.0807 82.6371 413.244 156 221 199
9.65873 83.6433 415.873 158 221 200
10.0808 83.1296 413.269 156 221 200
9.65852 84.1352 415.879 158 221 200
10.0806 83.6184 413.274 156 221 200
9.65858 84.631 415.904 157 221 200
10.0807 84.111 413.298 157 221 200
9.65829 85.1232 415.91 157 221 200
9.59552 88.025 413.315 154 220 198
10.0156 87.4867 410.74 154 220 198
9.17033 89.0656 415.944 153 220 197
9.59555 88.518 413.339 153 220 197
9.16994 89.5582 415.952 155 219 198
9.59546 89.0067 413.343 155 219 198
9.16999 90.0543 415.976 156 220 198
9.16984 90.5462 415.98 157 220 199
9.59511 89.9893 413.375 157 220 199
9.10953 93.4123 413.368 157 221 200
9.53255 92.8411 410.796 158 222 200
9.10946 93.906 413.394 157 220 202
9.10878 94.8852 413.407 156 221 201
9.53193 94.3045 410.832 156 221 200
8.62137 100.274 413.452 155 218 198
2.62098 -31.6745 380.572 165 230 208
2.60992 -31.4645 380.714 165 230 208
-0.0298217 -7.42692 372.949 175 245 224
-0.0146492 -7.20148 372.827 175 245 224
-1.30295 9.07854 371.411 177 248 227
6.51123 62.7235 398.897 241 255 255
7.00167 65.2836 401.776 222 255 253
7.00177 65.7613 401.798 208 255 243
9.59012 100.791 413.643 154 219 198
3.04971 -30.1525 378.491 166 231 209
1.71998 -19.6396 374.531 170 241 218
1.73018 -19.7671 376.754 170 241 218
11.0493 86.0938 413.528 157 220 198
11.049 87.5653 413.564 155 221 200
10.4937 96.7684 411.07 155 222 201
10.4935 97.255 411.075 154 221 198
10.0101 100.661 411.073 153 218 197
3.06561 -29.0276 378.427 164 228 206
-0.434536 22.8504 374.592 174 248 224
11.0486 89.5309 413.625 155 220 198
10.5626 93.9386 413.65 158 221 203
10.5621 95.4116 413.685 158 223 201
10.5617 95.9018 413.693 159 223 203
10.5598 100.325 413.805 153 220 199
46.8423 -137.36 498.658 204 204 243
46.85 -136.79 498.72 204 204 243
46.86 -136.229 498.81 204 204 242
46.6484 -136.131 502.741 202 204 244
46.6585 -135.564 502.832 202 204 244
46.6685 -134.997 502.921 203 205 242
46.6762 -134.422 502.983 203 205 242
46.6863 -133.856 503.076 201 204 242
46.6964 -133.288 503.164 201 204 242
46.7041 -132.714 503.229 203 204 242
46.7142 -132.147 503.323 203 205 243
46.7219 -131.572 503.387 206 204 243
46.7498 -129.86 503.633 206 205 241
46.7599 -129.291 503.721 206 204 242
46.4082 -127.72 499.922 206 204 242
46.7676 -128.717 503.789 205 203 241
46.4533 -124.881 500.318 204 204 242
46.4885 -122.605 500.627 206 203 245
46.4984 -122.038 500.715 205 203 244
46.5413 -119.186 501.091 204 200 240
9.55645 -61.3773 393.469 129 181 164
9.56756 -61.1214 393.335 129 181 164
9.61593 -61.7686 395.92 129 181 164
8.68703 -60.1524 396.029 135 187 169
9.09415 -59.7849 393.665 135 187 169
9.50352 -59.6271 391.181 135 187 169
9.4964 -59.4218 391.33 136 186 169
8.64477 -59.0618 393.512 135 188 170
8.69866 -59.4388 395.963 135 188 170
9.04949 -58.7032 391.179 136 189 171
9.10549 -59.0759 393.602 136 189 171
8.58747 -57.5741 391.331 140 192 172
8.6407 -57.9398 393.755 140 192 172
8.65039 -57.6887 393.646 140 194 173
8.99026 -57.2263 389.025 140 192 172
9.04567 -57.5877 391.42 140 192 172
9.05523 -57.3381 391.312 140 194 173
7.73629 -55.8296 393.645 143 200 179
7.77411 -56.4396 396.212 142 199 178
8.14649 -55.4901 391.311 143 200 179
8.18678 -56.0942 393.848 142 199 178
8.55189 -55.1545 389.005 143 200 179
8.59461 -55.7529 391.511 142 199 178
6.74753 -50.5687 389.063 147 208 186
6.73797 -50.3627 389.222 147 208 186
7.14954 -50.0589 386.939 147 208 186
6.70928 -49.3483 386.768 148 210 189
6.7392 -49.9073 389.252 147 210 188
7.11836 -49.0523 384.514 148 210 189
7.15086 -49.606 386.968 147 210 188
6.75194 -49.2065 389.182 148 210 189
6.67615 -46.7966 384.63 150 210 190
5.77439 -43.8717 384.849 154 215 195
5.78623 -43.6266 384.716 154 215 195
5.75261 -42.9081 382.445 155 216 195
5.78753 -43.1777 384.761 155 216 195
6.16268 -42.6525 380.241 155 216 195
6.19984 -42.919 382.531 155 216 195
4.88171 -41.1491 384.896 153 220 197
4.91153 -41.4098 387.242 153 219 197
5.29957 -40.9019 382.663 153 220 198
5.33162 -41.1598 384.984 154 220 198
5.7234 -40.8621 380.297 152 221 198
5.75766 -41.1183 382.59 153 220 198
5.30087 -40.4549 382.707 156 221 199
5.33299 -40.71 385.027 154 222 199
4.86726 -39.7548 382.532 155 222 200
4.88402 -40.2483 384.97 156 222 200
4.89664 -40.0058 384.852 155 222 200
4.91392 -40.5054 387.334 155 222 200
5.28255 -39.5173 380.327 155 222 200
5.30192 -40.0063 382.737 156 222 200
5.31439 -39.7653 382.619 155 222 200
5.33435 -40.2602 385.071 155 222 200
4.42474 -37.9533 382.592 160 224 202
4.83219 -37.0741 380.576 161 224 204
4.40386 -35.4876 380.472 163 225 204
4.43057 -35.7131 382.78 163 225 204
4.81958 -35.2758 378.291 163 225 204
4.84869 -35.4986 380.572 163 225 204
3.98443 -35.2543 382.722 162 226 206
4.00835 -35.4786 385.046 163 227 207
3.97283 -34.5975 382.92 162 226 205
3.97394 -34.1495 382.964 163 228 206
4.39505 -33.9438 380.752 163 228 206
3.52393 -31.4547 380.622 164 231 208
3.51113 -31.2466 380.787 164 231 208
3.94497 -31.2658 378.438 163 230 208
3.93244 -31.0588 378.601 164 231 208
3.93353 -30.6154 378.644 164 232 209
3.93434 -30.1709 378.674 167 231 209
3.49476 -28.8293 378.691 165 229 207
3.51553 -29.0129 380.965 165 229 207
3.07155 -28.5569 380.908 165 228 208
3.49561 -28.3844 378.721 165 228 208
3.07246 -28.1106 380.953 165 228 208
3.0592 -25.2641 378.886 167 231 209
3.49443 -25.3196 376.556 167 231 209
2.17951 -22.1319 378.94 169 234 212
2.19254 -22.2757 381.215 169 234 212
2.60648 -21.997 376.774 169 234 212
2.62208 -22.1391 379.023 169 234 212
3.02854 -21.8636 374.634 169 234 213
3.04664 -22.0041 376.857 169 234 213
2.19647 -21.0068 378.871 171 238 216
2.17007 -19.7747 376.853 170 241 218
2.18286 -19.9039 379.105 168 241 217
2.59492 -19.6538 374.71 170 241 218
2.61016 -19.7815 376.936 168 241 217
1.74368 -17.6674 379.183 172 240 217
2.17336 -17.5579 377.016 172 240 218
2.16066 -17.345 377.164 170 242 217
2.13895 -14.4858 372.91 169 243 218
2.15163 -14.5831 375.128 171 243 219
1.28605 -12.4475 377.342 170 244 220
1.71645 -12.3682 375.195 171 244 221
1.29421 -10.8089 375.083 173 244 220
1.72209 -10.7392 372.96 173 244 220
1.2888 -8.97531 372.983 175 245 223
-0.00823391 1.16022 375.61 176 248 227
0.427448 1.16224 373.483 174 248 226
0.411775 1.38045 373.64 176 248 227
-0.438629 10.443 373.881 179 248 228
-0.00225072 10.3927 371.772 178 248 227
-0.436114 16.6406 374.233 175 249 225
0.00142932 19.3012 374.489 177 249 228
0.435961 19.2009 372.374 177 249 228
9.61668 73.5216 412.654 194 242 244
10.0356 73.0749 410.09 192 241 242
11.628 81.4168 415.927 151 215 194
11.6087 86.1538 416.304 158 219 199
12.0191 85.6237 413.692 157 220 200
11.6084 87.6349 416.339 154 222 200
11.6083 88.1273 416.344 155 222 201
12.0186 87.5849 413.733 155 223 201
11.1196 91.5775 416.356 155 221 196
11.5331 91.0135 413.745 155 221 196
11.1195 92.567 416.387 155 221 199
11.533 91.9967 413.775 155 221 199
11.1193 93.0596 416.392 156 222 200
11.5327 92.4866 413.782 156 222 200
11.5329 92.9801 413.805 157 223 202
11.0468 96.4063 413.799 159 222 203
11.0463 96.8968 413.807 157 224 202
11.4577 96.3033 411.229 157 224 202
11.0461 97.3865 413.813 155 222 201
11.4574 96.7903 411.236 155 222 201
11.0456 98.3715 413.846 156 222 200
10.954 101.462 411.453 152 219 198
10.5586 102.29 413.851 153 221 201
46.6129 -128.449 495.969 206 205 241
46.6204 -127.882 496.03 206 204 241
46.6304 -127.322 496.12 206 205 242
47.0421 -124.897 500.389 205 204 243
47.0777 -122.621 500.699 207 204 243
47.0855 -122.049 500.765 206 203 242
10.4679 -63.6919 393.425 125 172 156
10.5332 -64.0971 395.873 125 172 156
10.1278 -63.8225 398.461 126 175 158
10.5352 -63.6375 395.919 126 174 158
6.25132 -47.776 386.956 152 210 188
6.30106 -47.8316 389.212 151 211 188
0.85441 22.9587 372.814 174 248 228
1.31426 31.8869 380.075 167 242 222
1.34152 33.6408 382.285 167 241 219
1.77738 33.456 380.082 167 241 219
1.7587 34.5947 380.297 165 241 219
2.19004 34.4053 378.115 165 241 219
1.76921 35.6969 382.638 168 238 217
2.20298 35.5001 380.431 168 238 217
1.76947 36.6055 382.69 165 239 216
2.20337 36.4033 380.482 165 238 215
2.63237 36.2034 378.298 166 239 216
3.1307 41.8526 385.528 163 232 211
5.04774 53.0788 393.33 148 216 193
6.51046 59.8823 398.788 146 212 190
6.97732 60.362 398.892 223 255 248
11.5332 78.2484 413.365 143 204 184
46.7437 -140.576 510.23 203 203 243
46.7516 -139.995 510.299 203 203 243
47.4371 -136.809 498.796 204 204 243
46.7618 -139.42 510.389 201 204 242
47.4473 -136.246 498.884 204 204 242
46.7721 -138.846 510.483 201 204 242
47.4574 -135.684 498.973 204 204 242
46.78 -138.265 510.554 201 204 244
46.7901 -137.688 510.641 202 204 244
47.4753 -134.552 499.124 202 204 244
46.8004 -137.113 510.735 203 205 242
47.4854 -133.989 499.212 203 205 242
46.8083 -136.531 510.803 203 205 242
47.4932 -133.42 499.278 203 205 242
47.5033 -132.856 499.366 201 204 242
46.8831 -131.9 511.47 206 204 241
10.9971 -64.1118 395.963 125 172 156
10.7972 -62.4591 388.748 126 174 158
8.80269 -61.6044 400.817 133 185 167
1.81007 37.6996 387.237 165 239 216
9.19207 73.4803 415.229 144 206 195
12.0182 78.7487 413.473 143 204 186
12.423 78.2688 410.899 144 205 186
12.5031 79.7385 413.586 145 209 189
12.018 92.9908 413.89 158 224 203
46.453 -128.741 488.303 203 204 242
46.4875 -126.522 488.599 206 205 241
46.4972 -125.969 488.683 206 204 241
47.5953 -127.188 500.156 207 204 244
46.7128 -129.19 516.196 202 204 242
47.6312 -124.914 500.465 205 204 243
47.639 -124.342 500.528 205 204 243
46.7595 -126.261 516.622 206 202 242
47.675 -122.066 500.841 205 202 242
44.7101 -94.557 433.055 176 172 207
47.6851 -121.498 500.926 204 201 243
46.8038 -123.322 517.026 201 199 240
11.4506 -64.8402 396.113 122 171 154
8.68164 -61.5325 395.89 130 182 165
8.69119 -61.2791 395.78 131 183 165
8.84682 -62.7314 403.427 131 183 165
8.85664 -62.4728 403.312 131 183 165
8.18607 -58.5903 393.467 138 189 172
8.178 -58.384 393.621 138 189 172
9.39378 -57.5356 386.553 140 188 172
9.38642 -57.3325 386.702 140 188 172
7.23057 -55.4614 391.119 143 200 178
7.36704 -56.5348 398.49 143 200 179
8.84437 -54.1437 382.061 143 200 178
9.00718 -55.168 389.095 143 200 179
8.09824 -52.2159 389.322 149 205 183
6.85935 -52.7192 396.369 150 207 185
6.87052 -52.4669 396.251 150 207 185
8.09964 -51.7604 389.351 150 207 185
8.10996 -51.5132 389.241 150 207 185
6.70967 -45.9803 387.207 151 214 193
6.72114 -45.7353 387.091 151 215 194
7.11942 -45.7034 384.946 151 214 193
7.13055 -45.4601 384.833 151 215 193
5.42053 -45.618 391.807 151 215 193
6.67209 -44.794 384.948 151 215 193
4.96858 -43.3171 391.916 154 218 196
6.22847 -42.5331 385.053 154 218 196
4.95312 -41.8847 389.468 152 220 197
6.20542 -41.1304 382.69 152 220 197
6.19489 -40.9245 382.849 154 221 198
4.51508 -41.4726 391.98 155 221 199
6.19607 -40.4757 382.878 155 223 200
4.50154 -40.506 389.483 156 223 200
5.76174 -39.7756 382.704 156 223 200
4.5029 -40.0509 389.527 157 223 201
4.49211 -39.3861 389.742 158 224 202
4.05113 -38.6718 389.543 160 224 202
5.73238 -37.7458 380.554 161 225 203
4.05224 -38.2167 389.589 161 225 203
5.32052 -37.5261 382.808 161 225 203
5.30916 -37.319 382.971 161 225 204
5.7336 -37.3011 380.599 161 225 203
5.31044 -36.8712 383.015 161 225 204
4.03071 -36.6125 387.319 163 225 204
5.29224 -35.9534 380.614 163 224 203
3.56866 -35.0322 387.521 162 226 205
4.83902 -34.4 380.809 163 227 205
3.5836 -34.3347 387.425 163 228 206
4.8533 -33.7148 380.716 163 228 206
3.55065 -33.0027 385.307 165 230 208
4.81425 -32.4089 378.669 164 229 208
3.13599 -32.0543 387.517 165 231 209
4.39057 -29.9434 378.636 166 230 208
4.39139 -29.4989 378.667 165 229 208
3.93823 -28.3939 378.819 166 228 208
4.35489 -28.2234 376.657 166 228 208
2.65936 -28.465 385.494 166 228 208
2.67435 -28.225 385.364 164 229 207
2.64649 -26.4829 383.303 166 232 211
3.9193 -26.0036 376.733 168 231 211
2.2147 -25.288 385.65 167 233 212
3.5026 -24.8265 379 167 233 212
3.922 -24.6762 376.835 167 234 212
3.48356 -23.7837 376.824 167 235 213
2.20354 -23.7738 383.428 166 234 212
2.19132 -23.5595 383.576 166 234 212
3.47297 -23.1299 376.996 166 234 212
1.76866 -22.562 385.778 170 234 212
3.48691 -22.0122 376.955 171 234 214
3.4681 -20.99 374.787 171 238 215
3.05048 -19.7891 377.034 170 240 216
1.31609 -18.3484 383.652 171 241 217
2.61382 -17.565 377.113 172 240 218
1.31174 -15.5339 381.545 169 243 219
2.6018 -15.2434 375.033 169 242 219
2.58863 -13.8255 372.918 171 243 219
2.15446 -12.3737 375.278 173 243 221
2.16837 -12.146 375.173 171 244 221
0.866615 -10.9558 379.484 174 244 222
2.15747 -10.7444 373.042 174 245 221
2.14407 -10.5312 373.191 174 245 221
2.15862 -9.86509 373.102 172 245 221
0.867161 -10.5086 379.514 172 245 222
0.427638 -9.67847 381.775 173 244 221
1.73433 -9.04562 375.299 174 245 222
2.15987 -8.98591 373.175 173 244 222
0.426127 -8.71428 379.553 173 245 222
0.428475 -8.77886 381.853 172 245 222
1.72528 -8.10094 373.138 174 245 221
1.7114 -7.88668 373.289 174 245 221
0.427812 -6.92409 379.677 174 246 223
1.71884 -4.97867 371.151 174 247 224
-0.0127789 -4.23215 379.764 175 247 224
1.29411 -4.13461 373.312 175 248 224
1.71988 -4.10283 371.21 175 248 224
1.29451 -3.69415 373.342 175 248 223
1.27994 -3.47802 373.495 175 248 223
1.72038 -3.66484 371.239 175 248 223
1.28035 -3.03729 373.525 175 248 226
1.2955 -2.81296 373.402 175 247 225
-0.010936 -1.96707 377.646 173 247 224
-0.0101258 -1.07542 377.706 174 248 225
-0.0259176 -0.85569 377.866 174 248 225
1.28971 -1.03167 371.324 174 248 225
1.27494 -0.815631 371.476 174 248 224
1.29095 0.283738 371.414 174 247 224
0.863498 1.159 373.577 175 249 227
0.848066 1.37726 373.733 175 249 227
1.29198 1.16102 371.472 175 249 227
1.27696 1.37805 371.626 175 249 227
-0.448235 2.94336 377.875 176 248 227
0.859935 2.91928 371.485 176 248 227
0.845012 4.01541 371.701 176 249 227
0.857381 5.97035 369.506 176 249 227
-0.886678 7.41324 378.076 177 249 226
-0.886314 8.30729 378.125 177 249 229
0.414511 9.73237 371.964 176 249 230
-0.879551 11.8286 376.095 177 249 226
0.413281 11.8759 369.923 176 249 227
-0.879094 12.7185 376.142 177 249 227
0.43065 12.9682 369.842 178 249 228
-0.878798 14.0543 376.224 182 252 234
-0.878579 14.9449 376.274 180 251 234
-0.896531 15.1709 376.44 179 251 234
0.414503 14.9412 370.098 180 251 233
-0.440817 20.4026 378.927 177 248 225
1.28911 22.0762 372.861 174 248 225
1.29757 24.8604 375.211 174 246 223
-0.0165259 26.6236 381.815 171 247 223
1.29801 26.1953 375.293 171 247 223
1.72625 26.0558 373.168 171 247 223
0.429177 28.4361 382.003 168 245 220
1.73681 27.9767 375.474 170 245 221
4.64468 53.7075 398.179 144 213 189
12.5845 82.7118 416.364 156 221 199
12.5845 83.7 416.393 158 224 202
11.3608 87.0009 424.242 158 222 200
12.6038 85.386 416.217 158 222 202
12.5037 88.5779 413.849 155 222 200
12.5037 89.5606 413.877 158 219 199
12.5034 90.0508 413.885 157 221 200
12.0174 93.9708 413.903 159 222 203
12.0175 94.4647 413.927 159 222 203
12.0172 94.9548 413.933 158 223 202
11.9392 98.7577 411.378 154 221 201
11.5302 99.8573 413.966 154 221 199
11.9388 99.2452 411.386 155 222 201
11.5298 100.348 413.974 153 220 198
11.5291 101.329 413.989 153 219 198
11.4551 102.162 411.359 160 214 196
48.0244 -136.826 498.867 204 203 243
48.0345 -136.263 498.953 204 203 242
48.0424 -135.694 499.019 204 204 242
48.0527 -135.132 499.108 202 204 244
48.0629 -134.569 499.197 202 204 244
48.0708 -134 499.261 203 205 242
48.081 -133.436 499.348 203 205 242
48.0889 -132.867 499.414 201 204 242
48.0991 -132.303 499.501 202 205 242
11.9207 -65.0616 396.055 122 170 153
11.915 -64.8549 396.201 123 171 154
9.51538 -56.8965 391.445 142 196 176
9.91276 -56.5527 389.138 142 196 176
9.01631 -52.9003 389.298 149 205 183
8.51529 -50.7517 387.001 150 207 185
7.58074 -45.4716 384.921 151 215 193
7.1224 -44.8053 385.035 152 215 194
7.5367 -44.7418 382.646 151 215 193
7.12389 -44.3561 385.079 152 217 195
6.653 -41.141 382.776 154 220 198
6.64277 -40.935 382.934 155 221 199
6.64385 -40.4863 382.964 154 222 200
5.75827 -36.8811 383.1 159 226 203
5.25728 -32.419 378.766 164 229 208
5.25813 -31.9746 378.797 163 229 208
5.27135 -31.738 378.676 164 230 209
3.48937 -20.683 377.058 171 238 217
3.45923 -19.016 375.064 171 240 217
3.47194 -18.786 374.949 172 241 217
2.60647 -12.1514 375.255 171 244 221
2.18078 -5.67958 373.236 174 246 223
2.16437 -5.4648 373.413 174 247 223
2.15238 -4.98311 371.244 175 247 224
1.27308 6.18608 369.755 176 249 227
1.28975 7.27901 369.677 177 249 226
0.86545 10.3897 371.947 178 248 229
10.9271 72.6412 407.642 192 242 242
11.3146 72.4802 405.356 192 242 242
12.9883 80.7289 413.701 151 215 193
12.9888 86.6221 413.875 158 221 200
12.9889 87.6048 413.904 157 222 204
12.9892 88.098 413.927 156 221 199
12.9058 90.4768 411.334 157 222 200
12.906 90.9674 411.358 158 223 201
12.5031 92.5072 413.949 158 223 201
12.4223 95.8383 411.39 159 223 204
12.422 97.303 411.424 156 225 203
12.4213 98.2779 411.439 157 224 203
11.9376 101.686 411.436 152 222 201
11.9373 102.174 411.443 164 220 201
48.2283 -124.359 500.602 203 204 242
48.2724 -121.508 500.976 204 201 244
48.3194 -118.996 501.538 201 197 239
11.4611 -64.1269 396.053 125 172 156
11.4633 -63.667 396.099 125 175 158
1.72498 22.9609 373.002 174 249 225
3.09196 34.1755 378.128 166 241 220
3.57764 38.1943 382.955 166 237 214
4.00189 38.8856 380.781 166 234 213
11.941 75.8219 410.733 141 206 184
12.5212 77.9809 413.307 142 204 185
12.9884 80.24 413.696 147 211 189
12.9888 90.0606 413.968 158 222 201
11.4047 72.6492 407.728 189 239 230
12.9887 93.0121 414.059 160 223 204
5.74342 -33.7335 380.888 163 228 206
5.29226 -31.2844 381.156 164 232 209
3.92985 -20.69 377.142 171 238 216
3.0448 -12.1575 375.352 171 244 221
2.16752 -2.82107 373.594 175 247 226
1.29966 10.3883 372.041 177 249 228
2.19238 25.9672 375.296 171 247 223
9.90751 66.896 404.698 145 202 182
49.2073 -136.292 499.077 202 203 241
49.2178 -135.73 499.166 203 204 242
49.2257 -135.159 499.226 203 204 243
49.2361 -134.596 499.314 202 204 243
49.2466 -134.034 499.406 203 204 244
49.2546 -133.464 499.469 202 203 244
49.2651 -132.901 499.558 201 204 241
49.2755 -132.337 499.645 202 205 243
49.2835 -131.767 499.71 208 203 243
49.2939 -131.203 499.799 207 203 243
49.302 -130.632 499.864 206 204 243
49.3124 -130.068 499.953 206 204 243
49.3204 -129.497 500.016 205 204 242
49.3414 -128.369 500.199 206 203 244
49.3493 -127.796 500.259 206 204 244
49.1486 -128.208 504.148 205 205 243
49.3598 -127.232 500.35 206 205 243
49.1567 -127.632 504.215 205 204 243
49.3678 -126.66 500.413 206 204 243
49.1937 -125.34 504.525 206 204 243
48.8256 -123.802 500.737 205 205 242
49.2043 -124.77 504.616 206 204 241
48.8623 -121.525 501.052 204 200 244
48.9098 -119.011 501.608 198 195 237
12.9225 -66.8933 398.564 121 167 151
13.0034 -67.3209 401.06 121 167 151
12.9171 -66.686 398.713 121 167 151
12.9981 -67.1124 401.211 121 167 151
13.3063 -66.4839 396.176 121 167 151
13.3893 -66.9062 398.641 121 167 151
13.3015 -66.277 396.319 121 167 151
13.3844 -66.6983 398.786 121 167 151
12.3942 -64.8162 395.999 125 172 156
12.3869 -64.6142 396.174 126 173 157
12.779 -64.4212 393.638 125 172 156
10.9439 -60.5053 393.826 135 186 168
11.0122 -60.8911 396.279 135 186 168
10.946 -60.0477 393.872 135 186 168
11.0144 -60.4306 396.324 135 186 168
11.3375 -59.6828 391.534 135 187 169
11.4077 -60.0615 393.959 135 187 169
10.3685 -56.5663 389.227 142 196 176
10.4325 -56.9236 391.623 143 195 176
10.7587 -56.2263 386.945 142 196 176
10.8246 -56.5795 389.314 143 195 176
9.97047 -55.7926 391.776 142 199 178
10.3655 -55.4551 389.465 143 199 178
9.47211 -52.9133 389.387 148 206 184
9.86772 -52.5945 387.103 147 205 184
9.86009 -52.3895 387.254 148 205 184
9.01002 -52.2409 389.497 150 206 185
9.06537 -52.5727 391.9 150 206 185
9.40844 -51.926 387.212 150 206 185
9.46603 -52.2537 389.586 150 206 185
9.80221 -51.6148 384.954 150 206 185
9.86184 -51.9387 387.3 150 206 185
9.02688 -50.1773 389.551 148 209 188
9.43541 -50.0765 387.084 148 208 187
9.42529 -49.8744 387.265 148 209 187
8.97379 -49.411 387.221 148 210 189
8.47567 -47.2938 384.948 149 211 190
7.61907 -45.0996 387.47 152 216 194
8.03297 -45.0337 385.05 152 216 194
8.02371 -44.8277 385.207 152 216 194
8.43264 -44.764 382.816 152 216 194
7.57452 -44.3672 385.165 152 217 195
7.58541 -44.1223 385.036 152 217 195
7.62059 -44.6477 387.515 152 217 195
7.63166 -44.401 387.383 152 217 195
7.97694 -44.1013 382.93 152 217 195
7.98766 -43.8579 382.802 152 217 195
8.02526 -44.3785 385.252 152 217 195
8.03596 -44.1335 385.124 152 217 195
7.58702 -43.673 385.08 154 217 196
7.63324 -43.9491 387.428 153 218 196
7.98926 -43.4112 382.846 153 217 195
8.03777 -43.684 385.166 153 217 195
7.53449 -42.2994 382.99 154 219 197
7.5802 -42.5657 385.312 154 220 198
7.935 -42.0468 380.779 153 218 197
7.98279 -42.3101 383.075 154 219 197
7.10078 -41.1516 382.862 154 221 198
7.14381 -41.411 385.183 154 221 198
7.09072 -40.9456 383.02 154 221 198
7.13368 -41.2038 385.344 154 221 198
7.49374 -40.7008 380.81 154 221 198
7.53892 -40.956 383.106 154 221 198
7.49528 -40.2561 380.853 153 222 199
7.54041 -40.5087 383.15 155 221 199
7.06256 -39.56 380.683 156 224 201
7.10516 -39.8084 382.977 156 224 201
7.46324 -39.3247 378.499 156 224 201
7.50794 -39.5704 380.768 156 224 201
6.62262 -37.7675 380.742 160 225 203
6.66265 -38.0051 383.036 158 226 203
7.02591 -37.5424 378.558 160 225 203
7.06811 -37.7774 380.826 158 226 203
6.61343 -37.1162 380.945 159 225 203
6.65334 -37.3502 383.242 157 226 203
7.01718 -36.8946 378.756 159 225 203
7.05917 -37.1259 381.029 157 226 203
6.20635 -36.8908 383.185 159 226 203
6.61455 -36.6695 380.974 159 226 203
7.01838 -36.4503 378.784 160 227 204
6.24519 -36.6744 385.557 161 225 203
6.1741 -34.875 381.033 162 226 205
6.58028 -34.6664 378.845 162 226 205
5.76666 -33.74 383.366 163 228 207
6.18913 -33.744 380.987 163 228 206
6.17771 -33.5366 381.151 163 228 207
6.5951 -33.542 378.801 164 229 207
5.32514 -31.0336 383.487 165 232 209
5.29414 -30.3895 381.216 166 232 209
4.85589 -27.2502 381.381 165 230 209
5.27013 -27.0851 379.189 166 230 210
4.82902 -26.1872 379.178 168 231 210
5.24096 -26.0292 377.011 168 231 210
4.36812 -22.0274 377.136 170 234 214
4.7805 -21.8938 374.993 170 234 214
3.93171 -19.8035 377.215 171 240 217
4.34675 -19.6824 375.069 171 240 217
3.93335 -18.916 377.274 172 241 218
3.48335 -12.1629 375.434 171 244 221
2.63136 -6.17243 375.511 174 246 223
2.61513 -5.95657 375.689 174 246 223
3.05189 -6.12897 373.386 177 246 224
3.03619 -5.91426 373.56 176 245 223
2.6156 -5.51354 375.721 174 247 223
3.03677 -5.47373 373.59 175 246 223
2.60381 -2.82498 373.675 175 248 225
3.02261 -2.80054 371.569 175 248 225
8.37832 60.3799 399.144 237 255 251
9.8263 64.8504 402.289 146 210 188
13.5618 86.6851 416.651 158 222 200
13.9601 86.1518 414.039 158 222 201
13.5614 88.1679 416.69 158 222 204
13.96 87.6246 414.074 158 222 204
13.4743 92.0384 414.113 158 223 201
13.8709 91.4746 411.53 158 224 202
13.4741 92.5285 414.119 159 224 202
13.8705 91.9621 411.539 159 225 202
13.4741 93.5125 414.149 161 223 204
12.987 98.4164 414.181 157 225 205
13.3868 97.8127 411.597 156 224 203
12.9867 98.907 414.189 157 222 204
49.3665 -138.981 506.675 204 203 242
49.3771 -138.41 506.764 203 202 241
49.3853 -137.832 506.831 204 204 242
48.6404 -135.149 499.181 202 204 244
49.3959 -137.262 506.924 202 205 243
48.6483 -134.58 499.246 201 204 244
48.6586 -134.017 499.333 203 205 242
49.4147 -136.112 507.08 202 204 242
48.669 -133.454 499.422 203 205 242
48.6769 -132.884 499.487 201 204 241
48.6872 -132.32 499.574 202 205 243
48.7055 -131.186 499.728 203 204 242
48.7159 -130.622 499.818 206 204 243
48.7238 -130.051 499.88 205 203 242
48.7342 -129.487 499.97 204 203 241
48.7524 -128.351 500.123 205 203 242
48.7603 -127.78 500.186 206 204 243
49.0299 -123.433 496.926 204 206 243
49.4523 -121.54 501.122 205 202 241
12.3153 -63.2937 393.827 126 175 159
5.67738 -27.8064 376.95 167 229 210
5.69067 -27.5723 376.83 165 230 210
3.97522 33.2832 378.253 167 242 218
3.55469 34.369 380.486 165 241 218
3.97583 34.1808 378.304 165 241 218
3.57634 35.47 382.828 165 240 217
3.9999 35.2744 380.619 166 240 217
4.41915 35.9779 378.471 167 239 217
4.44605 37.0826 380.787 168 238 216
4.04941 38.4151 385.371 167 237 216
4.47312 38.201 383.132 167 237 216
4.47355 39.1094 383.17 167 235 214
4.89242 38.8925 380.956 166 236 214
4.92276 40.9329 383.356 164 233 210
4.95268 42.0808 385.718 164 232 210
7.24183 51.3552 389.084 155 222 202
6.87028 52.8912 393.87 152 221 198
7.28652 52.5868 391.532 152 221 198
8.30732 58.3996 396.797 151 216 194
9.37287 63.143 401.933 164 199 187
10.2334 64.9399 399.856 143 207 186
10.8382 68.6233 405.13 202 246 233
14.0683 84.4265 416.447 159 225 202
13.5614 90.64 416.755 159 223 201
13.9599 90.0814 414.139 160 224 202
13.5617 91.1367 416.778 159 223 201
13.9602 90.5751 414.162 159 223 201
13.0721 95.5766 416.801 158 224 204
13.0718 96.0701 416.808 158 224 204
49.0424 -134.236 491.614 202 203 241
49.0526 -133.681 491.697 203 204 242
49.8428 -133.481 499.541 202 203 244
49.8534 -132.918 499.63 201 204 242
49.8615 -132.348 499.695 202 205 243
49.872 -131.783 499.782 208 203 243
49.8906 -130.649 499.935 206 204 243
49.9012 -130.085 500.024 206 204 243
49.9093 -129.514 500.091 204 204 241
49.9198 -128.949 500.176 204 204 241
49.9384 -127.813 500.33 206 204 244
49.9466 -127.242 500.398 206 205 243
49.9571 -126.676 500.484 206 204 243
49.9651 -126.104 500.547 204 204 242
9.42225 -48.3121 387.536 152 209 190
5.3711 40.9359 383.436 164 233 210
10.7879 66.5049 402.316 207 253 237
11.6408 67.3349 400.195 200 240 231
14.4456 88.124 414.164 158 223 201
14.446 88.6177 414.187 158 222 201
13.8699 96.3579 411.645 159 222 202
50.3617 -137.452 499.045 203 204 243
50.3804 -136.319 499.193 201 204 242
50.3911 -135.757 499.285 202 205 242
50.4017 -135.194 499.373 203 204 244
50.4098 -134.624 499.435 203 204 244
50.0505 -120.983 501.259 205 202 241
12.7814 -62.3906 393.989 129 180 163
12.2532 -60.1661 391.668 134 186 168
11.8695 -60.0756 394.048 135 187 169
11.4077 -58.4804 394.245 140 190 173
11.803 -58.3311 391.757 140 190 173
10.435 -54.4357 391.983 146 203 183
10.8346 -54.3119 389.518 146 202 182
9.42727 -49.423 387.307 148 210 189
9.37716 -47.3173 385.122 150 211 188
8.47459 -44.839 385.294 152 216 194
8.88076 -44.7753 382.902 152 216 194
8.87192 -44.5703 383.057 152 216 194
8.47627 -44.3895 385.338 152 217 195
8.48711 -44.1464 385.225 152 217 195
8.48861 -43.695 385.252 152 217 195
8.43157 -42.3224 383.174 152 220 197
8.44223 -42.0794 383.047 152 220 197
8.39328 -41.3731 380.795 153 219 197
7.99698 -41.1727 383.033 154 221 198
7.98724 -40.9666 383.192 154 221 198
7.98888 -40.5191 383.235 155 221 199
8.00013 -40.2782 383.121 155 222 200
7.5153 -37.3421 380.954 158 226 203
7.50498 -37.1358 381.114 158 226 201
7.10446 -36.4623 383.4 160 226 204
7.50779 -36.2432 381.185 160 226 204
7.07507 -35.5481 381.013 162 227 206
7.06574 -34.8955 381.219 163 227 206
7.02486 -34.2326 378.973 164 228 207
6.62354 -33.5458 381.236 164 229 207
7.0382 -33.5512 378.886 164 229 207
6.62468 -33.0984 381.265 164 230 208
6.14918 -30.2162 379.124 166 232 209
6.10874 -27.606 377.185 166 229 210
6.11947 -27.3728 377.076 166 229 210
5.71348 -27.0931 379.273 166 230 210
6.12052 -26.9298 377.105 166 230 210
5.68188 -26.0369 377.093 168 231 210
5.69507 -25.8023 376.959 167 232 211
5.684 -25.1518 377.167 166 232 212
5.68507 -24.7085 377.195 167 233 213
5.26089 -23.1382 377.077 169 232 213
5.24797 -22.9288 377.245 169 233 214
5.25003 -22.0426 377.318 169 235 213
5.2219 -20.5784 375.176 171 238 215
5.22272 -20.1372 375.206 170 239 216
4.78885 -17.9243 375.282 170 241 218
4.79078 -17.0418 375.355 170 242 217
4.35686 -14.3847 375.451 173 242 218
4.33619 -11.6517 373.434 172 245 221
3.92353 -11.2842 375.591 174 245 221
3.89778 -8.27902 371.219 173 245 221
3.90499 -8.56614 373.559 174 246 222
3.4705 -7.24011 373.553 175 245 223
3.88497 -6.75288 371.478 173 247 222
3.4881 -6.13338 373.467 176 245 223
3.47249 -5.91865 373.642 176 245 223
3.90162 -6.09036 371.364 174 246 224
3.47317 -5.47806 373.672 175 246 223
3.45361 -4.99626 371.515 176 246 224
3.45503 -4.11977 371.573 175 247 224
3.44198 -3.46633 371.754 174 247 226
3.45622 -3.243 371.633 174 248 225
3.45687 -2.80453 371.663 175 248 225
3.04157 -1.94686 373.83 174 247 226
3.45808 -1.92736 371.723 174 247 226
3.02552 -0.607529 371.718 175 248 225
2.59708 4.22579 371.939 176 249 227
3.014 4.21062 369.853 176 249 227
2.59791 5.10469 371.987 177 249 227
3.01489 5.0846 369.9 177 249 226
2.58519 7.27284 369.942 176 249 227
2.5709 8.36685 370.158 177 249 230
2.1575 12.0881 370.141 178 249 227
2.57497 12.0292 368.074 178 249 227
2.15824 12.9643 370.202 179 249 228
2.14357 14.9388 370.455 182 251 233
2.16018 15.155 370.325 183 250 231
3.01379 21.0836 370.977 177 249 226
3.48743 25.8315 373.347 171 247 224
7.74511 53.0563 391.633 166 225 207
8.66331 54.9265 391.878 154 220 198
10.2509 63.2513 399.603 172 211 199
10.702 64.4738 399.934 160 205 189
11.7141 68.2215 402.741 155 202 187
14.9302 82.2364 414.077 155 222 200
14.9307 82.7292 414.099 157 224 201
14.9311 84.6947 414.157 159 225 202
14.9316 85.1878 414.179 159 224 202
14.9314 85.6775 414.185 158 223 201
14.4458 90.0913 414.223 157 225 202
14.4461 90.5854 414.248 157 225 202
13.9599 94.5076 414.263 160 223 204
14.3536 93.9284 411.68 160 223 204
13.9596 94.9979 414.27 158 224 203
13.9594 95.4881 414.276 158 223 202
13.9596 95.9828 414.301 159 223 203
13.8685 101.245 411.761 154 221 201
50.4393 -132.928 499.676 202 204 242
50.45 -132.365 499.768 203 205 243
50.4581 -131.794 499.831 206 204 243
50.4875 -130.095 500.071 206 204 243
50.4983 -129.531 500.164 205 204 240
50.5064 -128.959 500.226 204 203 240
50.5252 -127.823 500.379 206 204 243
50.5359 -127.258 500.47 206 205 243
50.5466 -126.693 500.559 206 204 243
50.5547 -126.121 500.625 207 204 243
50.5924 -123.844 500.931 208 203 244
50.6031 -123.278 501.022 208 203 243
11.7373 -56.6063 389.49 144 196 176
11.8092 -56.9618 391.873 144 196 176
11.3475 -55.8301 392.025 144 199 179
12.4954 -54.8279 385.164 144 200 180
10.3326 -49.8987 387.439 148 208 187
9.37197 -46.2116 385.349 152 213 192
8.92752 -44.4005 385.422 154 216 195
8.93811 -44.1576 385.311 154 216 195
9.32233 -44.1343 383.185 154 216 195
9.33269 -43.8929 383.075 154 216 195
8.9396 -43.7061 385.339 153 217 195
8.93053 -43.4995 385.497 154 217 196
8.43579 -40.9771 383.277 155 221 199
7.95973 -37.7988 381.011 158 226 203
6.1228 -26.0448 377.177 168 231 210
6.15935 -26.211 379.43 168 231 210
6.13723 -25.3681 377.085 168 231 210
5.22661 -18.3723 375.336 171 241 217
5.97349 -13.5995 367.133 171 243 220
6.00813 -13.6896 369.268 171 243 220
4.33776 -10.7718 373.493 174 245 221
4.32537 -10.5583 373.64 174 245 221
3.91063 -5.04185 373.797 174 247 223
5.13145 -4.93232 367.546 172 247 223
3.88915 -4.12382 371.654 173 248 223
3.50659 24.1915 375.467 174 248 226
7.19571 46.4713 386.528 161 226 206
14.9316 86.6605 414.213 156 225 202
15.3191 86.1304 411.63 156 225 202
