ply
format ascii 1.0
comment Kinect v1 generated
element vertex 1299
property double x
property double y
property double z
property uchar red
property uchar green
property uchar blue
end_header
0.368077 0.108535 9.65899 98 130 173
0.36912 0.16321 9.66124 96 130 178
0.369635 0.19055 9.66234 102 136 185
0.369874 0.20422 9.66285 100 133 185
0.370144 0.217891 9.66343 104 138 189
0.379146 0.238939 9.68554 94 127 180
0.379662 0.266338 9.68664 88 122 175
0.380409 0.307439 9.68822 92 127 180
0.373391 0.568173 9.70525 89 125 194
0.373654 0.581889 9.7058 81 116 185
0.373901 0.595603 9.7063 87 121 190
0.374432 0.623037 9.70738 88 121 187
0.374697 0.636756 9.70792 101 133 199
0.375173 0.664184 9.70887 93 124 189
0.37539 0.677896 9.70929 113 143 207
0.375667 0.691617 9.70985 117 146 212
0.383095 0.713411 9.72813 110 138 204
0.3764 0.732767 9.71131 111 138 203
0.377107 0.773915 9.71269 103 127 193
0.384266 0.7821 9.73041 104 128 195
0.384512 0.795841 9.7309 112 138 203
0.384771 0.809585 9.73141 114 140 203
0.384972 0.823318 9.73179 106 132 195
0.385475 0.850803 9.73278 106 132 193
0.391684 0.872647 9.74803 96 120 181
0.378073 1.11243 9.74836 144 157 199
0.384223 1.14833 9.76337 134 145 183
0.379225 1.18116 9.75049 128 140 175
0.385129 1.20338 9.76504 127 139 174
0.385539 1.2309 9.76576 129 141 175
0.380333 1.24989 9.75251 135 150 181
0.386347 1.28593 9.76717 130 147 176
0.386801 1.31346 9.76801 134 151 178
0.386973 1.3272 9.76828 134 152 180
0.431076 1.46724 9.89501 106 135 157
0.431284 1.48115 9.89537 121 152 173
0.431866 1.52286 9.89634 107 145 160
0.436609 1.54535 9.90803 121 160 175
0.436916 1.57315 9.90849 101 140 156
0.43709 1.58706 9.90875 111 150 166
0.432884 1.59239 9.89809 112 152 167
0.414087 1.60604 9.85073 114 154 167
0.443928 1.61054 9.92594 114 157 170
0.442882 1.61702 9.92312 115 159 170
0.433507 1.63411 9.89916 117 161 170
0.433119 1.60631 9.89851 101 140 155
0.43748 1.61489 9.90941 117 160 171
0.43108 2.04675 9.92568 104 144 168
0.434269 2.08287 9.9334 110 147 178
0.434335 2.09672 9.93341 108 145 177
0.43451 2.11062 9.93369 104 141 174
0.434653 2.1245 9.93389 96 133 167
0.434801 2.13839 9.93411 89 126 160
0.434922 2.15226 9.93426 93 129 163
0.43506 2.16614 9.93445 99 135 169
0.435601 2.22164 9.93519 104 135 169
0.435745 2.23552 9.9354 96 126 161
0.435861 2.24938 9.93553 92 121 156
0.435962 2.26323 9.93563 87 117 150
0.436406 2.30485 9.9363 89 117 150
0.438082 2.32652 9.94044 109 137 170
0.482048 2.42288 10.0682 96 127 163
0.480702 2.42902 10.0646 96 128 164
0.482262 2.45088 10.0685 85 116 153
0.482354 2.46487 10.0686 75 107 146
0.428332 2.60448 9.95056 118 150 205
0.428456 2.61832 9.95074 115 149 202
0.472548 2.80138 10.0786 104 140 212
0.472681 2.82242 10.079 92 128 203
0.472658 2.83629 10.0788 100 136 210
0.472795 2.8571 10.0788 99 134 205
0.472757 2.87095 10.0785 99 135 205
0.472797 2.87803 10.0788 97 134 204
0.472877 2.89196 10.0789 106 142 211
0.472921 2.90587 10.0789 95 132 201
0.472959 2.91977 10.0789 91 126 196
0.47305 2.94757 10.0789 95 131 201
0.47308 2.96146 10.0789 109 145 217
0.473064 2.97531 10.0788 105 140 210
0.461628 3.2124 10.0864 102 122 178
0.460289 3.2737 10.083 116 127 177
0.461474 3.35032 10.0855 121 128 171
0.460081 3.35629 10.0822 123 129 171
0.503385 3.54708 10.2098 129 131 161
0.503321 3.57482 10.2096 135 141 167
0.503182 3.60248 10.2093 110 120 143
0.500409 3.6212 10.2026 111 120 145
0.500346 3.63502 10.2024 116 126 147
0.499947 3.69011 10.2014 134 153 175
0.499872 3.7039 10.2013 120 141 163
0.481969 3.96984 10.1954 108 152 159
0.485545 3.99349 10.2042 119 163 172
0.485232 4.02071 10.2036 117 164 174
0.484775 4.0615 10.2028 122 173 182
0.48082 4.06493 10.1931 125 176 185
0.480763 4.07859 10.1931 111 169 183
0.480435 4.092 10.1923 106 162 176
0.480151 4.11914 10.1919 110 164 178
0.48389 4.12927 10.2011 108 163 176
0.483503 4.15631 10.2003 101 152 166
0.479349 4.17313 10.1903 112 163 176
0.479196 4.18665 10.1901 117 168 183
0.478931 4.20007 10.1896 116 165 181
0.47872 4.21353 10.1892 107 156 172
0.478518 4.22699 10.1888 89 137 153
0.478398 4.24053 10.1886 88 136 152
0.478112 4.2539 10.1881 97 146 161
0.477903 4.26734 10.1877 97 144 160
0.472726 4.28298 10.1752 103 147 164
0.476568 4.34775 10.1854 92 131 156
0.4763 4.36109 10.1849 92 131 157
0.476111 4.37449 10.1846 112 149 176
0.470912 4.38993 10.1721 90 126 154
0.470438 4.41658 10.1713 108 142 172
-0.265254 3.82433 6.74433 177 175 199
-0.289024 3.79512 6.68315 202 202 223
-0.265391 3.83345 6.74476 175 169 197
-0.289121 3.80422 6.68366 195 194 217
-0.2893 3.81322 6.684 214 211 234
-0.312668 3.78437 6.62384 195 192 215
-0.289465 3.82224 6.68438 214 210 228
-0.299623 3.8279 6.61236 150 135 150
-0.299772 3.83682 6.6128 153 137 151
-0.348175 3.84448 6.42615 219 200 204
-0.324189 3.87889 6.48641 191 175 180
-0.34684 3.86775 6.43064 211 197 207
-0.363448 3.9571 6.37731 203 204 198
-0.358844 4.08975 6.38121 166 208 180
-0.357852 4.095 6.38343 163 205 177
-0.389104 4.06559 6.32955 160 204 175
-0.360613 4.10934 6.38029 164 209 178
-0.39093 4.14842 6.33553 174 224 196
-0.362165 4.17592 6.38499 183 233 205
-0.37002 4.19468 6.39103 187 238 208
-0.367406 4.37821 6.46651 219 250 248
-0.335668 4.53767 6.58792 140 156 163
-0.341991 4.54573 6.5958 186 202 210
-0.342255 4.55394 6.59639 179 196 205
0.383601 0.485581 9.69482 84 123 183
0.383858 0.499288 9.69535 108 148 207
0.384117 0.512995 9.69588 115 153 217
0.384345 0.5267 9.69634 104 141 206
0.391765 0.534511 9.71464 104 141 207
0.384819 0.554112 9.69729 100 134 204
0.385099 0.567824 9.69787 91 126 195
0.385596 0.595241 9.69888 98 132 201
0.386109 0.622662 9.69992 87 120 187
0.38628 0.636361 9.70023 101 133 200
0.393856 0.658075 9.71881 95 127 193
0.394134 0.671813 9.71938 101 132 198
0.387266 0.691201 9.70219 110 139 204
0.386821 0.933232 9.73533 85 103 152
0.387511 0.974452 9.73663 132 147 193
0.393878 1.01021 9.75215 126 139 188
0.388626 1.04315 9.73872 132 144 195
0.389733 1.11184 9.74075 142 154 198
0.395954 1.14774 9.7559 132 143 181
0.39678 1.20275 9.75737 131 143 178
0.397208 1.23026 9.75814 146 159 193
0.441669 1.3831 9.88523 103 125 152
0.441859 1.397 9.88555 125 147 173
0.446486 1.40546 9.89706 128 151 176
0.447013 1.44718 9.89791 106 132 156
0.442699 1.45261 9.88702 103 130 153
0.442901 1.46651 9.88736 108 136 159
0.443096 1.48041 9.88769 127 158 179
0.443297 1.49431 9.88803 108 140 159
0.383601 0.485581 9.69482 84 123 183
0.383858 0.499288 9.69535 108 148 207
0.384117 0.512995 9.69588 115 153 217
0.384345 0.5267 9.69634 104 141 206
0.391765 0.534511 9.71464 104 141 207
0.384819 0.554112 9.69729 100 134 204
0.385099 0.567824 9.69787 91 126 195
0.385596 0.595241 9.69888 98 132 201
0.386109 0.622662 9.69992 87 120 187
0.38628 0.636361 9.70023 101 133 200
0.393856 0.658075 9.71881 95 127 193
0.394134 0.671813 9.71938 101 132 198
0.387266 0.691201 9.70219 110 139 204
0.386821 0.933232 9.73533 85 103 152
0.387511 0.974452 9.73663 132 147 193
0.393878 1.01021 9.75215 126 139 188
0.388626 1.04315 9.73872 132 144 195
0.389733 1.11184 9.74075 142 154 198
0.395954 1.14774 9.7559 132 143 181
0.39678 1.20275 9.75737 131 143 178
0.397208 1.23026 9.75814 146 159 193
0.441669 1.3831 9.88523 103 125 152
0.441859 1.397 9.88555 125 147 173
0.446486 1.40546 9.89706 128 151 176
0.447013 1.44718 9.89791 106 132 156
0.442699 1.45261 9.88702 103 130 153
0.442901 1.46651 9.88736 108 136 159
0.443096 1.48041 9.88769 127 158 179
0.443297 1.49431 9.88803 108 140 159
0.396522 1.70705 9.78788 130 176 196
0.440338 1.83738 9.91398 112 162 177
0.440478 1.85126 9.91417 122 170 187
0.440911 1.87909 9.91493 99 146 163
0.4412 1.90686 9.91533 81 128 141
0.444527 1.94295 9.92337 118 162 185
0.444789 1.97072 9.9237 100 141 169
0.442232 1.99022 9.91695 102 142 169
0.44283 2.04574 9.91781 107 147 171
0.446047 2.08185 9.92559 115 152 183
0.446118 2.0957 9.92561 107 144 176
0.44628 2.10958 9.92587 104 141 173
0.446425 2.12346 9.92607 98 135 169
0.483893 2.71633 10.07 93 129 183
0.484246 2.77919 10.0706 110 146 217
0.484344 2.79997 10.0705 113 149 222
0.484499 2.83489 10.0708 103 138 214
0.484615 2.85567 10.0707 93 128 201
0.484661 2.86958 10.0707 103 138 209
0.484636 2.87662 10.0708 104 139 210
0.473329 3.10014 10.0787 108 135 206
0.473344 3.11398 10.0786 115 140 211
0.473422 3.1417 10.0787 114 137 206
0.472059 3.17542 10.0753 113 136 200
0.47193 3.27196 10.0746 129 140 191
0.473337 3.27976 10.0778 128 140 191
0.515659 3.44828 10.2028 127 131 171
0.515479 3.47597 10.2023 117 124 160
0.512835 3.49492 10.1959 114 119 151
0.456083 3.68968 10.0722 97 121 140
0.458557 3.69843 10.0782 91 115 133
0.499334 3.77261 10.2 108 133 151
0.499223 3.78633 10.1998 101 128 145
0.499079 3.80003 10.1995 107 137 155
0.498735 3.84115 10.1987 102 141 158
0.498644 3.85487 10.1986 116 149 166
0.498323 3.88217 10.1979 112 153 165
0.493516 3.96759 10.1865 117 161 169
0.497167 3.99129 10.1956 119 164 174
0.496805 4.01845 10.1948 126 172 182
0.496338 4.05922 10.194 113 164 173
0.492434 4.0627 10.1845 122 173 182
0.492224 4.07621 10.1841 105 161 175
0.492018 4.08972 10.1836 94 150 164
0.491716 4.11683 10.1831 105 160 173
0.495062 4.15397 10.1916 98 150 163
0.490521 4.19776 10.1809 121 171 187
0.46959 4.45636 10.1698 91 123 152
0.468794 4.49614 10.1685 91 123 154
0.467718 4.54906 10.1667 80 109 140
0.464736 4.68055 10.1619 102 133 164
0.462839 4.75896 10.159 103 135 171
0.460804 4.83694 10.1559 97 126 170
-0.290478 3.77079 6.67864 165 168 183
-0.259041 3.8068 6.73461 146 149 167
-0.209335 3.91882 6.86539 167 158 171
-0.249883 3.90189 6.81384 101 91 107
-0.298304 3.8518 6.6167 166 152 167
-0.292097 3.89392 6.54097 189 170 178
-0.314884 3.86513 6.48329 200 179 185
-0.339559 3.88298 6.42669 241 221 235
-0.338274 3.88858 6.42946 244 225 237
-0.319025 3.91423 6.48029 231 213 225
-0.317379 3.92026 6.48381 235 217 227
-0.341291 3.88568 6.42384 237 217 230
-0.339734 3.89157 6.42717 240 221 232
-0.339879 3.9002 6.42771 233 216 223
-0.341764 3.91149 6.42538 228 214 219
-0.311934 3.9381 6.47673 228 215 220
-0.363662 3.88322 6.36983 239 224 229
-0.334182 3.90946 6.42046 239 225 230
-0.340397 3.92595 6.42918 222 210 213
-0.310525 3.95269 6.48062 211 199 202
-0.339139 3.93153 6.4319 218 207 210
-0.309174 3.9584 6.48354 208 197 200
-0.278874 3.98556 6.53573 210 200 202
-0.310864 3.96996 6.48166 207 197 199
-0.280624 3.99715 6.53374 210 200 202
-0.355142 3.91253 6.36968 204 193 195
-0.32562 3.93895 6.42029 207 196 198
-0.312621 3.97263 6.47878 198 188 190
-0.282445 3.99978 6.53073 201 191 193
-0.35673 3.91532 6.36716 201 189 192
-0.327314 3.94166 6.41755 204 192 195
-0.333651 3.96674 6.42689 213 206 206
-0.303852 3.99363 6.47809 206 199 199
-0.332456 3.97224 6.42949 210 206 204
-0.35563 3.93804 6.3713 218 211 210
-0.326139 3.96461 6.42187 211 204 203
-0.354466 3.94348 6.37383 215 211 208
-0.355962 3.95501 6.37238 210 210 205
-0.312125 4.03016 6.48528 205 211 203
-0.334365 4.00085 6.42898 205 212 203
-0.356302 3.97195 6.37346 200 208 198
-0.335258 4.04338 6.4317 207 229 212
-0.357144 4.01422 6.37627 214 236 217
-0.364822 4.02475 6.38169 201 224 206
-0.335437 4.05186 6.43226 201 224 206
-0.305715 4.07928 6.48339 198 221 203
-0.363759 4.03008 6.38404 190 213 195
-0.386327 3.99595 6.32704 206 229 210
-0.357335 4.02263 6.37679 206 229 210
-0.327915 4.04972 6.42731 203 226 207
-0.38534 4.00117 6.32922 195 218 199
-0.3881 4.01553 6.32599 169 196 176
-0.304054 4.10701 6.48904 179 207 186
-0.350618 4.0541 6.37409 187 217 197
-0.379813 4.03557 6.32494 180 213 192
-0.350802 4.06249 6.37466 184 217 197
-0.350964 4.0709 6.37528 194 230 208
-0.352636 4.08206 6.37358 182 224 197
-0.307369 4.1472 6.48762 171 212 185
-0.306265 4.15263 6.49007 171 213 186
-0.344909 4.13843 6.44266 156 199 171
-0.284124 4.20024 6.5482 172 214 187
-0.410553 4.05332 6.27704 167 213 180
-0.351938 4.11268 6.37811 183 228 195
-0.362569 4.19248 6.38618 179 230 198
-0.363179 4.21728 6.38798 170 219 188
-0.371872 4.26893 6.39647 203 243 225
-0.338421 4.41577 6.51798 211 241 238
0.347432 0.100606 9.55421 78 109 150
0.393221 0.375663 9.68313 85 121 177
0.393721 0.403059 9.68417 87 125 179
0.398261 0.918992 9.72735 84 103 154
0.398498 0.932728 9.7278 87 105 154
0.404482 0.940921 9.74258 88 104 150
0.398949 0.960194 9.72865 113 129 175
0.399178 0.973929 9.72908 126 140 186
0.405485 1.00965 9.74439 128 141 191
0.400063 1.02886 9.73073 125 137 189
0.400302 1.0426 9.73118 128 139 191
0.407656 1.14715 9.74838 127 138 176
0.452221 1.29901 9.87536 130 146 176
0.452607 1.3268 9.87602 128 145 173
0.405451 1.49993 9.77575 113 149 166
0.345695 1.57342 9.62585 113 151 166
0.406346 1.5687 9.7772 112 154 168
0.402292 1.57401 9.76696 113 154 168
0.384079 1.58767 9.72129 115 156 168
0.413113 1.59884 9.7942 116 162 174
0.413151 1.60563 9.79407 116 162 173
0.407095 1.62371 9.77844 119 164 174
0.40249 1.58776 9.7673 100 141 155
0.397459 1.59269 9.75464 97 138 151
0.406761 1.59622 9.77792 104 148 161
0.402711 1.60151 9.76769 101 145 157
0.347432 0.100606 9.55421 78 109 150
0.393221 0.375663 9.68313 85 121 177
0.393721 0.403059 9.68417 87 125 179
0.398261 0.918992 9.72735 84 103 154
0.398498 0.932728 9.7278 87 105 154
0.404482 0.940921 9.74258 88 104 150
0.398949 0.960194 9.72865 113 129 175
0.399178 0.973929 9.72908 126 140 186
0.405485 1.00965 9.74439 128 141 191
0.400063 1.02886 9.73073 125 137 189
0.400302 1.0426 9.73118 128 139 191
0.407656 1.14715 9.74838 127 138 176
0.452221 1.29901 9.87536 130 146 176
0.452607 1.3268 9.87602 128 145 173
0.405451 1.49993 9.77575 113 149 166
0.345695 1.57342 9.62585 113 151 166
0.406346 1.5687 9.7772 112 154 168
0.402292 1.57401 9.76696 113 154 168
0.384079 1.58767 9.72129 115 156 168
0.413113 1.59884 9.7942 116 162 174
0.413151 1.60563 9.79407 116 162 173
0.407095 1.62371 9.77844 119 164 174
0.40249 1.58776 9.7673 100 141 155
0.397459 1.59269 9.75464 97 138 151
0.406761 1.59622 9.77792 104 148 161
0.402711 1.60151 9.76769 101 145 157
0.450945 1.73922 9.9044 108 153 174
0.451275 1.76701 9.9049 102 148 162
0.451978 1.82259 9.90602 105 151 169
0.452086 1.83646 9.90613 117 168 183
0.455147 1.84472 9.91378 116 166 182
0.452621 1.87814 9.90698 94 141 157
0.45295 1.90591 9.90749 98 145 159
0.45632 1.94201 9.91561 114 158 181
0.45644 1.95588 9.91575 113 156 182
0.456596 1.96977 9.91598 105 146 174
0.454258 2.01697 9.90949 122 163 185
0.447181 2.20666 9.92705 101 133 166
0.44734 2.22054 9.92729 98 128 163
0.447449 2.23439 9.92742 97 127 161
0.447585 2.24826 9.92761 97 126 161
0.447748 2.26214 9.92786 92 120 154
0.449585 2.29766 9.93225 78 106 139
0.449795 2.32536 9.93248 86 114 148
0.448586 2.35909 9.92894 109 138 174
0.448745 2.37295 9.92919 107 138 174
0.450404 2.39462 9.93329 96 128 163
0.449003 2.40065 9.92955 91 123 159
0.484859 2.95996 10.0708 104 140 211
0.484855 2.97381 10.0707 108 142 213
0.485016 3.05701 10.0706 119 153 224
0.48506 3.11238 10.0704 113 139 210
0.48514 3.14008 10.0704 115 138 208
0.483718 3.17374 10.0669 118 141 205
0.471056 3.53276 10.0719 131 137 163
0.471108 3.54653 10.072 119 128 153
0.471037 3.56019 10.0718 109 119 144
0.470867 3.57377 10.0714 121 131 156
0.46827 3.59239 10.0652 126 136 157
0.511517 3.70186 10.1926 113 134 155
0.511005 3.77056 10.1914 122 147 165
0.510713 3.79793 10.1908 107 137 155
0.510463 3.82532 10.1903 111 146 163
0.510309 3.83899 10.1899 99 136 154
0.51019 3.85267 10.1897 131 166 182
0.50991 3.88 10.1891 116 158 170
0.447705 4.12446 10.0541 109 161 174
0.489961 4.22453 10.1798 101 149 165
0.488268 4.33189 10.1769 74 113 137
0.488002 4.34522 10.1765 86 125 150
0.487788 4.3586 10.1761 96 134 160
0.487524 4.37193 10.1756 111 150 176
0.482307 4.38735 10.1631 101 137 165
0.481809 4.41396 10.1623 104 139 168
0.48103 4.4538 10.161 85 118 147
0.485446 4.47833 10.1721 96 129 157
0.480187 4.49352 10.1596 94 126 157
0.479683 4.52001 10.1588 91 120 152
0.479108 4.54641 10.1578 78 107 138
0.476101 4.67782 10.1531 107 138 169
0.475748 4.69086 10.1525 100 131 162
0.475454 4.70396 10.1521 101 131 163
0.474771 4.73004 10.151 94 125 161
0.474156 4.75615 10.1501 102 134 169
0.467478 4.78259 10.1344 103 137 176
0.466808 4.80854 10.1334 96 127 170
0.47245 4.82111 10.1475 99 129 172
0.472003 4.83397 10.1468 98 127 171
0.471269 4.85982 10.1457 97 128 174
-0.282651 3.76874 6.67325 124 126 143
-0.190777 3.93566 6.86071 147 136 149
-0.307305 3.86303 6.47814 203 181 183
-0.329784 3.83471 6.42141 205 182 181
-0.308876 3.86598 6.47561 196 174 176
-0.331272 3.83771 6.41906 206 182 183
-0.331838 3.87231 6.42119 219 203 216
-0.330742 3.88649 6.4244 223 202 216
-0.332212 3.88948 6.42209 229 209 221
-0.348683 3.8791 6.35993 219 205 210
-0.347184 3.88489 6.36313 215 202 206
-0.327008 4.00725 6.42457 203 214 202
-0.349002 3.9783 6.36908 199 210 198
-0.350538 3.9811 6.36669 197 208 196
-0.342436 4.01834 6.36693 184 207 187
-0.31301 4.0453 6.41719 180 202 184
-0.341351 4.02369 6.36931 187 210 190
-0.333907 4.02155 6.3644 168 191 172
-0.364401 4.00636 6.31365 187 214 193
-0.385723 3.97794 6.25996 184 215 194
-0.406755 3.9499 6.20701 186 216 196
-0.387098 3.98082 6.25792 180 210 190
-0.366009 4.01755 6.31207 186 215 196
-0.343366 4.06032 6.36974 188 221 201
-0.386229 4.00281 6.26174 197 229 209
-0.344817 4.06316 6.36754 189 225 204
-0.36636 4.03421 6.31325 191 225 206
-0.345367 4.08827 6.3693 178 220 192
-0.34415 4.09376 6.37198 179 221 193
-0.344311 4.10215 6.37262 190 235 203
-0.345701 4.10502 6.37057 195 241 206
-0.367212 4.07581 6.31632 199 245 210
-0.345127 4.13544 6.3749 192 241 211
-0.355119 4.19028 6.38135 178 230 199
-0.355521 4.20682 6.38257 179 229 196
-0.376896 4.17698 6.32839 182 232 199
-0.354619 4.22045 6.38567 179 226 196
-0.356174 4.23153 6.38433 181 227 200
-0.355113 4.23685 6.38673 181 226 201
-0.3775 4.20157 6.33024 182 228 201
-0.376454 4.20683 6.33261 182 227 202
-0.336775 4.28933 6.43857 171 212 193
-0.304879 4.32921 6.49481 170 210 192
-0.358301 4.25885 6.38392 165 206 187
-0.326884 4.29811 6.43915 164 204 187
-0.355655 4.29107 6.39218 172 209 195
-0.352212 4.3654 6.45615 181 215 210
-0.330887 4.41345 6.51308 186 217 213
-0.30212 4.46786 6.56611 150 177 172
-0.320049 4.5164 6.57672 144 163 166
-0.304941 4.5823 6.64363 173 189 199
-0.33549 4.57607 6.59318 148 165 180
0.392272 0.162819 9.6461 97 131 180
0.392753 0.190135 9.64711 82 116 166
0.39299 0.203794 9.64761 87 121 171
0.405221 0.643948 9.71066 104 137 203
0.405507 0.65768 9.71125 104 136 203
0.405715 0.671402 9.71165 100 132 197
0.398974 0.690805 9.69484 98 127 193
0.399656 0.731913 9.69616 121 146 213
0.407547 0.781204 9.71522 109 134 201
0.407842 0.794942 9.71582 115 141 205
0.408062 0.808668 9.71624 115 142 204
0.401597 0.841566 9.69996 100 126 185
0.409408 0.891025 9.7188 91 113 169
0.40984 0.918475 9.71961 85 105 155
0.410537 1.33961 9.75348 121 142 169
0.410894 1.36708 9.75406 121 143 170
0.415602 1.38916 9.76557 138 160 186
0.41156 1.40833 9.75526 133 158 183
0.411947 1.43581 9.75592 122 149 172
0.412187 1.44957 9.75636 118 146 169
0.392272 0.162819 9.6461 97 131 180
0.392753 0.190135 9.64711 82 116 166
0.39299 0.203794 9.64761 87 121 171
0.405221 0.643948 9.71066 104 137 203
0.405507 0.65768 9.71125 104 136 203
0.405715 0.671402 9.71165 100 132 197
0.398974 0.690805 9.69484 98 127 193
0.399656 0.731913 9.69616 121 146 213
0.407547 0.781204 9.71522 109 134 201
0.407842 0.794942 9.71582 115 141 205
0.408062 0.808668 9.71624 115 142 204
0.401597 0.841566 9.69996 100 126 185
0.409408 0.891025 9.7188 91 113 169
0.40984 0.918475 9.71961 85 105 155
0.410537 1.33961 9.75348 121 142 169
0.410894 1.36708 9.75406 121 143 170
0.415602 1.38916 9.76557 138 160 186
0.41156 1.40833 9.75526 133 158 183
0.411947 1.43581 9.75592 122 149 172
0.412187 1.44957 9.75636 118 146 169
0.461924 1.68275 9.89528 115 162 174
0.4623 1.71055 9.8959 131 178 194
0.462626 1.73833 9.8964 112 159 179
0.46296 1.7661 9.89691 117 163 180
0.457686 2.08077 9.91746 133 170 201
0.457883 2.09467 9.9178 99 136 168
0.458024 2.10854 9.918 96 133 166
0.458151 2.12241 9.91817 100 136 171
0.458317 2.13629 9.91842 99 135 169
0.458627 2.17784 9.91875 89 124 156
0.459089 2.21945 9.91946 106 137 170
0.459246 2.23332 9.9197 100 130 164
0.459347 2.24716 9.91981 91 121 154
0.451355 2.54664 9.93419 107 139 189
0.451441 2.56045 9.93429 116 148 199
0.451776 2.60191 9.93474 98 131 184
0.451846 2.62946 9.93467 87 120 174
0.496363 2.889 10.0625 94 130 199
0.496465 2.91679 10.0625 90 124 194
0.496465 2.94451 10.0623 96 131 201
0.496561 2.95843 10.0625 102 138 209
0.496608 2.97231 10.0625 109 144 215
0.496569 2.99997 10.0622 109 140 212
0.484865 3.34685 10.0689 131 138 182
0.483523 3.35287 10.0658 135 140 185
0.483376 3.36652 10.0654 126 130 174
0.483294 3.40774 10.0651 129 132 172
0.483198 3.42142 10.0649 126 132 171
0.482956 3.4762 10.0642 122 125 157
0.523456 3.65856 10.1846 118 132 156
0.523289 3.6861 10.1842 117 137 159
0.523165 3.69983 10.1839 111 132 153
0.502208 4.18189 10.1725 133 183 198
0.501899 4.19526 10.1718 130 181 196
0.501738 4.20875 10.1716 128 178 194
0.501544 4.22221 10.1712 116 165 181
0.50136 4.23567 10.1709 114 162 179
0.501144 4.24909 10.1706 116 165 180
0.500958 4.26254 10.1703 104 151 167
0.495653 4.27807 10.1575 101 145 163
0.494993 4.31821 10.1564 63 105 127
0.499723 4.32939 10.1681 72 113 135
0.49941 4.34268 10.1675 87 129 151
0.49441 4.3448 10.1553 92 132 156
0.498987 4.36943 10.1668 101 139 164
0.491525 4.49085 10.1505 97 129 160
3.53951 8.10372 16.6502 37 55 66
3.43827 7.98353 16.3836 43 60 71
-0.274115 3.83614 6.67451 229 217 230
-0.323191 3.88443 6.4194 214 193 207
-0.338687 3.8968 6.36127 246 234 237
-0.34003 3.89986 6.35925 247 235 237
-0.340183 3.90838 6.35981 243 231 234
-0.340692 3.93385 6.36141 226 218 218
-0.340882 3.94231 6.36191 213 207 205
-0.34307 3.979 6.36179 224 234 224
-0.341875 3.99309 6.3653 229 241 229
-0.359836 4.07365 6.31148 198 247 218
-0.367817 4.1006 6.31802 198 247 218
-0.308235 4.63402 6.64465 190 210 227
-0.330251 4.60064 6.58776 204 224 241
-0.269718 4.71914 6.77012 118 141 155
-0.294022 4.68698 6.70882 121 144 160
-0.316343 4.65292 6.65097 122 144 161
0.361758 0.262895 9.55276 85 119 171
0.353809 0.282597 9.53315 97 131 183
0.362517 0.303521 9.55436 95 128 180
0.363003 0.330606 9.55537 89 122 177
0.405803 0.430149 9.67757 90 127 187
0.406292 0.457535 9.67857 96 135 195
0.406816 0.484927 9.67965 81 122 180
0.407295 0.512315 9.68062 77 115 175
0.408039 0.553402 9.68213 87 122 188
0.408318 0.567103 9.68271 89 124 190
0.408807 0.594496 9.68369 92 127 193
0.409309 0.621893 9.68471 92 125 192
0.416891 0.643562 9.70318 116 149 215
0.417066 0.657273 9.7035 110 142 209
0.41728 0.67099 9.70391 102 135 199
0.410489 0.690379 9.68703 96 125 191
0.41071 0.704074 9.68746 107 135 201
0.416105 0.940401 9.7349 89 105 152
0.41774 1.05033 9.73787 131 142 194
0.418228 1.07783 9.7388 146 156 207
0.413033 1.11067 9.72559 133 145 189
0.419205 1.14653 9.74052 127 138 176
0.419482 1.16029 9.74106 124 136 170
0.419676 1.17403 9.7414 123 135 168
0.420346 1.21526 9.74262 142 155 187
0.420726 1.24274 9.74327 146 161 192
0.471485 1.5152 9.88391 105 141 158
0.471856 1.54299 9.88453 119 158 172
0.467827 1.56224 9.87425 118 158 172
0.473129 1.64024 9.8866 115 160 173
0.361758 0.262895 9.55276 85 119 171
0.353809 0.282597 9.53315 97 131 183
0.362517 0.303521 9.55436 95 128 180
0.363003 0.330606 9.55537 89 122 177
0.405803 0.430149 9.67757 90 127 187
0.406292 0.457535 9.67857 96 135 195
0.406816 0.484927 9.67965 81 122 180
0.407295 0.512315 9.68062 77 115 175
0.408039 0.553402 9.68213 87 122 188
0.408318 0.567103 9.68271 89 124 190
0.408807 0.594496 9.68369 92 127 193
0.409309 0.621893 9.68471 92 125 192
0.416891 0.643562 9.70318 116 149 215
0.417066 0.657273 9.7035 110 142 209
0.41728 0.67099 9.70391 102 135 199
0.410489 0.690379 9.68703 96 125 191
0.41071 0.704074 9.68746 107 135 201
0.416105 0.940401 9.7349 89 105 152
0.41774 1.05033 9.73787 131 142 194
0.418228 1.07783 9.7388 146 156 207
0.413033 1.11067 9.72559 133 145 189
0.419205 1.14653 9.74052 127 138 176
0.419482 1.16029 9.74106 124 136 170
0.419676 1.17403 9.7414 123 135 168
0.420346 1.21526 9.74262 142 155 187
0.420726 1.24274 9.74327 146 161 192
0.471485 1.5152 9.88391 105 141 158
0.471856 1.54299 9.88453 119 158 172
0.467827 1.56224 9.87425 118 158 172
0.473129 1.64024 9.8866 115 160 173
0.464695 1.90497 9.89967 104 151 165
0.468036 1.94103 9.90769 116 160 184
0.468128 1.95488 9.90776 119 162 188
0.468362 1.9688 9.90819 114 155 183
0.466021 2.01599 9.90173 115 156 177
0.468949 2.03811 9.90889 103 144 167
0.469178 2.05202 9.9093 108 145 174
0.469453 2.07976 9.90969 138 175 206
0.469604 2.09363 9.90992 113 150 182
0.469832 2.12133 9.91019 92 129 162
0.47005 2.13523 9.91057 85 122 156
0.470391 2.17678 9.91098 95 129 162
0.470658 2.20449 9.91135 97 129 164
0.470748 2.21832 9.91143 110 141 174
0.470936 2.2322 9.91175 107 138 170
0.472638 2.25384 9.91592 94 123 156
0.460345 2.35794 9.92114 99 128 164
0.460465 2.37178 9.92131 114 144 181
0.462051 2.3934 9.92522 109 139 175
0.462341 2.43488 9.92553 82 114 153
0.462505 2.4625 9.92568 78 109 150
0.462686 2.49014 9.92587 86 117 161
0.462892 2.51777 9.92612 118 149 196
0.46304 2.54537 9.92624 121 153 203
0.463073 2.55915 9.9262 123 155 206
0.463185 2.57296 9.92635 111 144 196
0.507314 2.68572 10.0536 101 133 188
0.507443 2.71358 10.0537 91 123 178
0.507579 2.72755 10.054 97 130 186
0.507669 2.75537 10.054 95 133 198
0.507744 2.77635 10.0542 92 130 200
0.507842 2.79711 10.0541 107 144 217
0.50792 2.83196 10.0542 91 127 203
0.508121 2.85277 10.0543 94 129 202
0.508021 2.87362 10.0542 106 141 212
0.508085 2.88752 10.0542 107 143 213
0.508093 2.90138 10.0541 120 154 225
0.508153 2.91528 10.0542 106 140 210
0.508192 2.943 10.0541 93 127 197
0.496747 3.08311 10.0622 116 146 219
0.496749 3.11076 10.0621 118 143 216
0.496736 3.13838 10.0619 116 138 211
0.495402 3.1721 10.0587 121 144 209
0.495329 3.19965 10.0584 108 130 188
0.495305 3.22722 10.0582 108 124 178
0.495289 3.25478 10.0581 117 129 182
0.496615 3.2763 10.0611 126 137 189
0.49511 3.30977 10.0575 125 134 184
0.478878 3.71277 10.0546 122 146 165
0.520849 3.94608 10.1792 102 147 153
0.520311 3.98683 10.1781 114 158 168
0.520004 4.01401 10.1775 134 181 193
0.515632 4.04454 10.1672 121 171 181
0.515491 4.05811 10.1669 112 163 172
0.515303 4.07163 10.1666 87 143 156
0.514995 4.08504 10.1659 75 130 144
0.514666 4.1121 10.1654 94 148 161
0.51448 4.1256 10.165 107 160 173
0.518172 4.14934 10.1742 98 150 163
0.513833 4.16599 10.1638 108 160 173
0.513702 4.17952 10.1637 123 176 190
0.513429 4.19291 10.1631 128 180 195
-1.92163 1.72691 3.05746 82 98 111
0.49099 4.51731 10.1497 93 122 154
0.487915 4.64873 10.1448 78 108 140
0.486667 4.70107 10.1429 93 122 154
0.48597 4.72712 10.1418 96 127 162
0.485287 4.75315 10.1407 97 128 164
0.484975 4.76619 10.1403 97 130 166
0.479089 4.76677 10.126 96 130 166
0.478748 4.77974 10.1255 97 130 170
0.478379 4.79268 10.1249 92 125 166
0.47802 4.80562 10.1244 89 120 163
0.483604 4.81811 10.1383 90 120 163
0.483348 4.83117 10.138 96 126 170
0.482548 4.85694 10.1367 92 123 169
0.476641 4.85736 10.1224 87 118 163
0.476219 4.87019 10.1217 64 95 137
-0.310135 3.909 6.40861 239 226 230
-0.331192 3.89475 6.35638 242 232 235
-0.332582 3.89777 6.35428 242 230 233
-0.340725 4.20233 6.37279 188 239 205
-0.362123 4.17261 6.31886 189 237 209
-0.317781 4.466 6.50719 145 163 166
-0.362284 4.40547 6.39543 145 162 165
-0.31209 4.5442 6.57635 169 185 194
-0.321561 4.60372 6.58551 197 216 232
-0.28764 4.75146 6.77958 105 124 139
0.362379 0.133763 9.51956 92 123 170
0.362912 0.160775 9.52071 102 136 185
0.37152 0.167924 9.54169 96 130 179
0.372706 0.235589 9.54418 97 131 184
0.416399 0.375098 9.66794 89 124 181
0.417076 0.416151 9.66931 99 137 194
0.418352 0.484593 9.67194 64 105 164
0.418839 0.511971 9.67293 70 107 167
0.419145 0.525667 9.67358 80 115 177
0.420375 0.849372 9.70996 101 127 187
0.420586 0.863089 9.71035 92 117 176
0.420755 0.876799 9.71065 90 115 173
0.421016 0.890528 9.71116 90 111 168
0.421427 0.917961 9.71191 86 106 156
0.42175 0.931704 9.71258 97 115 165
0.427732 0.939884 9.72726 96 111 158
0.422445 0.972874 9.7139 124 138 185
0.423332 1.02776 9.71555 128 140 193
0.429811 1.07725 9.73105 135 145 198
0.476279 1.3393 9.86078 133 151 180
0.390044 1.57972 9.66352 117 157 172
0.43054 1.63583 9.76335 111 157 170
0.436296 1.5972 9.7785 116 162 175
0.436356 1.60399 9.77843 117 163 176
0.362379 0.133763 9.51956 92 123 170
0.362912 0.160775 9.52071 102 136 185
0.37152 0.167924 9.54169 96 130 179
0.372706 0.235589 9.54418 97 131 184
0.416399 0.375098 9.66794 89 124 181
0.417076 0.416151 9.66931 99 137 194
0.418352 0.484593 9.67194 64 105 164
0.418839 0.511971 9.67293 70 107 167
0.419145 0.525667 9.67358 80 115 177
0.420375 0.849372 9.70996 101 127 187
0.420586 0.863089 9.71035 92 117 176
0.420755 0.876799 9.71065 90 115 173
0.421016 0.890528 9.71116 90 111 168
0.421427 0.917961 9.71191 86 106 156
0.42175 0.931704 9.71258 97 115 165
0.427732 0.939884 9.72726 96 111 158
0.422445 0.972874 9.7139 124 138 185
0.423332 1.02776 9.71555 128 140 193
0.429811 1.07725 9.73105 135 145 198
0.476279 1.3393 9.86078 133 151 180
0.390044 1.57972 9.66352 117 157 172
0.43054 1.63583 9.76335 111 157 170
0.436296 1.5972 9.7785 116 162 175
0.436356 1.60399 9.77843 117 163 176
0.43107 1.67704 9.76421 110 156 171
0.474737 1.76523 9.8892 120 168 184
0.475559 1.83463 9.89046 115 165 181
0.47609 1.87627 9.89131 97 144 160
0.479697 1.94003 9.89967 115 159 182
0.472039 2.35677 9.91323 111 140 176
0.473644 2.39215 9.91704 112 142 179
0.473981 2.43364 9.91748 90 122 160
0.518804 2.62864 10.0453 116 150 202
0.518912 2.65649 10.0453 91 124 177
0.519026 2.68433 10.0454 106 138 194
0.519181 2.71219 10.0455 88 120 177
0.519306 2.72615 10.0457 105 138 196
0.508361 3.02616 10.054 124 154 228
0.508373 3.05382 10.0539 121 154 227
0.508361 3.08146 10.0538 131 162 233
0.508429 3.13677 10.0537 124 146 220
0.507056 3.17044 10.0504 119 143 209
0.494516 3.47432 10.0557 117 119 152
0.494288 3.52903 10.0552 123 129 156
0.494224 3.54269 10.055 123 131 158
0.537305 3.73427 10.1814 139 162 180
0.53418 3.76635 10.1739 115 140 158
0.533873 3.79369 10.1733 105 134 152
0.533685 3.8211 10.1729 108 142 159
0.533537 3.83476 10.1726 108 144 162
0.533406 3.84842 10.1724 117 152 169
0.510858 4.34019 10.1587 98 139 162
0.510348 4.36685 10.1578 81 120 145
0.509928 4.39356 10.1572 105 142 170
0.504556 4.40879 10.1444 104 139 167
0.503733 4.44855 10.143 93 127 156
0.502829 4.48817 10.1415 94 126 156
0.502307 4.51462 10.1407 93 122 153
0.501778 4.54104 10.1399 71 101 130
0.499889 4.61982 10.1369 85 116 145
0.492992 4.65981 10.121 97 127 157
0.49792 4.69824 10.1339 85 114 146
0.497299 4.72436 10.133 98 128 163
0.496643 4.75041 10.132 91 122 158
0.496192 4.76329 10.1312 87 119 155
0.490319 4.76391 10.117 86 119 155
0.489856 4.77674 10.1162 86 118 159
0.489537 4.78973 10.1158 85 117 158
0.48918 4.80266 10.1152 87 118 160
0.494532 4.82821 10.1289 95 124 168
0.493726 4.85397 10.1276 95 127 172
0.487415 4.86724 10.1127 82 112 154
-0.209861 3.86376 6.78506 164 156 175
-0.234172 3.8341 6.72327 185 176 196
-0.267771 3.8098 6.66456 187 177 194
-0.267872 3.81887 6.66508 163 149 163
-0.276744 3.83948 6.59738 199 183 192
-0.246092 3.89321 6.65275 205 183 195
-0.2695 3.86406 6.59349 191 169 179
-0.292949 3.85288 6.53589 212 189 200
-0.291437 3.85878 6.53911 202 181 192
-0.291599 3.86758 6.53957 190 167 180
-0.293705 3.86183 6.46543 244 216 216
-0.361373 3.84642 6.30286 219 204 210
-0.332106 3.87221 6.35265 236 222 228
-0.325943 3.93815 6.35213 231 223 223
-0.34946 3.99375 6.30334 193 219 202
-0.320367 4.02027 6.35268 205 231 214
-0.370835 3.96548 6.24984 204 231 214
-0.342088 3.99163 6.29848 216 243 226
-0.349403 4.25395 6.38131 174 215 196
-0.350901 4.25659 6.37906 169 210 191
-0.305615 4.35405 6.49654 180 216 203
-0.327604 4.32278 6.4409 172 209 195
-0.328901 4.32566 6.43908 182 218 206
-0.314444 4.57122 6.57584 145 162 176
0.428895 0.670586 9.69633 103 136 200
0.422041 0.68996 9.67935 102 132 197
0.422276 0.703653 9.67981 100 127 193
0.429813 0.72544 9.69812 112 136 207
0.430281 0.75287 9.69903 124 146 216
0.430763 0.780303 9.69997 103 127 193
0.431222 0.807733 9.70086 96 124 185
0.431909 0.848879 9.70218 110 136 195
0.432152 0.862597 9.70265 105 130 189
0.432349 0.876306 9.703 102 127 185
0.432574 0.890022 9.70343 94 116 172
0.432824 0.903742 9.70391 81 102 155
0.433042 0.917456 9.70432 87 106 157
0.433276 0.931173 9.70477 94 112 161
0.439271 0.93935 9.71944 100 116 162
0.433948 0.97232 9.70603 123 137 185
0.434442 0.999763 9.70699 139 152 203
0.43466 1.01348 9.70739 123 135 187
0.4349 1.0272 9.70784 129 141 194
0.435057 1.0409 9.7081 137 148 201
0.43883 1.38773 9.75014 127 150 175
0.434727 1.40687 9.73975 144 169 194
0.435184 1.43435 9.74058 136 163 186
0.435387 1.44809 9.74093 113 142 164
0.439764 1.45643 9.7517 112 141 163
0.440116 1.48391 9.75228 105 139 157
0.440258 1.49763 9.75248 126 162 179
0.440688 1.52513 9.75325 129 168 182
0.401674 1.57896 9.6562 113 153 170
0.441639 1.59382 9.75485 121 166 181
0.437534 1.59909 9.74458 120 163 179
0.428895 0.670586 9.69633 103 136 200
0.422041 0.68996 9.67935 102 132 197
0.422276 0.703653 9.67981 100 127 193
0.429813 0.72544 9.69812 112 136 207
0.430281 0.75287 9.69903 124 146 216
0.430763 0.780303 9.69997 103 127 193
0.431222 0.807733 9.70086 96 124 185
0.431909 0.848879 9.70218 110 136 195
0.432152 0.862597 9.70265 105 130 189
0.432349 0.876306 9.703 102 127 185
0.432574 0.890022 9.70343 94 116 172
0.432824 0.903742 9.70391 81 102 155
0.433042 0.917456 9.70432 87 106 157
0.433276 0.931173 9.70477 94 112 161
0.439271 0.93935 9.71944 100 116 162
0.433948 0.97232 9.70603 123 137 185
0.434442 0.999763 9.70699 139 152 203
0.43466 1.01348 9.70739 123 135 187
0.4349 1.0272 9.70784 129 141 194
0.435057 1.0409 9.7081 137 148 201
0.43883 1.38773 9.75014 127 150 175
0.434727 1.40687 9.73975 144 169 194
0.435184 1.43435 9.74058 136 163 186
0.435387 1.44809 9.74093 113 142 164
0.439764 1.45643 9.7517 112 141 163
0.440116 1.48391 9.75228 105 139 157
0.440258 1.49763 9.75248 126 162 179
0.440688 1.52513 9.75325 129 168 182
0.401674 1.57896 9.6562 113 153 170
0.441639 1.59382 9.75485 121 166 181
0.437534 1.59909 9.74458 120 163 179
0.485749 1.70883 9.88023 102 149 165
0.486041 1.73656 9.88064 108 156 174
0.486216 1.75044 9.88092 114 161 178
0.48644 1.76434 9.88132 120 168 185
0.437085 1.94599 9.77626 112 154 176
0.434423 1.95156 9.76948 114 155 177
0.437828 2.01458 9.77735 97 137 162
0.481542 2.12028 9.90231 93 129 164
0.481673 2.13413 9.90249 86 122 157
0.482125 2.17571 9.90317 101 136 167
0.48216 2.18952 9.90311 89 123 153
0.482338 2.20339 9.90341 100 132 165
0.482393 2.2172 9.90341 115 146 181
0.482603 2.23108 9.90378 115 146 179
0.484252 2.25267 9.90781 97 128 161
0.484538 2.29416 9.9081 77 105 137
0.484787 2.32183 9.90845 103 131 166
0.483413 2.32791 9.90482 101 129 164
0.483699 2.35559 9.90526 107 136 174
0.485149 2.36334 9.90894 115 143 180
0.475766 2.74398 9.91947 102 141 212
0.519787 2.89988 10.0459 117 151 223
0.519792 2.91373 10.0458 110 144 214
0.519893 2.94149 10.0459 104 139 209
0.519911 2.95534 10.0459 102 138 210
0.51987 2.96915 10.0457 104 139 210
0.519953 2.99687 10.0457 114 147 219
0.52002 3.02457 10.0457 129 159 233
0.519989 3.0522 10.0455 126 158 233
0.520063 3.07988 10.0456 120 152 227
0.51866 3.09976 10.0422 120 149 222
0.508305 3.27461 10.0529 114 125 177
0.506742 3.30803 10.0491 116 125 175
0.508105 3.34331 10.0522 133 140 186
0.506567 3.34918 10.0486 138 144 188
0.506551 3.36292 10.0486 126 130 176
0.506451 3.39034 10.0483 133 134 177
0.506387 3.40403 10.0481 129 132 173
0.506385 3.41777 10.0481 131 136 175
0.503668 3.45015 10.0416 124 128 162
0.506139 3.4725 10.0474 128 131 163
0.505967 3.49981 10.047 102 104 134
0.505832 3.52712 10.0467 125 131 158
0.546717 3.65455 10.1673 112 127 151
0.546451 3.68198 10.1667 109 128 150
0.548934 3.73222 10.1727 141 164 183
0.489247 3.83247 10.0438 121 161 175
0.488053 3.94018 10.0415 113 159 169
0.487653 3.96697 10.0408 119 166 178
0.487156 4.0072 10.0399 122 173 184
0.483307 4.01068 10.0306 113 164 175
0.482984 4.03745 10.0301 96 150 163
0.52443 4.21734 10.1535 131 181 197
0.524203 4.23075 10.1531 118 167 182
0.523922 4.2441 10.1526 118 164 181
0.523645 4.25745 10.1521 113 158 175
0.522432 4.32426 10.15 82 123 145
0.522193 4.33761 10.1496 87 128 151
0.521749 4.36431 10.149 67 107 133
0.521196 4.39088 10.148 106 144 171
0.515812 4.40611 10.1352 104 141 168
0.515023 4.44588 10.134 100 136 164
0.514168 4.48553 10.1326 88 121 151
0.51304 4.5383 10.1309 65 94 124
0.51212 4.57773 10.1294 70 101 129
0.51115 4.61704 10.1279 74 105 134
0.510221 4.65633 10.1265 96 126 157
-0.224826 3.838 6.72107 173 159 179
-0.22651 3.84106 6.71824 174 159 176
-0.276432 3.82167 6.59649 136 114 125
-0.245269 3.84845 6.65056 135 112 121
-0.299545 3.79316 6.53786 122 99 109
-0.268747 3.81957 6.59116 121 97 105
-0.267402 3.84345 6.59558 148 130 139
-0.261845 3.86192 6.58815 188 165 173
-0.263926 3.86443 6.58455 190 167 176
-0.283798 3.85669 6.5339 178 152 161
-0.285624 3.86837 6.53164 176 149 158
-0.33165 3.84658 6.35102 227 203 215
-0.279659 3.90959 6.45814 217 194 205
-0.302173 3.88112 6.40195 228 205 216
-0.324854 3.87862 6.34816 235 215 229
-0.325309 3.90417 6.34985 226 214 219
-0.318547 3.936 6.34712 235 229 230
-0.326295 3.95507 6.35322 227 225 223
-0.326492 3.96349 6.35373 229 233 228
-0.328208 3.97474 6.35191 239 248 242
-0.342257 3.99998 6.29908 212 241 223
-0.343679 4.00284 6.29698 209 239 221
-0.344568 4.04444 6.29998 214 251 231
-0.343737 4.06645 6.30381 207 251 227
-0.34645 4.12711 6.30611 179 232 200
-0.353089 4.15107 6.31461 192 242 211
-0.324196 4.17846 6.36372 192 242 211
-0.354368 4.15399 6.31282 192 241 212
-0.325562 4.18131 6.36176 192 241 212
-0.341765 4.24351 6.37589 182 224 206
-0.312714 4.27157 6.42553 180 221 203
-0.359988 4.3704 6.3948 174 202 193
-0.301859 4.42847 6.49481 193 220 211
0.373068 0.0930837 9.5105 90 121 163
0.425485 0.094027 9.62029 103 134 176
0.373287 0.106581 9.51097 83 114 158
0.425706 0.107665 9.62076 97 128 172
0.425967 0.121304 9.62132 84 115 160
0.426469 0.148583 9.62239 95 126 174
0.384135 0.235364 9.53664 95 128 181
0.384369 0.248893 9.53714 86 120 172
0.385361 0.303013 9.53921 90 123 177
0.385813 0.330072 9.54013 92 124 181
0.386829 0.384204 9.54225 97 132 188
0.430642 0.525313 9.66579 88 124 185
0.431143 0.552682 9.66681 89 124 189
0.431414 0.56637 9.66736 95 131 196
0.431928 0.593744 9.6684 85 119 185
0.432113 0.607421 9.66875 93 126 193
0.43306 0.662162 9.67062 88 119 184
0.44063 0.683875 9.68895 107 139 204
0.441135 0.711297 9.68996 94 123 188
0.436223 1.10949 9.71028 128 140 185
0.44262 1.15904 9.72553 126 137 170
0.442904 1.17279 9.72609 125 138 169
0.437395 1.17809 9.71246 120 134 165
0.443482 1.21397 9.72709 128 142 173
0.443901 1.24143 9.72784 146 161 192
0.444284 1.26888 9.7285 142 157 187
0.444764 1.29636 9.72939 130 145 176
0.445154 1.32381 9.73007 135 153 182
0.373068 0.0930837 9.5105 90 121 163
0.425485 0.094027 9.62029 103 134 176
0.373287 0.106581 9.51097 83 114 158
0.425706 0.107665 9.62076 97 128 172
0.425967 0.121304 9.62132 84 115 160
0.426469 0.148583 9.62239 95 126 174
0.384135 0.235364 9.53664 95 128 181
0.384369 0.248893 9.53714 86 120 172
0.385361 0.303013 9.53921 90 123 177
0.385813 0.330072 9.54013 92 124 181
0.386829 0.384204 9.54225 97 132 188
0.430642 0.525313 9.66579 88 124 185
0.431143 0.552682 9.66681 89 124 189
0.431414 0.56637 9.66736 95 131 196
0.431928 0.593744 9.6684 85 119 185
0.432113 0.607421 9.66875 93 126 193
0.43306 0.662162 9.67062 88 119 184
0.44063 0.683875 9.68895 107 139 204
0.441135 0.711297 9.68996 94 123 188
0.436223 1.10949 9.71028 128 140 185
0.44262 1.15904 9.72553 126 137 170
0.442904 1.17279 9.72609 125 138 169
0.437395 1.17809 9.71246 120 134 165
0.443482 1.21397 9.72709 128 142 173
0.443901 1.24143 9.72784 146 161 192
0.444284 1.26888 9.7285 142 157 187
0.444764 1.29636 9.72939 130 145 176
0.445154 1.32381 9.73007 135 153 182
0.4925 2.04994 9.89333 92 129 158
0.492697 2.06382 9.89367 108 145 175
0.492817 2.07766 9.89382 135 172 204
0.492924 2.0915 9.89394 112 149 182
0.493186 2.1192 9.8943 97 133 168
0.493551 2.16072 9.89477 113 149 181
0.493678 2.17457 9.89495 105 141 170
0.493854 2.18843 9.89524 91 126 155
0.493954 2.20225 9.89534 109 143 176
0.494105 2.2161 9.89558 125 157 190
0.49425 2.22995 9.8958 126 158 192
0.495872 2.25152 9.89975 108 138 172
0.494689 2.28525 9.89633 91 120 151
0.485725 2.45998 9.90947 84 114 156
0.486 2.48763 9.9099 85 114 161
0.486197 2.51524 9.91014 115 146 195
0.48631 2.5428 9.91018 122 155 206
0.486306 2.55654 9.91005 135 169 220
0.486448 2.57036 9.91028 126 160 211
0.486628 2.59794 9.9105 110 143 197
0.531188 2.79419 10.0374 90 128 202
0.531282 2.82901 10.0376 103 141 216
0.531474 2.8498 10.0378 88 123 197
0.531512 2.86367 10.0378 89 125 196
0.531365 2.87062 10.0376 94 129 200
0.531465 2.88453 10.0377 103 138 209
0.531456 2.89837 10.0376 114 149 220
0.518585 3.1687 10.0418 115 138 205
0.518571 3.19627 10.0416 98 119 180
0.518492 3.20999 10.0414 106 126 184
0.518542 3.22381 10.0415 128 145 200
0.518454 3.23752 10.0412 123 138 190
0.519849 3.27283 10.0443 118 130 183
0.518283 3.30623 10.0406 112 121 172
0.519758 3.34158 10.044 123 130 175
0.518204 3.34743 10.0404 122 128 173
0.518132 3.36113 10.0402 131 135 182
0.501697 3.72221 10.0372 121 146 164
0.540965 4.14445 10.1562 103 154 169
0.536618 4.1611 10.1459 95 146 161
0.536478 4.17461 10.1457 96 148 163
0.536229 4.18801 10.1453 114 167 181
0.536033 4.20145 10.1449 126 178 193
0.535779 4.21484 10.1445 118 168 184
0.535589 4.22827 10.1442 107 155 171
0.535261 4.24158 10.1435 109 156 172
0.535046 4.25498 10.1432 115 160 178
0.501028 4.77383 10.1071 80 112 152
0.500676 4.78677 10.1066 82 114 155
0.500332 4.79972 10.1061 88 119 162
0.505611 4.82515 10.1195 92 122 166
0.515569 4.8608 10.1087 30 61 102
-1.38166 2.6637 4.66852 41 61 99
-1.39773 2.66493 4.64241 58 72 109
-0.273681 3.76526 6.59705 148 140 160
-0.305889 3.78441 6.4739 161 140 146
-0.275363 3.81057 6.52639 183 160 166
-0.336403 4.06427 6.29895 210 254 232
-0.362349 4.18078 6.31943 197 243 219
-0.333545 4.20833 6.36853 202 248 224
-0.332445 4.21368 6.37099 194 238 215
-0.297915 4.56379 6.56813 166 182 192
-0.319902 4.53108 6.5121 165 180 190
-0.298495 4.58005 6.56931 158 176 186
-0.306555 4.59877 6.57551 141 160 172
-0.285884 4.63467 6.63003 155 175 189
-0.306833 4.6069 6.57613 160 179 192
-0.286148 4.64287 6.63069 162 182 196
0.394321 0.167528 9.52651 102 134 186
0.394811 0.194571 9.52754 97 129 181
0.396022 0.262184 9.53008 86 120 175
0.396757 0.302758 9.53161 86 119 175
0.440138 0.415543 9.65395 110 146 205
0.440397 0.42922 9.65449 118 156 216
0.440666 0.442898 9.65505 109 147 208
0.441145 0.470249 9.65602 80 121 181
0.44162 0.497601 9.65698 80 121 180
0.442173 0.524963 9.65812 96 131 193
0.442679 0.552322 9.65915 87 123 186
0.442877 0.565995 9.65953 98 132 197
0.443406 0.593358 9.66061 86 120 186
0.443875 0.620715 9.66153 85 118 185
0.444117 0.889515 9.69569 102 124 180
0.444346 0.903225 9.69613 89 110 163
0.450826 0.938821 9.71168 101 117 163
0.445555 0.971792 9.69845 126 140 188
0.445698 0.985484 9.69867 143 157 207
0.445999 0.999211 9.69928 140 153 204
0.446183 1.01291 9.6996 126 139 191
0.446651 1.04034 9.70049 141 152 206
0.45294 1.07607 9.71556 126 136 189
0.447838 1.10891 9.70272 127 139 184
0.453731 1.13096 9.71696 125 136 177
0.454177 1.15842 9.71778 122 134 165
0.448956 1.17746 9.70477 115 129 158
0.459361 1.60229 9.76243 128 175 187
0.453506 1.62044 9.74751 116 162 178
0.453094 1.59296 9.74679 123 167 182
0.449069 1.59826 9.73676 119 162 179
0.394321 0.167528 9.52651 102 134 186
0.394811 0.194571 9.52754 97 129 181
0.396022 0.262184 9.53008 86 120 175
0.396757 0.302758 9.53161 86 119 175
0.440138 0.415543 9.65395 110 146 205
0.440397 0.42922 9.65449 118 156 216
0.440666 0.442898 9.65505 109 147 208
0.441145 0.470249 9.65602 80 121 181
0.44162 0.497601 9.65698 80 121 180
0.442173 0.524963 9.65812 96 131 193
0.442679 0.552322 9.65915 87 123 186
0.442877 0.565995 9.65953 98 132 197
0.443406 0.593358 9.66061 86 120 186
0.443875 0.620715 9.66153 85 118 185
0.444117 0.889515 9.69569 102 124 180
0.444346 0.903225 9.69613 89 110 163
0.450826 0.938821 9.71168 101 117 163
0.445555 0.971792 9.69845 126 140 188
0.445698 0.985484 9.69867 143 157 207
0.445999 0.999211 9.69928 140 153 204
0.446183 1.01291 9.6996 126 139 191
0.446651 1.04034 9.70049 141 152 206
0.45294 1.07607 9.71556 126 136 189
0.447838 1.10891 9.70272 127 139 184
0.453731 1.13096 9.71696 125 136 177
0.454177 1.15842 9.71778 122 134 165
0.448956 1.17746 9.70477 115 129 158
0.459361 1.60229 9.76243 128 175 187
0.453506 1.62044 9.74751 116 162 178
0.453094 1.59296 9.74679 123 167 182
0.449069 1.59826 9.73676 119 162 179
0.454223 1.67534 9.74868 117 164 180
0.498237 1.77729 9.87356 119 170 187
0.498627 1.80505 9.87422 95 148 164
0.498935 1.83277 9.87469 108 158 173
0.499436 1.87437 9.87547 104 153 169
0.502592 1.89648 9.88312 114 160 176
0.499875 1.91593 9.87611 107 153 170
0.500591 1.97139 9.87728 99 140 161
0.495305 2.35438 9.89719 108 135 175
0.496747 2.36212 9.90085 113 141 180
0.496864 2.3897 9.90088 106 134 174
0.497243 2.43117 9.90143 98 128 169
0.497427 2.47252 9.90151 95 125 170
0.497544 2.48633 9.90169 98 128 175
0.497694 2.5139 9.90182 118 149 198
0.497867 2.54148 9.90201 100 133 184
0.497939 2.55525 9.90207 106 141 192
0.497986 2.56901 9.90207 103 137 191
0.498051 2.58278 9.90212 108 143 197
0.542279 2.65372 10.0288 99 132 187
0.542514 2.70935 10.0289 93 125 187
0.542569 2.7303 10.0291 97 132 199
0.542737 2.74427 10.0294 102 140 206
0.542659 2.75808 10.0291 102 141 209
0.542742 2.772 10.0292 100 139 210
0.542891 2.79276 10.0293 87 125 199
0.487608 2.87973 9.91111 109 144 215
0.487724 2.90718 9.91123 92 127 198
0.531608 3.05059 10.0372 129 161 235
0.531589 3.07819 10.037 115 148 223
0.530283 3.09813 10.0339 113 143 218
0.531574 3.13339 10.0367 130 152 226
0.530078 3.16695 10.0331 114 137 205
0.53006 3.20828 10.033 107 127 185
0.530009 3.22201 10.0328 124 141 196
0.51748 3.4979 10.0385 115 117 148
0.517279 3.53885 10.038 118 127 153
0.51717 3.55246 10.0378 121 130 157
0.514216 3.58447 10.0308 115 130 152
0.514031 3.61167 10.0304 108 123 147
0.556921 3.78939 10.1557 105 134 152
0.556737 3.81679 10.1553 100 133 151
0.556542 3.83039 10.1549 117 152 170
0.556099 3.87129 10.1541 143 184 199
0.554822 3.98004 10.1517 121 168 179
0.549539 4.06451 10.1397 101 156 167
0.549261 4.07793 10.1392 96 151 162
0.526269 4.44319 10.1249 99 135 163
0.525384 4.48278 10.1234 86 119 149
0.524821 4.50918 10.1226 87 116 147
0.524155 4.53543 10.1215 77 106 136
0.523287 4.5749 10.1202 75 105 134
0.522351 4.61423 10.1187 86 116 146
0.521667 4.64035 10.1177 85 114 145
0.521015 4.66647 10.1167 82 112 141
0.520367 4.69257 10.1158 81 111 143
0.519667 4.71858 10.1147 87 117 152
0.518878 4.74446 10.1135 95 125 161
0.518595 4.75751 10.1131 95 126 163
0.512174 4.7709 10.098 92 123 164
0.511808 4.78382 10.0975 86 118 159
0.511445 4.79674 10.0969 91 122 164
0.517152 4.80929 10.111 90 120 163
0.510651 4.82248 10.0957 93 123 165
-0.249192 3.73967 6.65436 113 114 127
-0.225388 3.77745 6.71545 163 165 180
-0.257305 3.75979 6.66048 134 138 153
-0.225546 3.78655 6.71584 152 153 170
-0.259239 3.76259 6.65711 133 138 153
-0.227592 3.78928 6.71224 151 153 170
-0.299657 3.76775 6.46509 177 154 160
-0.267759 3.80847 6.52113 190 165 170
-0.254199 3.85977 6.58281 158 133 140
-0.254382 3.86862 6.58323 189 163 170
-0.27726 3.86331 6.45806 214 183 182
-0.325088 4.2114 6.36608 192 237 213
-0.346626 4.18158 6.31216 195 240 216
-0.325304 4.21963 6.3667 189 233 211
-0.294547 4.66985 6.63759 131 148 163
0.452927 0.724574 9.68275 112 136 208
0.453828 0.779381 9.68448 86 110 177
0.454078 0.793088 9.68498 87 114 177
0.454539 0.820495 9.68586 100 131 187
0.45498 0.8479 9.6867 116 143 198
0.455184 0.861599 9.68708 112 138 195
0.455416 0.875303 9.68752 115 140 196
0.455689 0.889016 9.68806 108 130 186
0.455944 0.902725 9.68856 98 119 172
0.46239 0.938297 9.70398 103 118 165
0.456784 0.957528 9.69011 118 133 181
0.457071 0.971246 9.69067 126 140 189
0.457213 0.984932 9.6909 139 153 203
0.457528 0.998656 9.69154 143 156 207
0.463414 1.00689 9.70584 139 151 204
0.4582 1.03977 9.69279 141 152 206
