ply
format ascii 1.0
comment Kinect v1 generated
element vertex 1341
property double x
property double y
property double z
property uchar red
property uchar green
property uchar blue
end_header
-3.14779 0.220201 0.295785 112 73 51
-3.14809 0.21991 0.293953 112 73 51
-3.13027 0.24779 0.317814 108 67 45
-3.12794 0.24815 0.319823 108 67 45
-5.92246 -0.509236 -5.93277 80 60 44
-2.92722 0.348631 0.549114 102 89 63
-0.421909 1.20669 3.94757 123 91 73
-0.432083 1.20662 3.93338 135 102 84
-0.434765 1.20117 3.92413 137 100 83
-0.427007 1.20595 3.93035 165 126 107
-3.19782 0.418841 0.0222748 65 50 32
-0.404462 1.19717 3.90609 110 66 44
-0.291204 1.21632 4.04346 72 39 17
-0.280934 1.20925 4.04178 53 29 13
-0.252774 1.2285 4.08126 30 17 13
-0.26171 1.21432 4.06349 37 20 13
0.0904236 1.17891 3.39121 119 103 89
0.161802 1.22415 3.47365 108 90 79
0.120619 1.21218 3.41844 111 92 80
0.0638568 1.21259 3.34542 113 95 83
-3.16749 0.261699 0.318703 86 57 41
-3.17213 0.244816 0.30627 89 59 40
-3.16204 0.263568 0.328617 105 72 54
-3.16238 0.263869 0.325326 103 70 53
-3.15528 0.262334 0.336815 98 62 43
-3.15501 0.263384 0.337469 98 62 43
-3.16084 0.245878 0.317409 97 62 41
-3.16053 0.246925 0.31812 97 62 41
-3.16023 0.247972 0.318827 97 62 41
-3.15992 0.249018 0.319529 98 63 41
-3.16052 0.247631 0.316897 98 63 41
-3.16916 0.224573 0.288939 93 61 43
-3.1688 0.22561 0.289712 93 60 43
-3.16943 0.224276 0.287109 93 61 43
-3.16907 0.225311 0.28788 93 60 43
-3.05044 0.327249 0.436931 98 65 57
-3.16749 0.261699 0.318703 86 57 41
-3.17213 0.244816 0.30627 89 59 40
-3.16204 0.263568 0.328617 105 72 54
-3.16238 0.263869 0.325326 103 70 53
-3.15528 0.262334 0.336815 98 62 43
-3.15501 0.263384 0.337469 98 62 43
-3.16084 0.245878 0.317409 97 62 41
-3.16053 0.246925 0.31812 97 62 41
-3.16023 0.247972 0.318827 97 62 41
-3.15992 0.249018 0.319529 98 63 41
-3.16052 0.247631 0.316897 98 63 41
-3.16916 0.224573 0.288939 93 61 43
-3.1688 0.22561 0.289712 93 60 43
-3.16943 0.224276 0.287109 93 61 43
-3.16907 0.225311 0.28788 93 60 43
-3.05044 0.327249 0.436931 98 65 57
-0.391259 1.21075 3.9501 98 62 44
-0.396248 1.21006 3.93318 118 78 63
-0.404059 1.2039 3.90702 106 65 53
-0.414079 1.20387 3.89324 128 86 73
-0.333541 1.21387 4.00495 74 40 28
-0.314758 1.2189 4.02622 72 41 29
-0.343164 1.21409 3.99173 89 52 41
-0.324573 1.21907 4.01274 87 53 42
-0.309731 1.21818 4.023 84 56 48
-0.319519 1.21836 4.00959 82 52 43
-0.318439 1.21175 3.99547 80 58 51
-0.299675 1.21674 4.0166 74 56 51
-0.28966 1.22337 4.03064 74 55 51
-0.261805 1.22681 4.05922 65 51 50
-0.265598 1.22772 4.04886 75 58 57
0.225151 1.25164 3.57444 124 108 99
0.225449 1.25488 3.57517 125 109 99
0.210514 1.2463 3.55463 125 108 99
0.153737 1.22864 3.47812 126 108 98
0.102344 1.18617 3.40787 128 111 99
0.257623 1.25489 3.61002 107 92 83
0.258328 1.25828 3.6112 109 94 84
0.115721 1.20949 3.41891 116 97 85
0.116295 1.21271 3.41994 115 96 84
0.102136 1.20454 3.40056 118 98 84
0.102701 1.20774 3.40158 118 99 85
0.262944 1.26714 3.61067 102 85 75
0.239708 1.20756 3.57164 102 87 78
0.246975 1.23723 3.57979 105 89 80
0.230476 1.22828 3.55759 105 89 79
0.192356 1.20278 3.50686 107 91 81
-3.19548 0.263699 0.295886 92 67 52
-3.17476 0.282618 0.318642 96 67 53
-3.1784 0.265034 0.307334 93 67 52
-3.17796 0.267066 0.308506 92 66 51
-3.17774 0.268081 0.309086 92 66 51
-3.17867 0.26467 0.305442 94 68 53
-3.17845 0.265685 0.306028 94 68 53
-3.17917 0.263294 0.302967 95 68 53
-3.1785 0.266333 0.304724 94 67 52
-3.17829 0.267345 0.305301 94 67 52
-3.17807 0.268357 0.305873 94 67 52
-3.17877 0.265969 0.302844 95 68 53
-3.17856 0.266979 0.30342 95 68 53
-3.18445 0.247398 0.280234 90 67 53
-3.17948 0.242166 0.301397 97 68 50
-3.1676 0.259869 0.323342 94 64 47
-3.16733 0.26091 0.323993 94 64 47
-3.16762 0.260547 0.32204 94 63 46
-3.17239 0.246359 0.304402 95 65 46
-3.17353 0.243627 0.299249 95 65 48
-3.17323 0.244659 0.299944 95 65 48
-3.1738 0.243298 0.297379 95 65 48
-3.1735 0.244328 0.298073 95 64 48
-3.17378 0.243998 0.296209 95 64 48
-3.16967 0.259384 0.306062 93 63 47
-3.17918 0.227213 0.282808 92 62 47
-3.17884 0.228243 0.283561 92 62 47
-3.16572 0.262586 0.31822 94 64 47
-3.16291 0.277231 0.323259 98 66 49
-3.07029 0.311626 0.417837 107 69 53
-3.0701 0.312705 0.418378 107 69 53
-3.07072 0.311165 0.415652 106 68 52
-3.07053 0.312241 0.416192 106 68 52
-3.07035 0.313317 0.416726 106 68 52
-3.05752 0.316427 0.426785 98 63 54
-3.0586 0.314408 0.421851 96 62 53
-3.0591 0.325447 0.415352 96 63 55
-3.04378 0.319445 0.440922 101 72 66
-3.04599 0.313647 0.431988 97 69 64
-3.04578 0.31474 0.432553 97 69 64
-3.04646 0.31318 0.429773 98 69 65
-3.04625 0.314271 0.430336 98 69 65
-3.04742 0.31396 0.424299 98 72 68
-3.05097 0.330745 0.401444 95 73 69
-3.02999 0.290923 0.441388 87 68 66
-3.02729 0.291385 0.443777 78 59 58
-2.95273 0.336217 0.524818 98 81 66
-2.95437 0.331021 0.519819 96 79 65
-2.95912 0.317777 0.505685 95 79 66
-2.9588 0.318951 0.506389 96 79 67
-2.95605 0.332428 0.511843 95 78 66
-2.95325 0.347351 0.519233 96 81 68
-2.95523 0.341716 0.512204 95 79 68
-2.95503 0.342855 0.51275 95 79 68
-2.95484 0.343994 0.513288 96 80 69
-2.95489 0.346859 0.512432 96 80 69
-2.95567 0.345189 0.509496 96 80 69
-2.95549 0.346319 0.510013 96 80 69
-2.95646 0.343524 0.506565 94 80 68
-2.96042 0.325905 0.495498 95 81 69
-2.96016 0.327053 0.496124 95 81 70
-2.95991 0.3282 0.496744 95 81 70
-2.94342 0.322126 0.522 96 80 61
-3.18021 0.595449 1.11469 106 88 85
-2.92971 0.336063 0.543877 100 88 61
-2.92637 0.336901 0.537925 96 85 59
-2.86792 0.467095 0.50415 11 7 3
-2.92502 0.345763 0.540343 97 87 61
-2.85906 0.479714 0.517735 12 9 5
-2.92479 0.346931 0.540925 97 87 61
-2.85788 0.48138 0.519716 12 9 5
-2.92545 0.346382 0.538409 97 86 61
-2.8586 0.480651 0.517235 11 8 6
-2.93138 0.369036 0.512759 91 85 60
-2.84003 0.514277 0.529435 5 7 5
-2.88836 0.347323 0.582236 92 85 51
-3.19548 0.263699 0.295886 92 67 52
-3.17476 0.282618 0.318642 96 67 53
-3.1784 0.265034 0.307334 93 67 52
-3.17796 0.267066 0.308506 92 66 51
-3.17774 0.268081 0.309086 92 66 51
-3.17867 0.26467 0.305442 94 68 53
-3.17845 0.265685 0.306028 94 68 53
-3.17917 0.263294 0.302967 95 68 53
-3.1785 0.266333 0.304724 94 67 52
-3.17829 0.267345 0.305301 94 67 52
-3.17807 0.268357 0.305873 94 67 52
-3.17877 0.265969 0.302844 95 68 53
-3.17856 0.266979 0.30342 95 68 53
-3.18445 0.247398 0.280234 90 67 53
-3.17948 0.242166 0.301397 97 68 50
-3.1676 0.259869 0.323342 94 64 47
-3.16733 0.26091 0.323993 94 64 47
-3.16762 0.260547 0.32204 94 63 46
-3.17239 0.246359 0.304402 95 65 46
-3.17353 0.243627 0.299249 95 65 48
-3.17323 0.244659 0.299944 95 65 48
-3.1738 0.243298 0.297379 95 65 48
-3.1735 0.244328 0.298073 95 64 48
-3.17378 0.243998 0.296209 95 64 48
-3.16967 0.259384 0.306062 93 63 47
-3.17918 0.227213 0.282808 92 62 47
-3.17884 0.228243 0.283561 92 62 47
-3.16572 0.262586 0.31822 94 64 47
-3.16291 0.277231 0.323259 98 66 49
-3.07029 0.311626 0.417837 107 69 53
-3.0701 0.312705 0.418378 107 69 53
-3.07072 0.311165 0.415652 106 68 52
-3.07053 0.312241 0.416192 106 68 52
-3.07035 0.313317 0.416726 106 68 52
-3.05752 0.316427 0.426785 98 63 54
-3.0586 0.314408 0.421851 96 62 53
-3.0591 0.325447 0.415352 96 63 55
-3.04378 0.319445 0.440922 101 72 66
-3.04599 0.313647 0.431988 97 69 64
-3.04578 0.31474 0.432553 97 69 64
-3.04646 0.31318 0.429773 98 69 65
-3.04625 0.314271 0.430336 98 69 65
-3.04742 0.31396 0.424299 98 72 68
-3.05097 0.330745 0.401444 95 73 69
-3.02999 0.290923 0.441388 87 68 66
-3.02729 0.291385 0.443777 78 59 58
-2.95273 0.336217 0.524818 98 81 66
-2.95437 0.331021 0.519819 96 79 65
-2.95912 0.317777 0.505685 95 79 66
-2.9588 0.318951 0.506389 96 79 67
-2.95605 0.332428 0.511843 95 78 66
-2.95325 0.347351 0.519233 96 81 68
-2.95523 0.341716 0.512204 95 79 68
-2.95503 0.342855 0.51275 95 79 68
-2.95484 0.343994 0.513288 96 80 69
-2.95489 0.346859 0.512432 96 80 69
-2.95567 0.345189 0.509496 96 80 69
-2.95549 0.346319 0.510013 96 80 69
-2.95646 0.343524 0.506565 94 80 68
-2.96042 0.325905 0.495498 95 81 69
-2.96016 0.327053 0.496124 95 81 70
-2.95991 0.3282 0.496744 95 81 70
-2.94342 0.322126 0.522 96 80 61
-3.18021 0.595449 1.11469 106 88 85
-2.92971 0.336063 0.543877 100 88 61
-2.92637 0.336901 0.537925 96 85 59
-2.86792 0.467095 0.50415 11 7 3
-2.92502 0.345763 0.540343 97 87 61
-2.85906 0.479714 0.517735 12 9 5
-2.92479 0.346931 0.540925 97 87 61
-2.85788 0.48138 0.519716 12 9 5
-2.92545 0.346382 0.538409 97 86 61
-2.8586 0.480651 0.517235 11 8 6
-2.93138 0.369036 0.512759 91 85 60
-2.84003 0.514277 0.529435 5 7 5
-2.88836 0.347323 0.582236 92 85 51
-0.405919 1.21821 3.94024 132 88 68
0.0847331 1.18795 3.39209 120 103 90
0.0827026 1.19022 3.38998 115 97 85
0.0288445 1.16498 3.3167 120 101 87
0.0266058 1.16715 3.31437 114 95 83
0.0284382 1.21155 3.31929 122 104 91
0.0292635 1.21464 3.32036 117 98 86
0.0150439 1.20951 3.30166 122 104 91
0.0160241 1.21264 3.30291 117 98 86
-0.0215148 1.19273 3.25138 123 104 90
-0.0208529 1.19573 3.25227 117 98 86
0.0536734 1.18322 3.34257 133 114 102
0.0521767 1.18563 3.34106 125 106 93
-0.814493 1.17308 2.38411 122 109 103
-0.801334 1.18017 2.39893 114 101 94
-0.826277 1.17098 2.37143 122 109 102
-0.813081 1.17809 2.38628 113 100 94
0.15222 1.2365 3.45501 108 90 78
0.102653 1.18856 3.38639 107 89 77
0.104419 1.19211 3.38873 108 90 78
0.0849391 1.17645 3.36281 103 86 75
0.118352 1.1891 3.40014 103 85 74
-3.16222 0.263764 0.329363 109 75 58
-3.16197 0.264808 0.330005 109 75 57
-3.16171 0.26585 0.330642 109 75 57
-3.1627 0.254373 0.323444 103 68 49
-3.163 0.254713 0.320235 103 68 49
-3.16271 0.255757 0.320911 103 68 49
-3.16329 0.254361 0.318298 104 70 49
-3.15755 0.257909 0.327594 102 67 47
-3.15785 0.257551 0.325635 102 67 47
-3.15843 0.256149 0.323009 104 70 47
-3.15815 0.257194 0.323685 104 70 47
-3.15786 0.258239 0.324357 105 70 48
-3.15759 0.259283 0.325023 105 71 48
-3.15901 0.25475 0.320389 104 69 47
-3.15844 0.256838 0.321742 104 70 47
-3.14568 0.222801 0.317848 112 70 47
-3.14925 0.220493 0.291458 104 68 46
-6.06261 -0.807672 -5.26943 89 56 36
-3.16222 0.263764 0.329363 109 75 58
-3.16197 0.264808 0.330005 109 75 57
-3.16171 0.26585 0.330642 109 75 57
-3.1627 0.254373 0.323444 103 68 49
-3.163 0.254713 0.320235 103 68 49
-3.16271 0.255757 0.320911 103 68 49
-3.16329 0.254361 0.318298 104 70 49
-3.15755 0.257909 0.327594 102 67 47
-3.15785 0.257551 0.325635 102 67 47
-3.15843 0.256149 0.323009 104 70 47
-3.15815 0.257194 0.323685 104 70 47
-3.15786 0.258239 0.324357 105 70 48
-3.15759 0.259283 0.325023 105 71 48
-3.15901 0.25475 0.320389 104 69 47
-3.15844 0.256838 0.321742 104 70 47
-3.14568 0.222801 0.317848 112 70 47
-3.14925 0.220493 0.291458 104 68 46
-6.06261 -0.807672 -5.26943 89 56 36
-0.38244 1.22921 3.95849 105 66 51
-3.15834 0.26727 0.342804 103 67 46
-3.16482 0.248216 0.319763 99 66 46
-3.1645 0.249269 0.320489 100 65 46
-3.15546 0.264443 0.337582 110 74 54
-3.15519 0.265498 0.338251 110 74 54
-3.15605 0.263018 0.334915 109 74 54
-3.15834 0.26727 0.342804 103 67 46
-3.16482 0.248216 0.319763 99 66 46
-3.1645 0.249269 0.320489 100 65 46
-3.15546 0.264443 0.337582 110 74 54
-3.15519 0.265498 0.338251 110 74 54
-3.15605 0.263018 0.334915 109 74 54
-0.391008 1.2276 3.95176 142 102 93
-0.436509 1.20869 3.81891 101 79 75
-0.459395 1.19658 3.78208 102 77 73
-0.460936 1.19165 3.77479 93 67 67
-0.449942 1.20497 3.79052 89 67 69
-5.83105 -0.854096 -5.19212 82 65 47
-3.15468 0.277559 0.328726 109 73 54
-3.7754 0.221429 -0.404725 109 72 47
-5.65087 -0.462653 -3.91931 111 72 50
-2.11679 1.39799 4.08436 87 86 57
-5.83105 -0.854096 -5.19212 82 65 47
-3.15468 0.277559 0.328726 109 73 54
-3.7754 0.221429 -0.404725 109 72 47
-5.65087 -0.462653 -3.91931 111 72 50
-2.11679 1.39799 4.08436 87 86 57
-1.52843 1.12913 2.80947 84 70 51
-1.9996 0.847858 2.03367 86 80 55
0.0274931 0.450635 2.85626 5 6 4
-0.000854731 0.444299 2.82534 5 6 4
-0.38095 0.290062 2.44086 4 5 3
-0.36102 0.288795 2.45828 4 5 3
-0.383286 0.289555 2.43627 4 5 3
-0.361446 0.293508 2.45805 4 5 3
-0.309665 0.294746 2.51122 4 5 3
-0.357717 0.283854 2.45705 4 5 3
-0.713472 0.319861 2.11493 4 6 4
-0.692334 0.323892 2.13606 4 6 4
-0.6711 0.32796 2.15728 4 6 4
-0.649806 0.332061 2.17856 4 6 4
-0.710735 0.319984 2.1158 4 6 4
-0.689508 0.324021 2.137 4 6 4
-0.668159 0.328098 2.15832 4 6 4
-0.646705 0.332214 2.17975 4 6 4
-0.625181 0.336364 2.20125 4 6 4
-0.603562 0.340552 2.22285 4 6 4
-0.708068 0.3201 2.1166 4 6 4
-0.686713 0.324147 2.13791 4 6 4
-0.66526 0.328233 2.15933 4 6 4
-0.643701 0.332357 2.18085 4 6 4
-0.622055 0.336518 2.20246 4 6 4
-0.735061 0.320072 2.09356 4 6 4
-0.714011 0.324094 2.1146 4 6 4
-0.692874 0.328152 2.13572 4 6 4
-0.671646 0.332246 2.15694 4 6 4
-0.732459 0.320184 2.0943 4 6 4
-0.711308 0.324213 2.11543 4 6 4
-0.690059 0.32828 2.13665 4 6 4
-0.66871 0.332385 2.15798 4 6 4
-0.647258 0.336528 2.17941 4 6 4
-0.625708 0.340709 2.20094 4 6 4
-0.729933 0.320288 2.09497 4 6 4
-0.70868 0.324326 2.11619 4 6 4
-0.687311 0.328403 2.13752 4 6 4
-0.66584 0.332518 2.15896 4 6 4
-0.644267 0.336671 2.18049 4 6 4
-3.196 0.265625 0.29561 91 63 48
-3.20277 0.234036 0.229763 94 75 59
-3.2025 0.235009 0.230401 93 75 59
-3.20272 0.234713 0.228769 93 75 59
-3.20275 0.237103 0.223181 93 75 59
-3.20296 0.236808 0.22158 93 75 59
-3.14535 0.214681 0.265707 102 63 41
-3.12994 0.259874 0.298374 102 63 41
-3.13025 0.259529 0.296577 102 63 41
-3.14717 0.211066 0.259799 102 63 41
-3.14674 0.212091 0.260633 102 63 41
-3.13447 0.245916 0.285998 102 63 41
-3.13415 0.246939 0.286699 102 63 41
-3.16766 0.168105 0.219978 102 63 41
-3.16788 0.167913 0.218412 102 63 41
-5.63591 -0.466515 -3.87253 119 78 53
-5.64782 -0.510321 -3.89751 117 77 53
-5.64811 -0.511977 -3.89829 117 77 53
-5.64434 -0.500954 -3.88821 116 76 51
-3.04577 0.318363 0.378599 82 66 63
-3.03968 0.299258 0.376338 74 60 59
-5.7506 -0.507141 -4.06878 98 61 39
-5.64516 -0.36261 -3.87359 98 61 39
-5.75263 -0.517381 -4.07152 101 65 43
-5.75325 -0.519254 -4.07284 102 65 43
-5.74136 -0.49343 -4.04711 99 62 40
-5.74983 -0.514379 -4.06427 101 64 42
-5.7511 -0.518121 -4.06694 101 65 43
-5.73356 -0.480725 -4.03024 99 61 39
-5.73456 -0.482676 -4.03216 98 61 39
-5.73246 -0.481638 -4.0264 99 62 40
-5.73037 -0.480606 -4.02067 100 63 41
-5.73501 -0.490244 -4.02974 99 62 40
-5.70286 -0.443413 -3.96179 101 63 41
-5.70415 -0.445387 -3.96417 101 64 42
-5.69695 -0.436576 -3.94908 100 63 41
-5.70468 -0.44839 -3.96336 101 64 42
-5.69613 -0.445725 -3.93871 101 64 40
-5.69731 -0.447655 -3.94091 101 64 40
-5.7101 -0.470582 -3.9651 105 68 44
-5.71105 -0.47247 -3.96692 104 67 43
-5.71197 -0.474354 -3.96871 104 67 43
-5.70209 -0.458233 -3.94819 100 63 39
-5.71 -0.473371 -3.96331 103 66 42
-5.70016 -0.457293 -3.94287 100 63 39
-5.72245 -0.508998 -3.98716 100 64 39
-5.72297 -0.510778 -3.98829 100 64 39
-5.76589 -0.515905 -4.09828 88 54 34
-5.76661 -0.517825 -4.09976 88 54 34
-5.75918 -0.507866 -4.08155 89 55 34
-5.65925 -0.370513 -3.89644 89 55 34
-5.75698 -0.50675 -4.07556 89 55 34
-5.65333 -0.365633 -3.88401 89 54 33
-5.65539 -0.367707 -3.88765 89 55 34
-5.65745 -0.369783 -3.89127 89 55 34
-5.65949 -0.371859 -3.89487 89 54 33
-5.65361 -0.366987 -3.88252 89 55 34
-5.65566 -0.369057 -3.88613 89 55 34
-5.65769 -0.371127 -3.88971 89 54 33
-5.74758 -0.514081 -4.04614 90 57 35
-5.7442 -0.509274 -4.03773 90 57 35
-5.7432 -0.484362 -4.03294 87 55 34
-5.74011 -0.481383 -4.0253 87 55 35
-5.75107 -0.515259 -4.04418 86 55 33
-5.74811 -0.484755 -4.03528 87 58 40
-5.74908 -0.4867 -4.03717 87 58 40
-5.76247 -0.519042 -4.064 86 58 38
-5.75907 -0.514201 -4.05555 88 59 40
-5.75971 -0.516064 -4.05689 88 59 40
-5.75758 -0.514953 -4.05112 87 59 39
-5.75683 -0.541025 -4.04586 91 61 42
-5.75099 -0.522203 -4.03112 89 61 39
-5.75146 -0.523997 -4.03218 89 61 39
-5.75273 -0.538741 -4.03468 89 61 41
-5.72548 -0.467968 -3.97717 91 62 42
-5.72752 -0.471797 -3.98105 93 63 43
-5.72852 -0.473706 -3.98294 92 63 43
-5.74735 -0.521787 -4.02104 88 60 38
-5.75245 -0.566079 -4.0371 89 61 41
-5.5752 -0.298983 -3.71035 86 57 38
-5.74158 -0.508098 -4.0074 87 59 37
-5.74484 -0.518908 -4.01446 87 59 38
-5.74531 -0.520692 -4.01552 87 59 37
-5.57381 -0.298477 -3.70613 86 57 38
-5.72915 -0.48118 -3.98101 90 61 39
-5.73002 -0.483056 -3.98271 90 61 40
-5.74282 -0.517822 -4.00897 87 59 38
-5.74329 -0.519602 -4.01003 87 59 37
-5.57242 -0.297974 -3.70194 86 57 38
-5.72715 -0.480182 -3.9756 90 61 39
-5.73629 -0.502348 -3.99385 88 60 39
-5.73692 -0.504165 -3.99517 88 60 39
-5.73082 -0.492168 -3.98138 90 62 42
-5.73155 -0.494004 -3.98285 90 61 41
-5.73227 -0.495836 -3.98429 89 60 40
-5.73492 -0.503116 -3.98974 88 60 38
-5.57543 -0.296713 -3.70356 98 69 50
-5.69456 -0.401736 -3.91722 106 76 59
-5.69629 -0.403767 -3.92027 106 76 59
-5.73521 -0.443183 -3.9893 104 74 57
-5.73663 -0.445201 -3.99187 104 74 57
-5.73802 -0.447217 -3.99441 103 73 56
-5.7394 -0.449229 -3.99692 103 73 56
-5.78937 -0.524238 -4.09185 103 73 55
-3.01618 0.315609 0.409207 88 72 73
-3.00365 0.32334 0.414311 95 77 76
-3.00093 0.323852 0.416642 93 75 73
-5.85726 -0.525775 -4.19828 106 77 67
-5.85822 -0.527819 -4.20014 106 77 67
-5.85915 -0.529857 -4.20194 106 77 67
-5.85572 -0.526613 -4.19364 106 77 67
-5.72884 -0.373374 -3.96161 105 76 66
-5.73122 -0.375557 -3.96571 105 76 66
-5.86423 -0.573424 -4.20798 107 79 70
-2.98339 0.330876 0.443887 90 77 69
-2.98319 0.331967 0.444429 90 77 69
-2.98299 0.333057 0.444965 90 77 69
-2.98296 0.338573 0.443733 89 76 68
-2.9816 0.35775 0.447791 88 75 67
-2.98151 0.358796 0.448171 89 76 68
-2.98239 0.354085 0.444487 88 75 67
-2.9828 0.354618 0.442763 89 76 68
-2.98589 0.333975 0.432091 89 76 68
-2.98571 0.335046 0.432594 89 76 68
-2.98554 0.336116 0.433091 88 75 67
-2.9864 0.333492 0.42999 89 76 68
-2.95903 0.33157 0.501805 103 89 76
-2.97188 0.309968 0.456427 100 89 76
-2.97431 0.308818 0.446056 97 87 74
-2.96722 0.342848 0.462528 99 89 76
-2.96705 0.343941 0.463031 99 89 76
-2.97301 0.316898 0.447059 98 88 75
-2.97207 0.326592 0.446681 100 90 77
-2.97183 0.327695 0.447262 100 89 76
-2.97261 0.326114 0.444518 100 90 77
-2.97237 0.327215 0.445098 100 89 76
-2.97368 0.325163 0.440219 100 89 76
-2.94765 0.360973 0.493967 97 87 69
-2.94824 0.360427 0.491666 97 87 69
-2.95725 0.327984 0.46212 97 87 68
-2.957 0.329103 0.462727 97 87 68
-2.95781 0.327498 0.459908 97 87 68
-2.95756 0.328616 0.460513 97 87 68
-2.95382 0.360984 0.469539 96 86 67
-2.95372 0.362052 0.469944 96 86 67
-2.95819 0.334422 0.45579 98 88 69
-2.95699 0.341005 0.459014 96 86 67
-2.95428 0.361517 0.467756 96 87 68
-2.94417 0.313392 0.478202 84 78 53
-2.9462 0.312677 0.469831 82 77 51
-2.92933 0.340798 0.488958 82 77 50
-2.92636 0.341362 0.491523 79 76 48
0.0274931 0.450635 2.85626 5 6 4
-0.000854731 0.444299 2.82534 5 6 4
-0.38095 0.290062 2.44086 4 5 3
-0.36102 0.288795 2.45828 4 5 3
-0.383286 0.289555 2.43627 4 5 3
-0.361446 0.293508 2.45805 4 5 3
-0.309665 0.294746 2.51122 4 5 3
-0.357717 0.283854 2.45705 4 5 3
-0.713472 0.319861 2.11493 4 6 4
-0.692334 0.323892 2.13606 4 6 4
-0.6711 0.32796 2.15728 4 6 4
-0.649806 0.332061 2.17856 4 6 4
-0.710735 0.319984 2.1158 4 6 4
-0.689508 0.324021 2.137 4 6 4
-0.668159 0.328098 2.15832 4 6 4
-0.646705 0.332214 2.17975 4 6 4
-0.625181 0.336364 2.20125 4 6 4
-0.603562 0.340552 2.22285 4 6 4
-0.708068 0.3201 2.1166 4 6 4
-0.686713 0.324147 2.13791 4 6 4
-0.66526 0.328233 2.15933 4 6 4
-0.643701 0.332357 2.18085 4 6 4
-0.622055 0.336518 2.20246 4 6 4
-0.735061 0.320072 2.09356 4 6 4
-0.714011 0.324094 2.1146 4 6 4
-0.692874 0.328152 2.13572 4 6 4
-0.671646 0.332246 2.15694 4 6 4
-0.732459 0.320184 2.0943 4 6 4
-0.711308 0.324213 2.11543 4 6 4
-0.690059 0.32828 2.13665 4 6 4
-0.66871 0.332385 2.15798 4 6 4
-0.647258 0.336528 2.17941 4 6 4
-0.625708 0.340709 2.20094 4 6 4
-0.729933 0.320288 2.09497 4 6 4
-0.70868 0.324326 2.11619 4 6 4
-0.687311 0.328403 2.13752 4 6 4
-0.66584 0.332518 2.15896 4 6 4
-0.644267 0.336671 2.18049 4 6 4
-3.196 0.265625 0.29561 91 63 48
-3.20277 0.234036 0.229763 94 75 59
-3.2025 0.235009 0.230401 93 75 59
-3.20272 0.234713 0.228769 93 75 59
-3.20275 0.237103 0.223181 93 75 59
-3.20296 0.236808 0.22158 93 75 59
-3.14535 0.214681 0.265707 102 63 41
-3.12994 0.259874 0.298374 102 63 41
-3.13025 0.259529 0.296577 102 63 41
-3.14717 0.211066 0.259799 102 63 41
-3.14674 0.212091 0.260633 102 63 41
-3.13447 0.245916 0.285998 102 63 41
-3.13415 0.246939 0.286699 102 63 41
-3.16766 0.168105 0.219978 102 63 41
-3.16788 0.167913 0.218412 102 63 41
-5.63591 -0.466515 -3.87253 119 78 53
-5.64782 -0.510321 -3.89751 117 77 53
-5.64811 -0.511977 -3.89829 117 77 53
-5.64434 -0.500954 -3.88821 116 76 51
-3.04577 0.318363 0.378599 82 66 63
-3.03968 0.299258 0.376338 74 60 59
-5.7506 -0.507141 -4.06878 98 61 39
-5.64516 -0.36261 -3.87359 98 61 39
-5.75263 -0.517381 -4.07152 101 65 43
-5.75325 -0.519254 -4.07284 102 65 43
-5.74136 -0.49343 -4.04711 99 62 40
-5.74983 -0.514379 -4.06427 101 64 42
-5.7511 -0.518121 -4.06694 101 65 43
-5.73356 -0.480725 -4.03024 99 61 39
-5.73456 -0.482676 -4.03216 98 61 39
-5.73246 -0.481638 -4.0264 99 62 40
-5.73037 -0.480606 -4.02067 100 63 41
-5.73501 -0.490244 -4.02974 99 62 40
-5.70286 -0.443413 -3.96179 101 63 41
-5.70415 -0.445387 -3.96417 101 64 42
-5.69695 -0.436576 -3.94908 100 63 41
-5.70468 -0.44839 -3.96336 101 64 42
-5.69613 -0.445725 -3.93871 101 64 40
-5.69731 -0.447655 -3.94091 101 64 40
-5.7101 -0.470582 -3.9651 105 68 44
-5.71105 -0.47247 -3.96692 104 67 43
-5.71197 -0.474354 -3.96871 104 67 43
-5.70209 -0.458233 -3.94819 100 63 39
-5.71 -0.473371 -3.96331 103 66 42
-5.70016 -0.457293 -3.94287 100 63 39
-5.72245 -0.508998 -3.98716 100 64 39
-5.72297 -0.510778 -3.98829 100 64 39
-5.76589 -0.515905 -4.09828 88 54 34
-5.76661 -0.517825 -4.09976 88 54 34
-5.75918 -0.507866 -4.08155 89 55 34
-5.65925 -0.370513 -3.89644 89 55 34
-5.75698 -0.50675 -4.07556 89 55 34
-5.65333 -0.365633 -3.88401 89 54 33
-5.65539 -0.367707 -3.88765 89 55 34
-5.65745 -0.369783 -3.89127 89 55 34
-5.65949 -0.371859 -3.89487 89 54 33
-5.65361 -0.366987 -3.88252 89 55 34
-5.65566 -0.369057 -3.88613 89 55 34
-5.65769 -0.371127 -3.88971 89 54 33
-5.74758 -0.514081 -4.04614 90 57 35
-5.7442 -0.509274 -4.03773 90 57 35
-5.7432 -0.484362 -4.03294 87 55 34
-5.74011 -0.481383 -4.0253 87 55 35
-5.75107 -0.515259 -4.04418 86 55 33
-5.74811 -0.484755 -4.03528 87 58 40
-5.74908 -0.4867 -4.03717 87 58 40
-5.76247 -0.519042 -4.064 86 58 38
-5.75907 -0.514201 -4.05555 88 59 40
-5.75971 -0.516064 -4.05689 88 59 40
-5.75758 -0.514953 -4.05112 87 59 39
-5.75683 -0.541025 -4.04586 91 61 42
-5.75099 -0.522203 -4.03112 89 61 39
-5.75146 -0.523997 -4.03218 89 61 39
-5.75273 -0.538741 -4.03468 89 61 41
-5.72548 -0.467968 -3.97717 91 62 42
-5.72752 -0.471797 -3.98105 93 63 43
-5.72852 -0.473706 -3.98294 92 63 43
-5.74735 -0.521787 -4.02104 88 60 38
-5.75245 -0.566079 -4.0371 89 61 41
-5.5752 -0.298983 -3.71035 86 57 38
-5.74158 -0.508098 -4.0074 87 59 37
-5.74484 -0.518908 -4.01446 87 59 38
-5.74531 -0.520692 -4.01552 87 59 37
-5.57381 -0.298477 -3.70613 86 57 38
-5.72915 -0.48118 -3.98101 90 61 39
-5.73002 -0.483056 -3.98271 90 61 40
-5.74282 -0.517822 -4.00897 87 59 38
-5.74329 -0.519602 -4.01003 87 59 37
-5.57242 -0.297974 -3.70194 86 57 38
-5.72715 -0.480182 -3.9756 90 61 39
-5.73629 -0.502348 -3.99385 88 60 39
-5.73692 -0.504165 -3.99517 88 60 39
-5.73082 -0.492168 -3.98138 90 62 42
-5.73155 -0.494004 -3.98285 90 61 41
-5.73227 -0.495836 -3.98429 89 60 40
-5.73492 -0.503116 -3.98974 88 60 38
-5.57543 -0.296713 -3.70356 98 69 50
-5.69456 -0.401736 -3.91722 106 76 59
-5.69629 -0.403767 -3.92027 106 76 59
-5.73521 -0.443183 -3.9893 104 74 57
-5.73663 -0.445201 -3.99187 104 74 57
-5.73802 -0.447217 -3.99441 103 73 56
-5.7394 -0.449229 -3.99692 103 73 56
-5.78937 -0.524238 -4.09185 103 73 55
-3.01618 0.315609 0.409207 88 72 73
-3.00365 0.32334 0.414311 95 77 76
-3.00093 0.323852 0.416642 93 75 73
-5.85726 -0.525775 -4.19828 106 77 67
-5.85822 -0.527819 -4.20014 106 77 67
-5.85915 -0.529857 -4.20194 106 77 67
-5.85572 -0.526613 -4.19364 106 77 67
-5.72884 -0.373374 -3.96161 105 76 66
-5.73122 -0.375557 -3.96571 105 76 66
-5.86423 -0.573424 -4.20798 107 79 70
-2.98339 0.330876 0.443887 90 77 69
-2.98319 0.331967 0.444429 90 77 69
-2.98299 0.333057 0.444965 90 77 69
-2.98296 0.338573 0.443733 89 76 68
-2.9816 0.35775 0.447791 88 75 67
-2.98151 0.358796 0.448171 89 76 68
-2.98239 0.354085 0.444487 88 75 67
-2.9828 0.354618 0.442763 89 76 68
-2.98589 0.333975 0.432091 89 76 68
-2.98571 0.335046 0.432594 89 76 68
-2.98554 0.336116 0.433091 88 75 67
-2.9864 0.333492 0.42999 89 76 68
-2.95903 0.33157 0.501805 103 89 76
-2.97188 0.309968 0.456427 100 89 76
-2.97431 0.308818 0.446056 97 87 74
-2.96722 0.342848 0.462528 99 89 76
-2.96705 0.343941 0.463031 99 89 76
-2.97301 0.316898 0.447059 98 88 75
-2.97207 0.326592 0.446681 100 90 77
-2.97183 0.327695 0.447262 100 89 76
-2.97261 0.326114 0.444518 100 90 77
-2.97237 0.327215 0.445098 100 89 76
-2.97368 0.325163 0.440219 100 89 76
-2.94765 0.360973 0.493967 97 87 69
-2.94824 0.360427 0.491666 97 87 69
-2.95725 0.327984 0.46212 97 87 68
-2.957 0.329103 0.462727 97 87 68
-2.95781 0.327498 0.459908 97 87 68
-2.95756 0.328616 0.460513 97 87 68
-2.95382 0.360984 0.469539 96 86 67
-2.95372 0.362052 0.469944 96 86 67
-2.95819 0.334422 0.45579 98 88 69
-2.95699 0.341005 0.459014 96 86 67
-2.95428 0.361517 0.467756 96 87 68
-2.94417 0.313392 0.478202 84 78 53
-2.9462 0.312677 0.469831 82 77 51
-2.92933 0.340798 0.488958 82 77 50
-2.92636 0.341362 0.491523 79 76 48
-2.30131 0.692738 1.77226 97 69 51
-0.420297 1.23232 3.9311 175 133 112
-3.19812 0.193033 0.204701 88 62 46
-3.19608 0.19328 0.206356 90 63 46
-3.07953 0.483684 0.859916 98 66 50
-3.16938 0.20829 0.241946 102 68 48
-3.16898 0.209299 0.242758 102 68 48
-3.16858 0.210308 0.243566 102 68 48
-3.16471 0.19436 0.243641 107 70 49
-5.73931 -0.452709 -3.99684 109 77 61
-2.09818 1.41191 4.13547 82 79 50
-2.09053 1.41508 4.14675 78 76 47
-2.57126 1.15276 2.81646 85 83 50
-2.56915 1.15244 2.81489 81 80 47
-3.19812 0.193033 0.204701 88 62 46
-3.19608 0.19328 0.206356 90 63 46
-3.07953 0.483684 0.859916 98 66 50
-3.16938 0.20829 0.241946 102 68 48
-3.16898 0.209299 0.242758 102 68 48
-3.16858 0.210308 0.243566 102 68 48
-3.16471 0.19436 0.243641 107 70 49
-5.73931 -0.452709 -3.99684 109 77 61
-2.09818 1.41191 4.13547 82 79 50
-2.09053 1.41508 4.14675 78 76 47
-2.57126 1.15276 2.81646 85 83 50
-2.56915 1.15244 2.81489 81 80 47
-0.425561 1.23142 3.91377 128 85 66
-0.431004 1.23046 3.89625 112 72 53
-0.420084 1.23748 3.91175 116 76 59
-2.14822 0.833748 1.89849 88 87 55
-1.45748 1.14249 2.82436 111 98 82
-1.4587 1.13219 2.78777 105 89 74
-1.58761 0.960286 2.61857 82 67 49
-1.2929 1.16326 2.94408 78 63 46
-0.396986 1.24843 3.92955 93 64 53
-0.386069 1.25548 3.945 89 63 53
-0.37928 1.25334 3.94944 89 60 50
-0.343559 1.26324 3.98954 81 56 48
-0.399269 1.24307 3.92096 144 115 102
-0.388711 1.24998 3.93588 140 114 103
-0.381465 1.248 3.94097 140 111 99
-0.345592 1.25791 3.98125 132 107 98
-0.409592 1.24284 3.90674 129 99 88
-0.398835 1.24982 3.92194 124 98 88
-0.391971 1.24772 3.92651 124 95 85
-0.356452 1.25755 3.96632 116 91 83
-1.854 0.885949 2.16979 100 87 66
-1.84627 0.886326 2.17047 106 93 74
-0.70912 1.17902 3.67699 83 70 54
-1.83845 0.882953 2.14919 95 81 65
-1.822 0.886892 2.17092 98 84 67
-1.83603 0.883051 2.149 89 75 58
-1.81954 0.886997 2.17075 91 77 61
-3.28331 0.373584 -0.107388 80 65 48
-0.383493 1.23419 3.88363 82 73 72
-0.395686 1.22884 3.86173 84 73 73
-3.1758 0.247941 0.291368 87 56 40
-3.17358 0.248292 0.293293 99 67 50
-3.17606 0.247609 0.289523 86 55 40
-3.17385 0.247959 0.291443 99 66 51
-3.17575 0.248644 0.290248 86 55 40
-3.17353 0.248996 0.292171 99 66 51
-3.16376 0.271618 0.320561 115 83 66
-3.16582 0.256987 0.310976 113 78 56
-3.16551 0.258036 0.311696 113 78 56
-3.02518 0.271938 0.434675 93 71 68
-3.1758 0.247941 0.291368 87 56 40
-3.17358 0.248292 0.293293 99 67 50
-3.17606 0.247609 0.289523 86 55 40
-3.17385 0.247959 0.291443 99 66 51
-3.17575 0.248644 0.290248 86 55 40
-3.17353 0.248996 0.292171 99 66 51
-3.16376 0.271618 0.320561 115 83 66
-3.16582 0.256987 0.310976 113 78 56
-3.16551 0.258036 0.311696 113 78 56
-3.02518 0.271938 0.434675 93 71 68
-1.82496 0.891751 2.17446 107 92 74
0.062945 1.25147 3.35319 106 91 79
0.0638846 1.25475 3.35464 105 91 79
0.0646099 1.25797 3.35585 105 91 79
0.0507468 1.24971 3.33688 107 92 80
0.0515348 1.25293 3.33817 107 92 80
0.0520921 1.25609 3.33919 107 93 81
0.0367956 1.24145 3.31785 107 92 80
0.0377495 1.24471 3.31932 107 92 80
0.0385547 1.24793 3.32062 107 92 80
-0.00279725 1.22343 3.26426 106 91 79
0.138433 1.25262 3.43126 116 99 87
0.136972 1.25507 3.42981 119 102 90
0.142025 1.26288 3.43645 116 100 87
0.141171 1.26551 3.43568 119 102 91
0.142813 1.26617 3.43773 116 100 87
0.142173 1.26887 3.4372 119 102 91
0.126075 1.25094 3.41472 117 101 88
0.124786 1.25342 3.41347 120 103 92
-1.8169 0.909384 2.24545 114 104 80
-0.371862 1.27824 4.01144 66 33 12
-0.375141 1.27243 4.00126 74 38 17
-0.385044 1.27234 3.98751 99 61 41
-0.39854 1.25969 3.96282 157 116 96
-0.341334 1.28384 4.03374 104 71 60
-0.361706 1.27678 4.00514 122 88 74
-0.393066 1.26578 3.9607 109 70 52
-0.385432 1.26393 3.96634 109 72 58
0.227453 1.27841 3.56554 110 96 83
-2.67299 1.03674 2.59163 82 68 59
-2.01585 1.44079 4.24298 93 88 56
-2.00601 1.44541 4.2597 90 83 52
-2.67299 1.03674 2.59163 82 68 59
-2.01585 1.44079 4.24298 93 88 56
-2.00601 1.44541 4.2597 90 83 52
-3.19772 0.24901 0.248598 85 67 51
-3.17997 0.239584 0.279456 96 68 52
-3.18023 0.239269 0.277648 96 68 52
-3.1781 0.25247 0.266865 93 68 52
-3.16452 0.272278 0.318664 92 60 43
-1.9998 1.45813 4.29574 88 83 52
-1.98978 1.46287 4.31291 88 81 50
-3.19772 0.24901 0.248598 85 67 51
-3.17997 0.239584 0.279456 96 68 52
-3.18023 0.239269 0.277648 96 68 52
-3.1781 0.25247 0.266865 93 68 52
-3.16452 0.272278 0.318664 92 60 43
-1.9998 1.45813 4.29574 88 83 52
-1.98978 1.46287 4.31291 88 81 50
-1.77375 0.914956 2.24941 118 102 85
-1.72167 0.923804 2.2948 123 104 87
-1.75767 0.910777 2.22696 139 117 99
-1.75066 0.91071 2.22707 126 103 85
-3.1639 0.36605 0.485241 77 55 41
-3.22631 0.185404 0.175147 77 57 43
-3.2259 0.186367 0.175969 77 57 43
-3.22549 0.18733 0.176788 77 57 43
-3.22648 0.185194 0.173672 77 57 43
-3.19722 0.25191 0.231951 86 68 54
-3.19719 0.252565 0.230941 87 69 55
-3.13108 0.252555 0.321166 118 76 56
-3.14813 0.219119 0.258716 116 75 55
-3.14726 0.221187 0.260429 116 75 55
-3.14683 0.222221 0.261279 116 75 55
-2.31417 1.30045 3.41102 93 93 59
-2.30837 1.30266 3.41828 97 93 61
-3.1639 0.36605 0.485241 77 55 41
-3.22631 0.185404 0.175147 77 57 43
-3.2259 0.186367 0.175969 77 57 43
-3.22549 0.18733 0.176788 77 57 43
-3.22648 0.185194 0.173672 77 57 43
-3.19722 0.25191 0.231951 86 68 54
-3.19719 0.252565 0.230941 87 69 55
-3.13108 0.252555 0.321166 118 76 56
-3.14813 0.219119 0.258716 116 75 55
-3.14726 0.221187 0.260429 116 75 55
-3.14683 0.222221 0.261279 116 75 55
-2.31417 1.30045 3.41102 93 93 59
-2.30837 1.30266 3.41828 97 93 61
-1.70724 0.923813 2.29449 120 101 82
-1.32087 1.17365 2.89084 91 78 61
-1.71596 0.920617 2.25361 129 105 87
-0.496692 1.15297 3.61127 69 63 67
-0.513948 1.15043 3.58811 57 51 55
-0.538939 1.14419 3.54993 69 66 72
-0.496225 1.14774 3.60246 53 49 55
-4.05365 -0.0394661 -1.26801 83 61 46
-5.18179 -0.85763 -4.08556 80 72 46
-5.82679 -0.6968 -4.72034 83 63 46
-5.83566 -0.699337 -4.73277 91 70 53
-4.05365 -0.0394661 -1.26801 83 61 46
-5.18179 -0.85763 -4.08556 80 72 46
-5.82679 -0.6968 -4.72034 83 63 46
-5.83566 -0.699337 -4.73277 91 70 53
-1.698 0.94219 2.36741 70 56 38
-1.71422 0.929125 2.30025 100 80 61
-1.71167 0.929232 2.30007 98 79 60
-1.70215 0.929282 2.29902 125 105 86
-1.71757 0.924905 2.27602 126 106 87
-1.32048 1.17776 2.88747 100 86 71
-1.68456 0.93358 2.32126 115 97 78
-1.69468 0.92934 2.29958 111 91 72
-1.71021 0.924937 2.27649 120 99 80
-1.70538 0.924957 2.27646 121 98 80
-1.3123 1.17656 2.88266 100 87 72
-1.72178 0.916194 2.2315 130 103 85
-1.67806 0.929294 2.29856 102 78 59
-1.70634 0.92066 2.25359 119 93 74
-1.69675 0.920691 2.25354 125 99 81
-1.20273 1.22451 3.0945 76 61 43
-1.27567 1.19338 2.95004 93 79 63
-1.69708 0.934756 2.30353 116 95 76
-1.66359 0.943605 2.34941 101 82 63
-1.66073 0.943733 2.35034 101 81 62
-1.65584 0.943737 2.35025 112 92 73
-1.67168 0.939246 2.32673 123 102 84
-1.27633 1.19346 2.94067 94 82 66
-1.27154 1.19438 2.94352 91 79 63
-1.62356 0.95201 2.39341 117 97 78
-1.62025 0.952303 2.39495 107 87 67
-1.63622 0.947829 2.37128 95 74 55
-1.64902 0.943578 2.349 108 85 66
-1.25061 1.19718 2.96157 88 74 59
-1.26884 1.19067 2.93034 91 78 62
-1.59014 0.960517 2.43886 85 66 50
-1.64417 0.943564 2.34886 107 84 65
-1.67561 0.934718 2.30243 108 83 65
-1.67284 0.934818 2.30326 127 102 84
-1.65224 0.939259 2.3264 135 112 93
-1.66528 0.934902 2.30395 135 110 91
-1.63148 0.943711 2.34968 112 89 70
-1.64741 0.939249 2.32628 140 116 97
-1.60654 0.950997 2.38827 100 78 59
-0.404453 1.28724 3.98163 135 100 80
-0.393975 1.2943 3.99663 138 103 83
0.273234 1.31643 3.60852 104 92 81
0.292355 1.32126 3.62644 109 96 85
0.237931 1.31504 3.56063 110 96 86
0.25664 1.31979 3.57809 114 101 90
0.239862 1.31879 3.5632 110 97 87
0.258574 1.32354 3.58066 115 101 91
0.218681 1.30177 3.53502 107 94 84
0.237272 1.30646 3.55235 112 98 88
0.22105 1.30563 3.53807 108 94 84
0.239659 1.31034 3.55542 112 99 88
0.223215 1.30944 3.54089 108 95 85
0.241807 1.31414 3.55822 113 99 89
0.225161 1.31317 3.54347 109 95 85
0.243739 1.31789 3.56078 113 100 89
0.20647 1.30009 3.51851 108 94 84
0.22493 1.30475 3.5357 113 98 88
0.208617 1.30388 3.52131 108 94 84
0.227084 1.30854 3.5385 113 98 88
0.189619 1.29076 3.49605 109 94 84
0.207948 1.29536 3.51309 114 98 88
0.19199 1.29459 3.4991 109 93 83
0.210318 1.29921 3.51614 113 98 87
0.175258 1.28532 3.4768 109 93 83
0.193463 1.28988 3.49371 113 98 87
0.155412 1.28946 3.44989 110 94 84
0.173369 1.29399 3.46652 114 99 88
-1.58525 1.00513 2.67776 85 71 48
-1.57948 1.0064 2.68288 85 71 48
-0.602195 1.55108 3.59069 87 80 88
-0.624413 1.53628 3.55465 85 79 89
-0.614934 1.5438 3.56825 88 82 92
0.087002 1.27901 3.38128 108 92 82
-2.42242 1.2116 3.36118 89 69 68
-2.42242 1.2116 3.36118 89 69 68
-1.14307 1.2269 3.08984 99 79 66
-3.16358 0.265198 0.319052 100 65 46
-3.16358 0.265198 0.319052 100 65 46
-1.69332 0.971572 2.44782 91 77 56
-1.56581 0.987752 2.53082 79 64 49
-1.56436 0.987346 2.52874 78 63 48
-1.51341 0.995584 2.5729 84 69 55
-1.51853 0.992349 2.55461 86 70 56
-1.23351 1.20384 2.95729 94 74 57
-1.18521 1.21545 3.02366 101 81 64
-1.52901 0.982962 2.50489 92 73 57
-1.21288 1.20684 2.9664 101 78 62
-1.2452 1.1933 2.90248 129 102 86
-1.51026 0.971479 2.44553 51 27 12
-1.50876 0.970183 2.43971 35 19 12
-0.382861 1.30479 3.97228 111 78 67
-0.39788 1.28829 3.94575 107 75 66
-0.368867 1.30069 3.98173 90 73 66
-0.357661 1.30801 3.99763 90 73 66
-0.44514 1.26246 3.86875 123 90 80
-0.467906 1.25642 3.83198 132 99 90
-1.85787 0.693817 1.72159 89 79 56
-1.55007 0.997952 2.55833 82 67 52
-1.54886 0.99744 2.55585 82 67 53
-1.52448 1.00017 2.57166 86 70 57
-1.52229 0.983266 2.48073 110 84 65
-1.53906 0.978581 2.4563 126 100 82
-1.51651 0.98575 2.49524 90 70 54
-1.51239 0.986335 2.49785 90 70 54
-1.53415 0.978529 2.45603 141 114 95
-1.52923 0.978479 2.45578 146 116 98
-1.19672 1.20821 2.9523 136 108 91
-1.52434 0.97842 2.4555 122 90 73
-1.53744 0.974162 2.43322 135 103 86
-0.355229 1.32213 4.06788 158 128 112
-1.17265 1.20984 2.96604 115 82 61
-1.16706 1.21107 2.96996 120 87 66
-3.16711 0.202422 0.237084 97 62 41
-5.87273 -0.698053 -4.74067 79 49 29
-3.04189 0.262464 0.348486 92 74 76
-3.04141 0.263578 0.349402 92 74 76
-1.98913 1.5111 4.3441 88 81 51
-1.98092 1.5114 4.35631 88 81 51
-3.16711 0.202422 0.237084 97 62 41
-5.87273 -0.698053 -4.74067 79 49 29
-3.04189 0.262464 0.348486 92 74 76
-3.04141 0.263578 0.349402 92 74 76
-1.98913 1.5111 4.3441 88 81 51
-1.98092 1.5114 4.35631 88 81 51
-0.330793 1.32526 4.06627 108 72 56
-0.344401 1.31905 4.0417 127 89 74
-0.408056 1.31158 3.94785 105 70 52
-1.48142 0.996723 2.52496 103 77 58
-1.50119 0.98922 2.48593 116 84 67
-1.49248 0.989604 2.48776 115 87 70
-1.327 1.03203 2.80121 25 11 0
-1.27413 1.06118 2.87986 25 11 0
-1.18385 1.11411 3.13981 84 70 53
-1.46362 1.01419 2.58985 86 67 51
-1.49319 1.00436 2.53885 102 80 61
-1.45384 1.01068 2.57062 93 71 56
-1.44995 1.01115 2.57283 93 71 56
-1.45278 1.01011 2.56799 93 71 56
-1.44879 1.01062 2.57034 93 71 56
-1.43863 1.01375 2.58781 99 77 62
-0.340267 1.32828 4.07876 120 88 66
-0.506712 1.56607 3.86635 60 50 41
-0.980129 1.14693 3.23954 5 5 3
-1.36195 1.04503 2.65139 16 9 7
-1.34578 1.04815 2.66408 28 21 19
-1.34051 1.04914 2.66814 55 49 47
-0.186658 1.65951 4.16949 86 74 73
-0.241495 1.62515 3.97556 76 78 92
-0.220745 1.63255 3.99909 76 78 92
-0.199822 1.64002 4.02281 76 78 92
-5.4745 -1.02462 -4.79296 82 63 47
-5.47869 -1.02599 -4.79711 86 67 51
-5.4745 -1.02462 -4.79296 82 63 47
-5.47869 -1.02599 -4.79711 86 67 51
-1.49177 1.01397 2.5635 103 81 62
-1.17197 1.09442 3.0621 99 78 60
-1.23264 1.06719 2.95733 42 28 13
-1.24017 1.06549 2.94218 39 29 13
-0.430076 1.31874 3.91265 113 80 62
-0.419249 1.326 3.92806 118 84 66
-0.423836 1.3165 3.91637 94 68 55
-0.366141 1.34171 3.98797 71 59 52
-0.354997 1.34913 4.00379 71 59 52
-0.343994 1.35651 4.01941 71 59 52
-0.39556 1.31649 3.94106 70 58 49
-0.383464 1.32419 3.95821 72 59 49
-0.371557 1.33183 3.97509 72 60 50
-0.359815 1.33944 3.99174 70 57 51
-0.34827 1.34699 4.00811 70 57 51
-0.336913 1.35449 4.02422 70 57 51
-0.325769 1.36194 4.04002 70 57 51
-0.318765 1.35987 4.04469 69 57 50
-0.307418 1.3674 4.06077 69 57 50
-0.440619 1.31816 3.89804 128 85 69
-0.429609 1.32549 3.91371 132 89 74
-0.434721 1.31581 3.90129 108 73 62
-0.377052 1.34105 3.97289 86 64 60
-0.365725 1.34853 3.98897 86 64 60
-0.354542 1.35599 4.00484 86 64 60
-0.407354 1.31552 3.92474 84 63 57
-0.395089 1.32328 3.94213 86 64 57
-0.382993 1.33099 3.95928 87 65 57
-0.371094 1.33866 3.97615 84 62 58
-0.359368 1.34628 3.99278 84 62 58
-0.347839 1.35385 4.00913 84 62 58
-0.336485 1.36137 4.02523 84 62 58
-0.329865 1.35918 4.02937 84 62 58
-0.318327 1.36678 4.04572 84 62 58
-1.44075 1.02267 2.56961 17 10 3
-1.40358 1.01218 2.58104 25 20 16
-1.38345 1.0228 2.61008 25 20 16
-1.36319 1.03352 2.63934 24 18 16
-1.07396 1.09978 3.13103 27 11 0
-0.327668 1.61406 4.03662 68 40 28
-2.69628 0.796023 0.666295 15 3 3
-2.49294 0.84119 0.707172 86 85 76
-2.50521 0.817147 0.655534 3 7 5
-2.50048 0.821232 0.661543 3 7 5
-2.47231 0.845093 0.695813 4 7 5
-2.45357 0.860877 0.718107 6 8 6
-2.44386 0.869352 0.730459 7 9 7
-2.43898 0.873613 0.736662 7 9 7
-2.45417 0.859842 0.71582 7 9 7
-2.44449 0.86829 0.728122 7 9 7
-2.43964 0.872537 0.734299 7 9 7
-2.5022 0.817624 0.653382 7 8 6
-2.45958 0.854619 0.707436 9 10 8
-2.45478 0.858805 0.713531 9 10 8
-2.44996 0.863008 0.719649 9 10 8
-2.44514 0.867225 0.725781 9 10 8
-2.44029 0.871459 0.731934 9 10 8
-2.44096 0.87038 0.729569 11 11 9
-2.48911 0.827927 0.666996 12 11 7
-1.11376 1.10397 3.11737 84 60 43
-1.42595 1.02087 2.60716 73 57 44
-1.39036 1.02737 2.63416 73 57 44
-1.4212 1.02067 2.60635 49 34 20
-1.41591 1.02168 2.61051 49 34 20
-1.41068 1.02267 2.61458 49 34 20
-1.40552 1.02363 2.61856 49 34 20
-1.40042 1.02457 2.62243 49 34 20
-1.39536 1.02548 2.62624 49 34 20
-0.305241 1.61131 4.0376 116 87 78
-2.79978 1.0883 2.62183 119 78 55
-2.79978 1.0883 2.62183 119 78 55
-1.96768 0.73218 1.97941 76 62 65
-0.446697 1.58216 3.88357 72 58 54
-0.379354 1.60423 3.96404 72 58 53
-0.438701 1.58912 3.89529 75 61 58
-0.371223 1.61129 3.97592 76 61 57
-0.430898 1.59601 3.90674 62 48 54
-0.363269 1.61828 3.98755 63 48 53
-0.453381 1.58105 3.86946 58 45 43
-0.386482 1.60298 3.94926 59 45 42
-0.44539 1.59326 3.87692 72 66 69
-0.378714 1.6152 3.95632 72 66 68
-0.438184 1.59988 3.88751 72 67 69
-0.371408 1.6219 3.96702 73 67 68
0.176497 1.35434 3.48292 125 112 99
0.193789 1.36178 3.49902 122 108 94
-1.45421 1.02838 2.58756 103 82 65
-0.429145 1.33223 3.91477 129 87 70
-0.262907 1.66799 4.14577 89 65 57
-0.325327 1.63483 4.01714 73 58 58
-0.341001 1.62631 3.99 71 56 58
0.187914 1.37948 3.50765 126 113 101
0.2795 1.35929 3.62254 127 114 103
0.286148 1.36779 3.63081 126 114 103
0.289178 1.37196 3.63463 128 116 104
0.291937 1.37604 3.63814 129 117 105
0.279188 1.37405 3.62088 126 115 102
0.281561 1.37799 3.62396 126 114 101
0.283687 1.38186 3.62677 126 114 101
0.252406 1.35171 3.58586 127 115 102
0.264047 1.3681 3.60056 126 113 100
0.266416 1.37203 3.60363 126 113 100
0.268561 1.37589 3.60646 126 113 100
0.273739 1.38707 3.61354 126 112 101
0.275043 1.39067 3.61543 126 112 101
0.276097 1.39418 3.61705 127 113 102
0.237369 1.34586 3.5657 127 114 101
0.251391 1.36612 3.58346 124 111 98
0.253558 1.36997 3.58631 124 112 99
0.258818 1.38113 3.59348 127 113 102
0.260113 1.38471 3.59536 127 113 102
0.263219 1.40778 3.60192 133 119 108
0.262809 1.41078 3.60191 134 120 109
0.236531 1.36026 3.56351 124 110 98
0.238722 1.36411 3.56639 124 111 98
0.242464 1.3716 3.57142 129 115 104
0.243989 1.37523 3.57355 130 116 105
0.245329 1.37881 3.57549 130 116 105
0.2487 1.40187 3.58233 134 120 109
0.248306 1.40487 3.58233 134 120 109
0.21396 1.34257 3.53373 125 112 99
0.227764 1.36577 3.55168 128 114 103
0.229362 1.36941 3.55389 128 114 103
0.230704 1.37297 3.55582 129 115 104
0.234422 1.39293 3.5626 132 118 107
0.234315 1.39601 3.56292 133 119 108
0.21482 1.36362 3.53435 125 111 100
0.219982 1.38397 3.54272 130 116 105
0.220121 1.38713 3.54332 130 116 105
0.184889 1.3312 3.49474 131 116 103
0.187691 1.3352 3.49827 132 116 104
0.20042 1.35789 3.515 126 112 101
0.205412 1.37501 3.52273 128 114 103
0.205769 1.37822 3.52357 128 114 103
0.167504 1.32154 3.4717 132 116 104
0.1704 1.34298 3.47461 130 116 104
0.172036 1.34659 3.47686 129 116 103
0.173495 1.35013 3.47891 129 116 103
0.174732 1.35361 3.48071 129 115 103
0.156361 1.33741 3.45575 127 114 101
0.16049 1.38454 3.4669 133 121 108
-1.63182 1.02926 2.55564 81 78 55
-1.52451 1.03578 2.59764 112 94 72
-0.307833 1.60713 3.90549 69 69 85
-0.287578 1.61439 3.92847 69 69 84
-0.292413 1.61542 3.92194 68 69 85
-0.267149 1.62172 3.95164 69 69 84
-0.272049 1.62274 3.94504 68 70 84
-0.246564 1.62909 3.975 69 70 84
-0.251503 1.63011 3.96835 69 69 84
-0.256614 1.63105 3.96146 68 69 84
-0.225798 1.63653 3.99856 69 70 84
-0.230772 1.63755 3.99187 69 69 84
-0.235951 1.63847 3.9849 67 69 84
-0.220534 1.64679 4.00125 66 67 84
-0.199544 1.65435 4.02506 66 67 84
-0.178405 1.66196 4.04903 66 67 84
-0.151488 1.66883 4.08071 66 67 84
-0.157062 1.66964 4.07324 66 67 84
-0.135552 1.67738 4.09764 66 67 84
-0.113876 1.68518 4.12222 66 67 84
-0.091983 1.69306 4.14705 66 67 85
-0.731857 1.19995 3.34532 74 74 94
-0.163332 1.65904 4.04991 73 75 94
-0.141951 1.66669 4.07408 73 75 94
-0.120408 1.6744 4.09843 73 75 94
-0.0986526 1.68219 4.12303 73 75 94
-0.714165 1.49379 3.42334 84 85 105
-0.174434 1.60969 3.89442 121 113 112
-0.170286 1.6148 3.90033 135 128 127
-0.166316 1.61985 3.90601 150 142 141
-0.200927 1.6046 3.83859 146 141 132
-0.294994 1.37366 4.12417 97 59 39
-0.33509 1.37252 4.06847 100 66 44
-0.348456 1.36618 4.04422 93 57 36
-0.165079 1.6669 4.07288 106 85 101
-0.187723 1.64126 4.00274 116 97 124
-0.203802 1.63283 3.97617 104 84 116
-0.238361 1.6069 3.86502 111 110 124
-0.146752 1.62643 3.93634 104 95 97
-0.143177 1.63133 3.94151 114 107 108
-0.139778 1.63616 3.94644 124 117 118
-0.660822 1.1658 3.63384 83 64 51
-0.243265 1.64344 4.05219 76 64 70
-0.248867 1.64419 4.04452 74 63 70
-0.254659 1.64485 4.03659 73 63 70
-0.260597 1.64543 4.02846 70 62 71
-0.222089 1.65109 4.07657 74 64 70
-0.227752 1.65184 4.06883 73 64 70
-0.233577 1.6525 4.06086 71 63 71
-0.239602 1.65306 4.05262 70 63 71
-0.200725 1.65882 4.10117 73 64 71
-0.206427 1.65956 4.09338 72 64 70
-0.212318 1.66021 4.08534 71 63 71
-0.218418 1.66076 4.077 69 63 71
-0.184937 1.66735 4.11812 71 64 70
-0.190899 1.66798 4.10999 71 64 71
-0.270604 1.63532 3.96299 108 91 98
-0.302825 1.63222 3.91433 88 91 110
-0.278054 1.63843 3.9434 90 92 109
-0.282518 1.63961 3.93738 89 91 110
-0.25756 1.64587 3.96666 90 92 109
-0.262068 1.64704 3.9606 89 91 110
-0.241416 1.65455 3.98404 89 91 109
-0.220615 1.66211 4.00766 89 91 109
-0.186278 1.66596 4.04937 91 93 111
-0.190527 1.66732 4.04368 90 92 109
-0.165002 1.67365 4.07352 91 93 111
-0.169276 1.67501 4.06781 90 92 109
-0.143506 1.68142 4.09794 91 93 111
-0.147846 1.68277 4.09214 90 92 109
-0.121858 1.68924 4.12252 91 93 111
-0.126232 1.6906 4.11668 90 91 110
-0.100021 1.69713 4.14731 92 93 112
-0.10442 1.69849 4.14144 90 91 110
-0.0824213 1.70646 4.16642 90 91 110
-0.166583 1.65545 4.0271 94 95 126
-0.145353 1.66304 4.051 94 95 126
-0.123943 1.67069 4.0751 94 94 126
-0.216215 1.62928 3.96445 110 89 116
-1.44089 1.07397 2.74061 82 68 50
-0.294614 1.38065 4.12511 127 90 69
-0.284701 1.38773 4.13928 123 86 65
-0.30433 1.38049 4.11163 123 87 66
-0.29421 1.38765 4.12609 118 83 62
-0.376657 1.36506 3.98974 71 40 24
-0.365899 1.37242 4.00506 71 39 23
0.141667 1.34165 3.47751 146 134 119
0.159957 1.34648 3.49465 141 129 115
0.127435 1.33598 3.45827 145 132 118
0.145602 1.34077 3.47527 141 128 114
-1.18363 1.15799 3.19456 82 67 48
-0.133219 1.66046 4.0021 94 92 119
0.109064 1.34303 3.43303 150 137 123
0.126984 1.3478 3.44975 150 138 124
0.145054 1.32052 3.44031 116 100 85
0.163134 1.32522 3.45711 121 104 90
0.158612 1.32664 3.45228 117 100 86
0.11577 1.32836 3.3979 119 104 89
0.133473 1.333 3.41427 124 108 94
0.130294 1.33482 3.41094 120 104 90
0.102098 1.32291 3.37958 119 104 89
0.119667 1.32751 3.39581 124 108 94
0.116484 1.32932 3.39247 120 104 90
-0.380177 1.35387 3.98457 75 53 39
-0.403876 1.34703 3.9462 75 46 34
-0.346002 1.61086 3.85596 134 106 119
-0.15647 1.62731 3.94741 109 104 120
-0.135785 1.63454 3.97022 109 107 123
-0.356983 1.39327 4.03407 69 41 21
-0.348967 1.37897 4.02968 33 25 19
-0.385717 1.36307 3.98231 75 49 33
-0.345214 1.38363 4.03477 67 47 33
-0.301988 1.41341 4.09634 66 46 33
-3.02644 0.554645 0.933552 124 70 51
-3.02644 0.554645 0.933552 124 70 51
-0.357442 1.38638 4.03301 56 28 8
-3.22673 0.178485 0.162174 91 71 53
-3.22621 0.179472 0.163159 91 71 53
-3.22688 0.178293 0.160736 91 71 53
-3.22635 0.179278 0.161718 91 71 53
-3.22673 0.178485 0.162174 91 71 53
-3.22621 0.179472 0.163159 91 71 53
-3.22688 0.178293 0.160736 91 71 53
-3.22635 0.179278 0.161718 91 71 53
-0.34497 1.39574 4.05573 86 54 29
-3.1986 0.285257 0.284813 95 67 54
-3.19643 0.285661 0.286722 95 67 55
-5.2962 -0.35394 -3.42883 83 63 47
-5.29746 -0.355619 -3.43127 83 63 47
-3.22777 0.178181 0.160092 98 76 58
-3.22791 0.17799 0.15866 98 76 58
-5.2942 -0.349095 -3.4147 82 63 44
-5.32137 -0.387477 -3.46766 84 64 46
-5.32245 -0.389143 -3.4698 83 63 46
-5.32352 -0.390808 -3.47193 83 63 45
-5.32458 -0.392473 -3.47404 82 62 45
-2.62601 1.21607 3.00861 101 72 64
-3.1986 0.285257 0.284813 95 67 54
-3.19643 0.285661 0.286722 95 67 55
-5.2962 -0.35394 -3.42883 83 63 47
-5.29746 -0.355619 -3.43127 83 63 47
-3.22777 0.178181 0.160092 98 76 58
-3.22791 0.17799 0.15866 98 76 58
-5.2942 -0.349095 -3.4147 82 63 44
-5.32137 -0.387477 -3.46766 84 64 46
-5.32245 -0.389143 -3.4698 83 63 46
-5.32352 -0.390808 -3.47193 83 63 45
-5.32458 -0.392473 -3.47404 82 62 45
-2.62601 1.21607 3.00861 101 72 64
-2.55006 0.927641 0.854263 101 103 109
-0.0778803 1.67892 4.13905 104 87 115
-0.0659529 1.67774 4.12552 99 91 119
-0.0647526 1.68174 4.12758 86 78 107
-0.0826991 1.66906 4.09818 114 108 131
-0.141742 1.64489 3.9915 126 121 139
-0.248127 1.61575 3.81425 114 114 118
-0.245194 1.62031 3.81858 113 113 118
-5.65773 -0.449272 -3.84777 102 67 47
-5.74374 -0.568071 -4.00075 101 67 46
-5.74476 -0.570054 -4.00274 102 68 47
-5.74271 -0.568863 -3.99723 101 67 46
-5.70373 -0.50886 -3.92272 103 68 48
-5.65773 -0.449272 -3.84777 102 67 47
-5.74374 -0.568071 -4.00075 101 67 46
-5.74476 -0.570054 -4.00274 102 68 47
-5.74271 -0.568863 -3.99723 101 67 46
-5.70373 -0.50886 -3.92272 103 68 48
-0.402331 1.39531 3.981 138 107 85
-0.176123 1.63107 3.97788 136 122 131
-0.158876 1.64653 3.99662 154 137 143
-0.168365 1.63411 3.93791 96 92 108
-0.303855 1.44182 4.09024 90 65 55
-0.357252 1.42866 4.03068 136 102 87
