ply
format ascii 1.0
comment Kinect v1 generated
element vertex 1286
property double x
property double y
property double z
property uchar red
property uchar green
property uchar blue
end_header
-1.09984 0.834988 9.26799 231 172 164
-1.1223 0.860044 9.54338 235 176 168
-1.11177 0.86006 9.54084 216 157 149
-1.04468 0.831838 9.21988 204 144 134
-1.02431 0.83187 9.21497 255 203 190
-1.01177 0.838386 9.28185 238 181 170
-0.983581 0.831934 9.20516 225 165 155
-0.977177 0.83518 9.23843 208 145 138
-0.963216 0.831966 9.20025 188 123 117
-0.956733 0.835212 9.23351 200 135 129
-0.942851 0.831998 9.19535 219 154 148
-0.924273 0.833641 9.20824 242 179 170
-0.914071 0.833657 9.20579 216 156 146
-0.903868 0.833673 9.20333 210 150 140
-0.893666 0.833689 9.20087 222 164 153
-0.868105 0.838611 9.24724 221 156 138
-0.856174 0.836996 9.22679 210 144 128
-0.845932 0.837012 9.22432 208 142 128
-0.806533 0.838707 9.2324 198 133 129
-0.800953 0.843655 9.2842 219 154 150
-0.790631 0.843671 9.28172 220 153 147
-0.753774 0.848726 9.32661 208 142 130
-0.709444 0.845457 9.28001 198 135 120
-0.699101 0.845473 9.27752 200 138 123
-0.688758 0.84549 9.27502 198 136 121
-0.681092 0.84884 9.3091 204 145 129
-0.670708 0.848856 9.30659 206 147 131
-0.662939 0.852233 9.34093 195 136 120
-0.652514 0.852249 9.33842 199 142 125
-0.629175 0.848921 9.29659 217 160 143
-0.620645 0.866028 9.47846 196 139 122
-0.598257 0.864323 9.45434 233 177 160
-0.587686 0.86434 9.4518 207 151 134
-0.564844 0.861778 9.41835 206 149 132
-0.550932 0.873169 9.53733 197 140 123
-0.539161 0.871419 9.51546 242 185 168
-0.529576 0.873202 9.53218 246 187 173
-0.518898 0.873219 9.52961 217 158 144
-0.506167 0.869709 9.48856 212 153 139
-0.496535 0.871485 9.50519 197 135 122
-0.489319 0.917973 10.0035 192 126 114
-0.478095 0.917991 10.0008 206 138 127
-0.443477 0.916091 9.97147 250 180 170
-0.432277 0.916108 9.96877 209 154 133
-0.42378 0.922008 10.0301 244 187 167
-0.409006 0.914199 9.94223 251 190 171
-0.27724 0.922238 9.99476 226 156 148
-0.265968 0.922255 9.99204 242 169 162
-0.228243 0.906781 9.81581 255 196 182
-0.216796 0.905274 9.79665 255 193 181
-0.199473 0.927656 10.033 196 136 125
-0.188136 0.927674 10.0303 170 114 101
-0.170597 0.895147 9.67577 151 97 85
-0.154347 0.92906 10.0365 114 64 53
-0.143199 0.930415 10.0482 83 35 25
-0.127784 0.901876 9.73714 71 22 15
-0.108621 0.926468 9.99681 71 24 16
-0.0973008 0.926486 9.99408 68 21 15
-0.07268 0.901962 9.72386 45 14 12
-0.0616596 0.901979 9.72121 49 15 13
-0.0508161 0.905154 9.75257 58 21 15
-0.0413184 0.94073 10.1329 69 31 22
0.0152094 0.886031 9.52979 114 63 44
0.0257866 0.87763 9.43666 123 72 53
0.0377688 0.907961 9.75994 146 95 76
0.0492342 0.914916 9.83182 184 133 114
0.0581708 0.881011 9.4647 181 130 113
0.068933 0.881028 9.46211 160 108 94
0.0796952 0.881045 9.45951 165 116 101
0.0904839 0.881319 9.45968 153 115 96
0.121292 0.87069 9.33738 139 98 76
0.134277 0.886217 9.5011 173 132 110
0.142562 0.870724 9.33225 172 130 106
0.154445 0.877831 9.40567 152 110 85
0.17482 0.872535 9.34343 192 148 123
0.18623 0.876098 9.37882 166 121 98
0.19693 0.876114 9.37624 185 140 117
0.217007 0.87084 9.31432 172 125 107
0.290278 0.867453 9.25898 213 160 154
0.322055 0.867503 9.25133 204 145 137
0.332647 0.867519 9.24878 212 154 143
0.352414 0.864077 9.20664 210 152 140
0.365158 0.869317 9.25974 188 132 117
0.375771 0.869334 9.25719 187 131 116
0.385608 0.867602 9.23602 192 139 123
0.3962 0.867619 9.23346 179 128 109
0.406792 0.867635 9.23091 185 137 117
0.418225 0.8694 9.24696 200 152 132
0.452803 0.874739 9.29549 255 215 199
0.463481 0.874756 9.29291 253 200 184
0.474159 0.874772 9.29034 208 152 137
0.484346 0.873903 9.27836 220 164 149
0.495014 0.87392 9.27579 228 172 155
0.506879 0.876006 9.29519 209 152 135
0.529698 0.878418 9.31525 247 188 172
0.553394 0.882043 9.34815 218 159 143
0.561862 0.878468 9.3075 220 158 143
0.574924 0.882076 9.34296 219 157 142
0.58569 0.882093 9.34037 222 160 145
0.652951 0.885816 9.36308 230 170 162
0.674571 0.88585 9.35787 236 176 168
0.73465 0.893268 9.42221 253 191 180
0.764357 0.902642 9.51542 242 180 167
0.77537 0.90266 9.51277 242 180 167
0.783924 0.899854 9.48038 238 176 163
0.794903 0.899871 9.47773 197 138 124
0.805881 0.899889 9.47509 200 136 126
0.814314 0.897101 9.44291 208 144 134
0.828702 0.900862 9.47968 215 151 141
0.839692 0.900879 9.47703 210 148 135
0.883804 0.924053 9.71501 229 170 154
0.898925 0.928044 9.75405 226 170 153
0.910246 0.928062 9.75133 254 201 185
0.932887 0.928097 9.74587 216 176 164
0.973125 0.934175 9.80089 77 50 43
0.976891 0.916367 9.60831 72 51 46
0.992279 0.92029 9.64656 74 55 49
1.0218 0.937084 9.81965 76 47 39
1.03323 0.937102 9.8169 78 49 41
0.993355 0.872054 9.12726 100 66 64
1.04186 0.904966 9.46888 109 74 72
1.05509 0.897477 9.3849 114 74 74
1.07497 0.905017 9.46091 121 79 80
1.10899 0.914912 9.5586 130 86 83
1.09932 0.897919 9.37825 129 86 80
1.11027 0.897936 9.37561 126 83 76
1.14212 0.914688 9.54765 138 94 85
1.12795 0.894622 9.3354 146 102 91
1.1657 0.907056 9.45946 131 92 77
1.17648 0.906862 9.45459 131 92 77
1.18754 0.906879 9.45192 145 106 91
1.17342 0.887842 9.25073 177 135 123
1.18424 0.887859 9.24812 169 126 117
1.19835 0.890316 9.27092 198 155 148
1.2092 0.890333 9.2683 221 178 172
1.22006 0.89035 9.26569 186 141 138
1.23601 0.894052 9.30141 175 130 127
1.25469 0.899655 9.35688 165 120 117
1.2687 0.894103 9.29354 189 141 139
1.2796 0.89412 9.29091 215 167 163
1.2905 0.894137 9.28828 215 167 163
1.3286 0.89052 9.23954 104 71 54
1.3367 0.888705 9.21792 109 73 57
1.36919 0.888756 9.21009 234 195 180
1.36044 0.876158 9.0768 182 140 126
1.39086 0.88879 9.20487 170 126 113
1.3846 0.877972 9.09009 181 135 122
1.39153 0.875617 9.06296 178 130 118
1.4022 0.875633 9.06039 179 129 118
1.41001 0.873879 9.0395 186 134 123
1.45768 0.883457 9.13027 177 120 113
1.46049 0.878684 9.07819 159 102 95
1.4819 0.878718 9.07303 144 105 88
1.50074 0.883524 9.11989 180 138 122
1.49019 0.871077 8.98868 180 138 122
1.5008 0.871094 8.98612 186 144 130
1.51141 0.87111 8.98356 169 127 113
1.51288 0.865892 8.92703 145 101 88
1.53058 0.869974 8.9664 194 150 137
1.55074 0.869424 8.95529 203 156 146
1.56764 0.872952 8.98889 203 156 146
1.57828 0.872969 8.98633 203 156 146
1.58891 0.872986 8.98377 213 166 156
1.59632 0.871243 8.96311 220 172 162
1.61018 0.873019 8.97864 212 164 154
1.65003 0.866106 8.89399 153 105 105
1.64738 0.859238 8.82077 173 125 125
1.68435 0.862142 8.84249 219 171 171
1.71332 0.866205 8.87874 210 162 162
1.72387 0.866222 8.8762 224 176 174
1.73442 0.866238 8.87366 244 196 194
1.74497 0.866255 8.87111 230 182 180
1.79119 0.878608 8.99212 199 151 149
1.67008 0.80956 8.28039 221 173 171
1.82205 0.878063 8.97831 212 163 158
1.85665 0.879304 8.98274 156 105 102
1.86735 0.87932 8.98016 150 99 96
1.88877 0.879354 8.975 166 112 110
1.91569 0.877027 8.94302 219 170 166
1.92923 0.873518 8.90177 200 155 150
1.97172 0.887878 9.04534 189 146 140
1.99595 0.884299 9.00058 253 215 206
2.07523 0.895365 9.09921 255 245 252
2.10138 0.897256 9.11282 209 192 198
2.1123 0.897273 9.11019 194 182 186
2.13651 0.902907 9.16457 207 196 202
2.20065 0.906778 9.18969 207 206 222
-4.50761 0.923234 10.9717 101 98 125
-4.34761 0.904071 10.7268 97 94 123
-4.448 0.92731 10.9997 93 90 119
-4.41052 0.931385 11.0333 105 102 133
-4.3992 0.931403 11.0306 111 112 143
-4.38599 0.933444 11.0489 111 112 143
-4.35392 0.931473 11.0197 111 112 143
-4.3426 0.931491 11.0169 110 111 142
-4.33128 0.931509 11.0142 108 109 140
-4.348 0.937573 11.083 105 106 137
-4.3045 0.935602 11.0508 109 110 141
-4.28176 0.935638 11.0453 108 109 140
-4.27655 0.937004 11.0585 103 104 135
-4.27132 0.938374 11.0717 100 101 132
-4.20447 0.933728 11.0051 104 103 134
-4.05865 0.923936 10.8635 112 111 142
-4.13967 0.950319 11.1647 111 110 141
-4.12562 0.952443 11.1837 107 106 137
-4.12311 0.954558 11.2055 111 110 141
-4.11152 0.954576 11.2027 114 113 144
-4.09092 0.952497 11.1753 112 111 142
-4.08833 0.954612 11.1971 108 107 138
-4.10464 1.00428 11.7292 116 116 144
-3.94035 0.969887 11.3213 108 108 136
-3.91679 0.969923 11.3157 116 116 144
-3.86418 0.96566 11.2568 107 108 136
-3.86105 0.967833 11.2791 110 111 141
-3.85791 0.970016 11.3015 116 117 147
-3.83436 0.970052 11.2958 115 116 146
-3.82258 0.970071 11.293 112 113 144
-3.8161 0.974466 11.338 106 107 138
-3.80427 0.974484 11.3352 110 110 144
-3.79244 0.974503 11.3323 113 113 147
-3.78061 0.974521 11.3295 114 114 148
-3.76878 0.97454 11.3266 117 117 151
-3.72492 0.972411 11.2927 123 120 147
-3.70963 0.974632 11.3124 114 111 138
-3.71449 0.979049 11.3605 115 112 139
-3.70261 0.979068 11.3577 115 112 139
-3.69907 0.9813 11.3805 114 111 138
-3.8406 1.02216 11.8511 113 111 135
-3.65971 0.983599 11.3948 59 58 74
-3.80292 1.02545 11.8764 26 25 39
-3.40219 0.920425 10.6571 9 9 19
-3.60787 0.98256 11.3704 3 4 9
-2.07366 0.76199 8.63135 88 80 91
-2.00142 0.755717 8.54609 134 124 135
-1.7481 0.757435 8.49909 252 221 219
-1.73893 0.757449 8.49688 255 218 215
-1.72675 0.756146 8.47991 235 187 183
-1.71759 0.756161 8.4777 198 143 140
-1.91577 0.852529 9.5528 217 160 153
-1.6839 0.757535 8.48363 250 200 193
-1.67765 0.758871 8.49621 255 203 198
-1.66555 0.757564 8.47921 253 192 189
-1.65638 0.757578 8.477 225 160 158
-1.64817 0.758032 8.47971 223 161 162
-1.63519 0.75629 8.45785 255 198 197
-1.58026 0.756375 8.44461 220 177 170
-1.56928 0.755514 8.43263 196 147 142
-1.54185 0.755557 8.42602 253 202 198
-1.50701 0.75649 8.42696 228 195 186
-1.51107 0.772652 8.59976 189 137 126
-1.46738 0.764551 8.50242 191 141 130
-1.45399 0.767276 8.52792 179 130 116
-1.44309 0.776446 8.62256 189 138 121
-1.42337 0.781135 8.66731 180 129 108
-1.41392 0.78115 8.66503 192 141 120
-1.40447 0.781165 8.66276 203 140 131
-1.40004 0.783993 8.69168 215 152 143
-1.39616 0.792589 8.78201 202 139 130
-1.37698 0.792619 8.77739 180 120 112
-1.3749 0.796987 8.82328 186 126 118
-1.35288 0.789773 8.74094 190 131 125
-1.36311 0.801419 8.86733 214 155 149
-1.35841 0.804396 8.89776 225 167 163
-1.34372 0.801449 8.86266 222 164 160
-1.33895 0.804426 8.89307 199 144 139
-1.31462 0.807456 8.919 234 179 176
-1.30485 0.807471 8.91664 243 188 185
-1.29508 0.807487 8.91429 228 182 166
-1.29492 0.813537 8.97854 217 171 155
-1.32475 0.845151 9.32216 203 154 140
-1.32481 0.85178 9.39263 251 199 186
-1.31708 0.853465 9.40855 255 204 191
-1.2939 0.851828 9.38518 234 180 170
-1.2836 0.851844 9.3827 207 153 143
-1.26796 0.855222 9.41457 255 211 204
-1.22969 0.850261 9.35199 183 139 130
-1.20208 0.845342 9.29261 212 144 135
-1.19186 0.845358 9.29015 183 116 107
-1.15546 0.848717 9.31646 255 214 198
-1.14967 0.852054 9.35043 233 182 165
-1.13604 0.849577 9.3206 164 111 95
-1.04469 0.842312 9.21987 255 197 181
-1.03451 0.842328 9.21742 255 203 189
-1.02433 0.842344 9.21497 253 194 180
-1.01179 0.848942 9.28185 247 185 170
-0.989337 0.847323 9.25886 246 183 168
-0.953051 0.842456 9.19779 255 189 176
-0.922504 0.842503 9.19043 225 155 143
-0.912321 0.842519 9.18798 214 142 130
-0.823864 0.845934 9.20148 215 148 132
-0.816813 0.849247 9.23487 238 172 156
-0.77728 0.850969 9.24299 243 182 164
-0.766998 0.850985 9.24051 228 167 149
-0.730147 0.856063 9.28499 202 135 116
-0.719804 0.85608 9.28249 197 130 111
-0.697293 0.853876 9.25328 211 144 125
-0.678434 0.856144 9.27253 225 158 141
-0.669846 0.858408 9.29437 213 146 129
-0.659476 0.858424 9.29187 216 149 132
-0.64996 0.859569 9.30158 206 139 123
-0.639577 0.859585 9.29908 215 149 133
-0.629193 0.859602 9.29658 212 146 132
-0.61881 0.859618 9.29408 211 145 131
-0.613263 0.866467 9.36544 205 139 125
-0.605202 0.869941 9.40028 209 145 133
-0.588821 0.861365 9.30492 221 157 145
-0.575402 0.872602 9.42088 203 133 121
-0.564863 0.872619 9.41834 238 170 157
-0.549836 0.882363 9.51802 203 135 122
-0.444442 0.929589 9.99271 255 184 167
-0.409026 0.925695 9.94222 236 160 144
-0.397849 0.925713 9.93953 248 175 160
-0.375496 0.925748 9.93414 255 189 170
-0.354648 0.929729 9.97108 238 175 157
-0.343424 0.929747 9.96837 250 192 172
-0.333622 0.933744 10.0083 255 206 187
-0.32235 0.933762 10.0056 255 207 187
-0.298527 0.929817 9.95755 222 160 147
-0.287916 0.93182 9.97611 230 164 152
-0.261431 0.958486 10.2527 255 193 181
-0.232171 0.933903 9.98389 252 184 171
-0.218714 0.924684 9.88246 246 180 166
-0.213744 0.952283 10.1745 199 135 123
-0.204482 0.962807 10.2839 157 98 84
-0.188156 0.939335 10.0303 144 86 74
-0.177776 0.944436 10.0818 133 79 67
-0.159677 0.906416 9.67313 132 80 69
-0.139472 0.917461 9.78529 75 27 17
-0.117328 0.917496 9.77996 74 27 19
-0.103847 0.89672 9.55571 68 21 13
-0.0934377 0.900698 9.5953 57 10 4
-0.0873134 0.952481 10.144 53 6 0
-0.0704393 0.884904 9.42155 41 9 10
-0.0509212 0.918072 9.76897 40 3 0
-0.0387192 0.89219 9.4908 45 5 0
-0.0174663 0.906639 9.63886 70 24 8
-0.00645638 0.896872 9.53225 80 32 12
0.00448036 0.920611 9.78169 81 30 9
0.0266817 0.920193 9.77153 138 86 64
0.0370419 0.902143 9.57705 143 91 70
0.0466409 0.877967 9.31768 161 108 90
0.0585277 0.897848 9.52587 145 92 76
0.0796764 0.892115 9.45951 166 114 100
0.0904386 0.892132 9.45691 143 105 84
0.101201 0.892148 9.45432 185 147 126
0.127091 0.92392 9.78527 202 162 137
0.137576 0.919527 9.73588 183 143 118
0.145083 0.897368 9.49848 154 112 87
0.153488 0.883464 9.34856 145 104 76
0.163813 0.881696 9.32712 175 131 104
0.195718 0.881746 9.31943 172 126 103
0.206353 0.881763 9.31687 172 125 105
0.227623 0.881796 9.31175 157 110 94
0.236823 0.876503 9.25313 193 145 131
0.247394 0.876519 9.25058 176 128 114
0.267998 0.874796 9.22697 212 162 155
0.279668 0.878332 9.26153 223 173 166
0.314737 0.952417 10.0398 226 173 165
0.301661 0.880727 9.28131 243 188 181
0.322036 0.878398 9.25132 208 150 139
0.352395 0.874928 9.20663 221 163 149
0.366617 0.883797 9.29721 188 130 116
0.374997 0.878481 9.23856 189 133 116
0.398586 0.883847 9.28951 200 149 130
0.417365 0.878547 9.22835 207 159 139
0.427958 0.878564 9.2258 201 148 134
0.452785 0.885722 9.29548 255 207 193
0.463463 0.885739 9.29291 255 206 190
0.474141 0.885756 9.29033 209 153 138
0.484819 0.885772 9.28776 213 157 142
0.494494 0.883997 9.2664 223 166 149
0.50515 0.884013 9.26383 199 142 125
0.516329 0.884925 9.27064 214 155 139
0.548887 0.885873 9.27232 224 163 145
0.561843 0.889497 9.3075 223 162 144
0.574906 0.89315 9.34295 215 154 136
0.584476 0.891345 9.32131 220 157 140
0.595219 0.891361 9.31872 250 187 170
0.619233 0.895047 9.35169 255 204 198
0.63002 0.895064 9.3491 242 182 174
0.654275 0.898779 9.38233 236 176 168
0.675939 0.898813 9.37711 232 169 160
0.695352 0.910061 9.49164 225 162 153
0.706319 0.910078 9.48899 217 155 144
0.712833 0.904445 9.42745 225 163 152
0.723732 0.904462 9.42483 240 178 167
0.734631 0.904479 9.4222 229 167 154
0.795713 0.912115 9.48761 214 152 139
0.836183 0.908392 9.43763 211 148 133
0.854228 0.916024 9.51408 242 181 163
0.898905 0.939689 9.75405 243 186 167
0.894837 0.923819 9.58646 255 201 181
0.948265 0.943817 9.7852 193 154 139
0.976061 0.948769 9.83066 97 65 54
0.98749 0.948786 9.82791 74 44 34
0.998919 0.948804 9.82516 75 48 39
1.01035 0.948822 9.8224 71 44 35
1.03872 0.943507 9.75861 89 57 46
1.02466 0.901209 9.31275 109 68 64
1.07518 0.926055 9.56377 121 75 75
1.07495 0.916369 9.4609 128 82 82
1.09702 0.916404 9.45558 132 84 80
1.11979 0.926125 9.55302 133 86 80
1.11025 0.909198 9.37561 127 80 72
1.1421 0.92616 9.54764 134 87 77
1.12793 0.905842 9.33539 143 99 88
1.17307 0.924255 9.51942 129 91 72
1.17647 0.918235 9.45458 136 98 79
1.18752 0.918252 9.45192 144 105 88
1.19858 0.91827 9.44925 149 110 95
1.18422 0.898993 9.24811 170 128 116
1.19833 0.901481 9.27091 200 157 148
1.20918 0.901498 9.2683 220 177 170
1.22004 0.901515 9.26568 173 128 122
1.27144 0.923111 9.48193 135 90 85
1.25999 0.899112 9.22986 157 109 105
1.27038 0.898821 9.22409 199 152 146
1.29226 0.906599 9.30111 212 163 158
1.30687 0.90165 9.24476 127 78 71
1.33379 0.890704 9.1215 165 123 107
1.36078 0.894379 9.1536 225 182 166
1.38 0.899915 9.20748 174 128 113
1.39084 0.899931 9.20487 188 142 127
1.3829 0.887895 9.07901 183 137 122
1.39528 0.888995 9.0875 189 141 127
1.40598 0.889011 9.08492 196 148 134
1.41668 0.889028 9.08235 202 154 140
1.44976 0.889681 9.08076 196 146 135
1.46047 0.889697 9.07818 176 126 115
1.47118 0.889714 9.0756 146 105 85
1.47191 0.883742 9.01195 174 133 113
1.49259 0.889748 9.07044 199 158 138
1.4962 0.885563 9.02505 176 133 114
1.50381 0.883792 9.00426 182 139 122
1.51751 0.885597 9.01991 182 139 122
1.52201 0.882044 8.981 163 120 103
1.53057 0.880877 8.9664 219 173 157
1.54116 0.880894 8.96384 217 171 156
1.55072 0.88032 8.95528 212 166 151
1.60276 0.88573 8.99937 215 167 155
1.61342 0.885747 8.9968 207 159 147
1.62408 0.885763 8.99424 205 155 144
1.63473 0.88578 8.99167 220 170 159
1.65001 0.876958 8.89398 146 96 97
1.67397 0.884058 8.96326 156 106 107
1.67383 0.872927 8.84501 252 202 203
1.6821 0.871785 8.83075 210 160 161
1.69935 0.875287 8.86352 196 146 145
1.71331 0.877057 8.87873 179 129 128
1.72732 0.878834 8.89401 210 160 159
1.73789 0.87885 8.89146 231 181 180
1.74496 0.877106 8.87111 236 188 186
1.7555 0.877123 8.86856 213 165 163
1.78735 0.882459 8.91707 201 153 151
1.79074 0.878933 8.87873 212 164 162
1.84093 0.887893 8.96102 192 145 139
1.86987 0.891542 8.99234 156 107 103
1.87155 0.877304 8.8406 190 141 137
1.8821 0.877321 8.83806 189 140 136
1.91471 0.882658 8.88638 203 158 153
1.92532 0.882675 8.88383 196 153 147
1.94377 0.886263 8.91721 188 147 141
2.09701 0.90661 9.09395 217 200 206
2.10791 0.906627 9.09132 187 172 177
-4.50925 0.932774 10.9511 73 70 97
-4.50763 0.934779 10.9717 83 80 107
-4.49641 0.934797 10.969 100 97 126
-4.47396 0.934832 10.9636 114 111 140
-4.47057 0.938869 11.0051 106 103 132
-4.4593 0.938887 11.0024 104 101 130
-4.44802 0.938904 10.9996 99 96 127
-4.40662 0.934937 10.9473 95 92 123
-4.40294 0.938975 10.9888 91 88 119
-4.39166 0.938993 10.9861 99 96 127
-4.39922 0.943047 11.0306 114 113 145
-4.35785 0.939045 10.9779 111 110 142
-4.3559 0.941077 10.9987 108 107 139
-4.35394 0.943118 11.0197 105 104 136
-4.34262 0.943136 11.0169 103 102 134
-4.3313 0.943153 11.0142 103 102 134
-4.34802 0.949293 11.0829 102 101 133
-4.30452 0.947297 11.0508 105 104 136
-4.28178 0.947333 11.0453 110 109 141
-4.23265 0.954325 11.1061 106 105 136
-4.22733 0.955728 11.1194 99 98 129
-4.18823 0.959999 11.1542 105 104 135
-4.23309 0.975685 11.3304 111 110 141
-4.15367 0.960053 11.1459 110 109 140
-4.14215 0.960071 11.1431 105 102 133
-4.13969 0.962194 11.1647 104 101 132
-4.12564 0.964344 11.1837 99 96 127
-4.11407 0.964362 11.1809 110 107 138
-4.10251 0.96438 11.1781 114 111 142
-4.09094 0.964398 11.1753 114 111 142
-4.08835 0.966539 11.1971 110 107 138
-4.07413 0.968708 11.2162 114 111 142
-4.05089 0.968745 11.2106 117 114 145
-4.0455 0.973075 11.2547 117 114 145
-4.02216 0.973112 11.2491 118 117 148
-3.99881 0.973148 11.2435 116 115 146
-3.96668 0.971033 11.213 125 124 155
-3.9638 0.973203 11.235 118 117 148
-3.99641 0.984127 11.3581 109 108 139
-3.84359 0.952155 10.9832 119 119 147
-3.94037 0.982 11.3213 96 96 124
-3.91682 0.982037 11.3157 114 114 142
-3.87593 0.977701 11.2596 114 114 142
-3.87283 0.979901 11.2819 113 112 143
-3.86971 0.982111 11.3043 117 116 147
-3.86498 1.02157 11.7172 122 120 144
-3.70965 0.9868 11.3123 117 114 141
-3.71451 0.991272 11.3605 121 118 145
-3.70263 0.99129 11.3577 123 120 147
-3.69909 0.993551 11.3805 120 117 144
-3.84062 1.03492 11.8511 116 114 138
-3.19389 0.866271 9.91451 91 89 110
-3.65973 0.995877 11.3948 59 58 74
-3.63174 0.994787 11.3761 20 20 30
-2.13305 0.77963 8.7321 61 59 62
-2.11323 0.775796 8.68675 55 53 56
-2.07368 0.771487 8.63134 117 110 118
-2.06445 0.771501 8.62912 97 87 96
-2.05521 0.771516 8.62689 119 109 118
-1.798 0.784618 8.69823 251 224 231
-1.73279 0.768235 8.50949 235 195 195
-1.70845 0.765593 8.47549 216 158 156
-1.69604 0.768293 8.50063 255 194 188
-1.6564 0.767012 8.47699 218 149 144
-1.58943 0.765779 8.44681 255 210 204
-1.57844 0.764907 8.43483 255 213 206
-1.57112 0.765808 8.4424 218 169 164
-1.56196 0.765822 8.44019 210 157 153
-1.50703 0.765908 8.42696 255 229 218
-1.49996 0.766989 8.43648 252 198 188
-1.49391 0.768609 8.45193 182 128 118
-1.47553 0.768638 8.4475 175 123 112
-1.46635 0.768652 8.44529 191 139 128
-1.45716 0.768667 8.44308 176 124 111
-1.44218 0.775474 8.51067 175 123 109
-1.42263 0.785205 8.60779 180 127 109
-1.43888 0.799466 8.76165 180 127 109
-1.40938 0.788325 8.63712 189 136 118
-1.39996 0.78834 8.63485 199 137 126
-1.40006 0.79375 8.69167 214 152 141
-1.38608 0.79665 8.7185 186 126 116
-1.37408 0.795227 8.70048 170 110 100
-1.372 0.799571 8.74553 176 116 106
-1.36245 0.799585 8.74323 182 123 115
-1.35316 0.805461 8.80251 208 151 144
-1.34846 0.80843 8.83247 216 159 152
-1.33404 0.811437 8.86032 212 157 152
-1.32195 0.815974 8.90483 243 188 183
-1.31463 0.817503 8.91899 249 196 190
-1.2951 0.817533 8.91428 206 158 144
-1.28362 0.862441 9.38269 226 169 160
-1.25517 0.86418 9.39362 196 143 137
-1.24485 0.864196 9.39113 194 144 137
-1.21942 0.860854 9.34951 170 121 114
-1.2115 0.862554 9.36531 204 141 132
-1.19188 0.855873 9.29014 209 146 137
-1.18472 0.85811 9.31178 238 178 167
-1.17447 0.858126 9.30931 249 189 178
-1.15099 0.855937 9.28029 252 193 179
-1.14969 0.862651 9.35042 202 143 129
-1.13606 0.860143 9.32059 153 91 78
-1.12578 0.860159 9.31812 190 128 115
-1.11551 0.860175 9.31564 206 144 129
-1.08544 0.852723 9.22968 221 159 144
-1.06508 0.852754 9.22478 255 204 187
-0.953069 0.85293 9.19779 229 161 148
-0.873298 0.85471 9.19594 215 152 135
-0.851244 0.853089 9.17325 206 139 123
-0.844326 0.856416 9.2064 217 148 133
-0.834105 0.856432 9.20394 233 159 146
-0.823883 0.856448 9.20147 240 164 151
-0.816831 0.859802 9.23486 233 155 143
-0.806569 0.859818 9.23239 229 151 139
-0.796308 0.859834 9.22992 234 158 145
-0.789121 0.863214 9.26355 236 164 150
-0.777298 0.861545 9.24298 233 166 150
-0.767016 0.861561 9.24051 227 164 149
-0.758215 0.863263 9.2561 217 158 142
-0.740508 0.866686 9.28747 192 136 119
-0.730165 0.866702 9.28498 176 109 90
-0.697312 0.864487 9.25327 238 171 152
-0.678452 0.866783 9.27252 224 157 140
-0.669864 0.869075 9.29436 211 144 127
-0.657768 0.866815 9.26754 220 153 136
-0.649978 0.87025 9.30158 238 171 155
-0.639595 0.870266 9.29908 220 153 137
-0.621278 0.873744 9.33087 198 132 118
-0.620682 0.887819 9.47845 198 132 118
-0.605221 0.88075 9.40027 198 132 120
-0.586546 0.884311 9.43285 184 120 108
-0.571418 0.877298 9.35534 221 153 140
-0.564881 0.883459 9.41833 228 160 147
-0.552683 0.880832 9.38761 242 174 161
-0.527475 0.891554 9.49367 234 171 156
-0.536543 0.945022 10.0572 197 134 117
-0.500583 0.941046 10.0062 230 165 147
-0.489359 0.941064 10.0035 236 169 152
-0.476105 0.937087 9.95837 222 154 135
-0.444462 0.941134 9.9927 255 191 174
-0.420222 0.937174 9.9449 212 136 120
-0.399565 0.941204 9.98189 238 166 151
-0.333642 0.945339 10.0083 255 213 199
-0.322369 0.945357 10.0056 253 194 180
-0.276667 0.98333 10.3924 255 176 158
-0.232191 0.945498 9.98388 255 197 182
-0.212637 0.959022 10.1208 165 100 82
-0.194707 0.92807 9.7913 137 74 56
-0.187102 0.945568 9.97301 135 77 57
-0.177796 0.95616 10.0818 126 69 50
-0.164557 0.945604 9.96758 94 41 23
-0.153285 0.945621 9.96487 88 36 22
-0.139388 0.928156 9.77798 78 30 18
-0.130741 0.945657 9.95944 69 22 14
-0.11726 0.928191 9.77264 61 16 11
-0.10913 0.953858 10.04 56 12 11
-0.095252 0.929397 9.77964 50 8 9
-0.0841744 0.929414 9.77697 48 6 8
-0.0718505 0.913588 9.60768 38 13 9
-0.0623071 0.93377 9.81706 36 12 10
-0.0518346 0.94578 9.94042 31 7 5
-0.0329465 0.768213 8.07179 30 6 6
-0.0307837 0.994042 10.4416 32 8 8
0.00418615 0.874722 9.18017 58 26 27
0.015027 0.89967 9.43923 141 106 104
0.0260313 0.909562 9.54024 154 114 112
0.0377643 0.93163 9.76884 141 96 91
0.124095 0.913475 9.55607 167 124 108
0.156747 0.913526 9.5482 172 126 110
0.163795 0.892635 9.32711 194 148 132
0.185064 0.892669 9.32199 171 124 106
0.195699 0.892685 9.31943 184 137 119
0.216969 0.892718 9.3143 158 110 90
0.226916 0.890039 9.28362 151 103 83
0.24688 0.885615 9.23204 190 142 122
0.277787 0.883305 9.19985 229 160 153
0.301439 0.891052 9.27507 250 191 183
0.343202 0.889326 9.24621 236 158 154
0.352376 0.88578 9.20662 219 146 139
0.457873 0.885945 9.18121 245 177 166
0.476052 0.900391 9.32815 231 163 152
0.484309 0.895848 9.27835 230 162 151
0.494976 0.895865 9.27578 242 174 161
0.505643 0.895881 9.27321 240 172 159
0.52966 0.900474 9.31524 209 141 128
0.542271 0.886077 9.16087 222 156 144
0.570224 0.89689 9.26717 219 152 143
0.583267 0.900558 9.30232 215 148 139
0.593989 0.900575 9.29974 255 194 185
0.603482 0.898762 9.27827 249 199 188
0.639479 0.904324 9.32738 251 178 172
0.665088 0.909938 9.37972 241 175 163
0.70337 0.917538 9.44963 226 144 133
0.731583 0.911915 9.38336 232 161 143
0.746541 0.916972 9.43258 227 165 142
0.7689 0.91764 9.43384 247 179 156
0.779822 0.917657 9.43121 247 179 156
0.814275 0.919616 9.4429 216 143 137
0.854208 0.927376 9.51407 235 160 155
0.896957 0.949293 9.73312 225 161 152
0.967973 0.963853 9.86767 104 65 48
1.00348 0.987527 10.107 121 85 71
0.983061 0.956254 9.78402 93 59 47
1.00384 0.965309 9.87372 95 65 54
1.01033 0.960578 9.82239 76 46 36
1.01064 0.950149 9.71284 80 49 31
1.02122 0.949487 9.70318 87 54 39
1.02011 0.938102 9.58396 131 95 81
1.04381 0.949522 9.69773 165 127 116
1.06194 0.95569 9.7578 151 111 103
1.08512 0.94621 9.65234 141 93 91
1.097 0.927756 9.45557 138 89 85
1.12182 0.878205 8.92909 111 73 54
1.18688 0.92058 9.35713 111 72 55
1.20962 0.92966 9.44658 143 104 89
1.2042 0.908916 9.23024 237 194 185
1.26387 0.905301 9.17694 178 131 125
1.27724 0.907172 9.19314 195 146 139
1.32719 0.911909 9.23001 113 66 50
1.34749 0.911005 9.2153 171 124 108
1.36076 0.905452 9.1536 226 179 163
1.37999 0.911056 9.20747 177 130 114
1.39082 0.911073 9.20486 207 161 145
1.39356 0.898905 9.07643 210 164 148
1.40425 0.898921 9.07385 207 161 145
1.41494 0.898938 9.07128 190 144 129
1.42158 0.896408 9.04301 199 156 140
1.43128 0.895821 9.03435 231 188 172
1.44192 0.895837 9.03179 231 188 172
1.47954 0.892895 8.99122 205 163 141
1.49015 0.892911 8.98866 162 120 98
1.50684 0.896541 9.02247 176 133 114
1.51749 0.896558 9.01991 195 150 131
1.53984 0.897197 9.02086 211 165 149
1.55051 0.897213 9.01829 229 182 166
1.53833 0.884102 8.8838 236 189 173
1.55504 0.887661 8.91685 220 172 158
1.63544 0.891347 8.93486 195 145 146
1.65663 0.89138 8.92975 153 103 104
1.67109 0.887842 8.88889 214 164 165
1.67159 0.882555 8.83327 251 201 202
1.70986 0.886133 8.86098 215 165 164
1.71696 0.884381 8.84076 228 178 177
1.73092 0.886166 8.8559 217 167 166
1.74145 0.886182 8.85336 224 174 173
1.74848 0.884431 8.83317 213 164 160
1.84358 0.889889 8.86598 248 201 195
1.85415 0.889905 8.86344 255 211 205
1.86098 0.888139 8.84314 255 222 217
1.87529 0.889938 8.85834 255 214 208
1.89263 0.888189 8.83551 238 193 187
2.00411 0.910167 9.03751 255 225 215
2.01492 0.910184 9.03491 227 206 213
2.03067 0.902822 8.95358 253 234 240
2.10571 0.921635 9.13174 230 213 219
2.12759 0.921669 9.12647 234 221 228
2.13854 0.921687 9.12383 227 216 224
2.15396 0.923623 9.14019 204 194 202
2.16493 0.92364 9.13754 195 188 196
2.18957 0.929464 9.19233 196 189 197
2.20061 0.929482 9.18967 200 194 204
2.68412 1.12807 11.1497 141 135 145
-4.51888 0.946307 10.9744 77 77 105
-4.50765 0.946325 10.9717 81 81 109
-4.49643 0.946342 10.969 90 90 118
-4.45499 0.942361 10.917 109 109 137
-4.47059 0.950464 11.0051 102 101 132
-4.44804 0.950499 10.9996 96 95 126
-4.40296 0.95057 10.9888 98 97 129
-4.39168 0.950587 10.9861 106 105 137
-4.39924 0.954692 11.0306 112 111 145
-4.35787 0.95064 10.9779 106 105 139
-4.36528 0.954745 11.0224 101 100 134
-4.35396 0.954763 11.0197 96 95 129
-4.34264 0.95478 11.0169 94 93 127
-4.33132 0.954798 11.0142 95 94 128
-4.34804 0.961013 11.0829 97 96 130
-4.30454 0.958992 11.0508 100 99 133
-4.27967 0.96112 11.0665 107 106 140
-4.27753 0.963222 11.0877 107 106 140
-4.28469 0.967435 11.1332 110 109 140
-4.23186 0.963293 11.0767 117 116 147
-4.22961 0.965405 11.098 113 112 143
-4.19294 0.967579 11.1111 111 110 141
-4.10253 0.97628 11.1781 112 109 140
-4.09996 0.978448 11.1999 110 107 138
-4.09739 0.980625 11.2218 111 108 139
-4.08577 0.980643 11.219 110 107 138
-4.07415 0.980661 11.2162 109 106 137
-4.05091 0.980698 11.2106 112 109 140
-4.0188 0.978575 11.1804 119 116 147
-4.01605 0.980752 11.2022 121 120 151
-4.02218 0.985118 11.2491 118 117 148
-4.21363 1.05041 11.9754 124 123 154
-3.94047 0.985246 11.2294 117 116 147
-3.87595 0.989761 11.2596 110 109 140
-3.87285 0.991987 11.2819 111 110 141
-3.86973 0.994224 11.3043 118 117 148
-3.85795 0.994242 11.3015 126 125 156
-3.8344 0.994279 11.2958 122 121 152
-3.82262 0.994298 11.293 121 120 152
-3.81614 0.998801 11.338 125 121 154
-3.80431 0.99882 11.3351 128 124 159
-3.78065 0.998857 11.3294 121 117 152
-3.76882 0.998875 11.3266 117 113 148
-3.73333 0.998931 11.318 122 119 146
-3.70968 0.998968 11.3123 125 122 149
-3.71453 1.00349 11.3605 128 125 152
-3.71102 1.00578 11.3833 130 127 154
-3.7075 1.00808 11.4063 127 124 151
-3.69556 1.0081 11.4034 120 118 142
-3.65975 1.00816 11.3948 58 57 73
-3.7498 1.03636 11.7104 39 38 52
-3.69733 1.02523 11.5815 22 22 32
-3.6852 1.02525 11.5786 7 8 13
-3.71299 1.03642 11.7015 2 3 7
-3.66092 1.02529 11.5727 5 6 10
-2.15615 0.79428 8.79041 52 50 53
-2.14676 0.794294 8.78814 77 75 78
-2.09943 0.780211 8.62994 70 68 71
-2.09289 0.781229 8.63882 100 98 101
-2.08098 0.78024 8.6255 126 116 125
-2.07176 0.780254 8.62327 139 129 138
-2.02753 0.781056 8.62022 173 161 171
-1.75118 0.777657 8.51391 255 241 249
-1.73281 0.777686 8.50948 213 183 183
-1.69606 0.777744 8.50063 244 166 164
-1.71968 0.797244 8.70891 229 156 149
-1.65642 0.776446 8.47698 219 155 145
-1.58945 0.775197 8.4468 252 203 198
-1.57846 0.774314 8.43482 255 230 221
-1.56931 0.774328 8.43262 255 212 204
-1.6903 0.838928 9.13357 209 160 153
-1.49393 0.77806 8.45193 216 162 152
-1.48474 0.778074 8.44971 184 130 120
-1.45972 0.779477 8.45783 189 132 121
-1.45816 0.7836 8.50017 185 129 116
-1.43292 0.785022 8.50844 172 116 101
-1.42264 0.794858 8.60778 198 142 125
-1.41882 0.798001 8.63939 188 132 115
-1.4094 0.798016 8.63712 182 126 109
-1.38954 0.792079 8.57045 207 148 134
-1.40768 0.807873 8.73888 213 153 142
-1.39815 0.807888 8.73658 212 152 141
-1.3836 0.804987 8.70277 205 145 134
-1.37658 0.806457 8.7162 207 147 136
-1.37202 0.809398 8.74553 212 154 143
-1.36743 0.812361 8.77507 208 150 139
-1.3243 0.815405 8.79554 226 171 164
-1.32197 0.826002 8.90482 255 202 194
-1.31465 0.827549 8.91898 255 202 196
-1.31464 0.83375 8.98327 244 191 185
-1.31215 0.838465 9.03153 198 146 133
-1.32136 0.863944 9.29809 220 166 154
-1.30942 0.869587 9.35354 202 143 135
-1.28364 0.873038 9.38268 220 155 149
-1.25273 0.873086 9.37524 192 133 129
-1.24243 0.873102 9.37275 224 165 161
-1.23052 0.871981 9.35807 227 169 165
-1.22023 0.871997 9.35559 187 129 125
-1.2068 0.869748 9.32881 198 141 130
-1.18474 0.868652 9.31177 250 190 180
-1.17031 0.873215 9.35538 232 165 156
-1.13056 0.866483 9.27536 191 123 112
-1.11589 0.871024 9.31866 238 175 160
-1.08546 0.863196 9.22968 251 194 177
-1.07945 0.866563 9.26304 246 190 173
-1.04473 0.86326 9.21986 252 199 181
-1.02436 0.863292 9.21495 223 164 150
-1.01911 0.867501 9.25725 201 142 128
-1.00659 0.865555 9.23385 197 135 122
-0.996386 0.865571 9.23139 218 154 142
-0.984269 0.863912 9.21108 218 154 142
-0.97408 0.863928 9.20862 196 130 116
-0.96327 0.863388 9.20023 183 117 103
-0.953087 0.863403 9.19778 185 117 104
-0.942904 0.863419 9.19533 220 152 139
-0.929129 0.860109 9.15746 233 163 151
-0.921352 0.86234 9.17859 209 139 127
-0.880108 0.861849 9.16289 240 170 158
-0.873316 0.865204 9.19593 226 163 146
-0.851262 0.863563 9.17325 221 152 137
-0.834122 0.866947 9.20393 248 170 158
-0.8239 0.866963 9.20147 248 166 155
-0.806587 0.870374 9.23238 228 144 134
-0.794777 0.868697 9.21196 236 154 143
-0.784535 0.868713 9.20949 233 155 143
-0.730184 0.87734 9.28497 203 136 119
-0.709498 0.877373 9.27999 221 154 137
-0.699156 0.877389 9.2775 236 169 152
-0.678471 0.877421 9.27251 233 166 149
-0.670763 0.880897 9.30657 216 149 132
-0.65908 0.87918 9.28576 217 150 133
-0.648717 0.879197 9.28327 220 153 137
-0.639613 0.880946 9.29907 216 149 133
-0.627507 0.893307 9.42413 221 155 141
-0.608463 0.880995 9.29156 203 137 123
-0.59808 0.881011 9.28906 188 122 110
-0.577313 0.881044 9.28406 222 156 144
-0.569927 0.885717 9.33061 220 152 141
-0.527493 0.902493 9.49366 236 173 158
-0.516859 0.90251 9.4911 242 179 164
-0.44197 0.947296 9.93622 249 176 159
-0.431418 0.948653 9.94759 242 171 153
-0.420242 0.948671 9.9449 212 139 122
-0.376067 0.950085 9.9482 252 180 168
-0.365912 0.952802 9.97377 244 167 159
-0.343464 0.952837 9.96836 252 192 181
-0.332949 0.95489 9.98694 255 214 200
-0.321701 0.954908 9.98423 228 169 155
-0.309791 0.95289 9.96025 228 158 146
-0.300488 0.95904 10.0216 239 163 150
-0.289813 0.961119 10.0404 249 173 157
-0.267172 0.961154 10.035 248 170 150
-0.222847 0.965376 10.0673 204 137 120
-0.185272 0.947697 9.87438 140 79 60
-0.172599 0.939485 9.78597 110 53 34
-0.161764 0.940837 9.79719 93 40 24
-0.149421 0.932968 9.71243 86 34 20
-0.138435 0.932985 9.70978 75 27 15
-0.128525 0.940889 9.78918 67 20 12
-0.117446 0.940906 9.78652 58 15 9
-0.10915 0.965553 10.04 52 11 9
-0.0977807 0.965571 10.0372 49 7 8
-0.0714624 0.91955 9.55325 35 10 6
-0.0606349 0.919567 9.55064 30 6 4
-0.0351632 0.82955 8.6107 27 1 0
-0.017586 0.933452 9.68355 35 7 6
0.00449729 0.955418 9.90563 53 19 18
0.0152988 0.928337 9.62206 122 84 83
0.0260119 0.920712 9.54023 148 107 103
0.0368512 0.920729 9.53762 155 110 105
0.0500243 0.965802 10.0016 176 127 120
0.0688961 0.914505 9.46485 144 87 78
0.0904267 0.914539 9.45966 183 139 126
0.101192 0.914556 9.45707 194 150 137
0.127092 0.947152 9.78839 129 83 68
0.151307 0.892741 9.21798 184 137 121
0.167611 0.924739 9.54557 215 168 152
0.185046 0.903608 9.32198 192 143 126
0.196474 0.907289 9.35721 189 140 123
0.206315 0.903641 9.31686 145 97 77
0.216077 0.900023 9.27683 144 96 76
0.226898 0.900945 9.28361 170 119 100
0.2375 0.900962 9.28106 207 156 137
0.248103 0.900979 9.2785 190 139 120
0.267246 0.894111 9.20237 195 128 119
0.277768 0.894128 9.19984 219 150 143
0.321999 0.900188 9.25131 206 142 133
0.352358 0.896631 9.20662 219 149 141
0.363636 0.898448 9.22255 205 137 126
0.374207 0.898464 9.22 214 146 135
0.384007 0.896681 9.19899 227 157 147
0.396144 0.900304 9.23344 228 158 148
0.40592 0.898514 9.21236 222 155 146
0.41649 0.89853 9.20982 217 155 144
0.475066 0.909567 9.3092 224 156 145
0.485766 0.909584 9.30662 229 161 150
0.505624 0.906854 9.2732 245 177 164
0.51369 0.902301 9.22392 255 189 176
0.530721 0.913362 9.33423 234 166 153
0.592763 0.909751 9.28084 255 188 179
0.628694 0.915381 9.32997 236 176 166
0.639459 0.915398 9.32738 237 173 163
0.654237 0.921063 9.38232 248 180 171
0.66099 0.915431 9.32219 245 172 163
0.671756 0.915448 9.31959 235 161 152
0.765705 0.925038 9.39487 255 198 176
0.776581 0.925055 9.39225 255 198 176
0.785835 0.923165 9.37027 216 150 128
0.803311 0.930856 9.44553 222 154 145
0.814256 0.930873 9.44289 232 164 155
0.839634 0.934793 9.47701 250 177 170
0.898865 0.962978 9.75403 234 171 162
0.915602 0.956843 9.68611 193 145 133
0.963908 0.995118 10.0706 160 118 106
0.975606 0.995136 10.0677 146 108 95
0.980768 0.988567 9.9983 89 51 40
0.966789 0.963084 9.73767 112 69 60
0.97811 0.963102 9.73494 118 71 63
0.989431 0.96312 9.73221 111 62 57
1.03871 0.999669 10.0985 113 62 58
0.988694 0.940907 9.50207 100 62 53
1.02154 0.950926 9.59751 189 149 141
1.0251 0.943932 9.52408 159 119 109
1.084 0.947011 9.54086 142 94 84
1.12376 0.943095 9.49002 132 80 69
1.14936 0.955172 9.60868 180 128 117
1.15216 0.939194 9.44227 212 160 147
1.12394 0.907515 9.12105 160 108 94
1.20036 0.951205 9.55443 201 154 134
1.16935 0.9181 9.21912 176 131 108
1.18256 0.920001 9.23544 113 71 47
1.19829 0.92381 9.2709 151 111 85
1.21516 0.928419 9.31435 220 180 154
1.22 0.923844 9.26567 238 198 172
1.26488 0.941119 9.43325 255 210 191
1.29198 0.921115 9.21886 149 104 109
1.29615 0.916425 9.16915 232 189 196
1.31362 0.921149 9.21364 244 198 183
1.32445 0.921166 9.21104 176 130 115
1.4038 0.916593 9.14322 209 161 149
1.41492 0.909931 9.07127 189 140 125
1.4361 0.916644 9.13543 180 131 114
1.42741 0.904336 9.01005 219 171 151
1.43803 0.904353 9.00749 252 204 184
1.45354 0.90742 9.0353 241 193 171
1.49013 0.903829 8.98866 177 126 107
1.50682 0.907503 9.02247 180 132 112
1.50227 0.89843 8.92956 169 121 101
1.5278 0.894894 8.88633 245 193 179
1.53831 0.89491 8.88379 239 187 173
1.55933 0.894943 8.87873 211 159 146
1.59722 0.898578 8.90668 207 157 146
1.60777 0.898595 8.90414 241 191 180
1.63214 0.900432 8.91692 190 146 133
1.65266 0.905903 8.96837 181 133 121
1.65559 0.89037 8.80656 200 139 134
1.69592 0.895157 8.84582 235 180 177
1.74492 0.898809 8.87109 249 188 187
1.78013 0.900663 8.88126 219 166 160
1.7907 0.90068 8.87871 213 163 154
1.80127 0.900696 8.87616 234 170 171
1.81185 0.900713 8.87362 189 129 129
1.83346 0.906186 8.92481 176 122 120
1.83299 0.900746 8.86852 240 193 187
1.84356 0.900762 8.86598 233 190 183
1.85724 0.897194 8.82545 255 213 207
1.87151 0.899007 8.84059 241 192 187
1.88883 0.897243 8.81784 250 192 190
1.90826 0.901465 8.85662 247 189 187
1.93307 0.90817 8.91976 231 178 174
1.94373 0.908186 8.9172 230 185 179
1.94782 0.90515 8.88467 221 187 177
1.99589 0.917519 9.00056 255 239 224
2.01742 0.917553 8.99537 243 223 232
2.02268 0.915076 8.96833 255 244 252
2.03341 0.915092 8.96574 255 249 255
2.09474 0.932876 9.13437 241 230 234
2.10569 0.932893 9.13173 224 212 216
2.12757 0.932927 9.12646 234 217 225
2.13408 0.931009 9.1049 239 222 230
2.14946 0.932961 9.12119 233 216 226
2.1808 0.941786 9.20463 212 196 206
2.2029 0.94182 9.1993 174 164 175
2.21394 0.941837 9.19664 155 149 159
-4.5189 0.957853 10.9744 77 78 106
-4.50767 0.95787 10.9717 86 87 115
-4.49645 0.957888 10.969 98 99 127
-4.44208 0.955921 10.9348 102 103 133
-4.44033 0.957976 10.9554 98 99 129
-4.44806 0.962094 10.9996 92 93 124
-4.40666 0.958028 10.9473 89 90 121
-4.40298 0.962165 10.9888 90 91 122
-4.3917 0.962182 10.9861 100 101 132
-4.39926 0.966337 11.0306 107 103 140
-4.29319 0.970705 11.048 103 102 136
-4.18827 0.983696 11.1542 115 112 143
-4.17675 0.983714 11.1514 112 109 140
-4.16523 0.983732 11.1486 110 107 138
-4.15371 0.98375 11.1459 111 108 139
-4.13973 0.985942 11.1647 98 97 128
-4.10764 0.983822 11.1348 101 100 131
-4.11412 0.988163 11.1809 115 114 145
-4.10255 0.988181 11.1781 115 114 145
-4.09998 0.990375 11.1999 110 109 140
-4.09741 0.992578 11.2218 113 110 141
-4.07417 0.992614 11.2162 105 102 133
-4.03313 0.988289 11.1614 103 100 131
-4.02156 0.988307 11.1586 107 104 135
-4.01882 0.990501 11.1804 113 110 141
-4.01607 0.992705 11.2022 115 114 146
-4.0222 0.997124 11.2491 115 114 146
-3.98121 0.99276 11.1938 121 120 151
-3.96672 0.994992 11.213 126 125 156
-3.96384 0.997215 11.235 122 121 152
-3.95216 0.997233 11.2322 118 117 148
-3.94049 0.997252 11.2294 110 109 140
-3.94041 1.00623 11.3213 109 109 137
-3.89942 1.00178 11.2653 99 99 127
-3.88769 1.0018 11.2624 97 97 125
-3.87597 1.00182 11.2596 102 101 132
-3.87287 1.00407 11.2819 106 105 136
-3.85797 1.00636 11.3015 127 126 157
-3.71104 1.01803 11.3833 128 125 154
-3.67891 1.01577 11.3519 116 113 140
-3.65514 1.01581 11.3462 91 89 110
-3.7152 1.0393 11.6023 40 40 52
-3.65246 1.02512 11.4409 17 17 27
-3.61986 1.01933 11.3732 6 7 12
-2.12241 0.787908 8.61749 52 50 53
-2.11321 0.787922 8.61527 58 56 59
-2.11138 0.7907 8.64326 90 88 91
-2.08367 0.790744 8.63659 161 151 159
-2.07444 0.790758 8.63436 136 126 134
-2.06159 0.789388 8.61702 132 122 130
-2.00276 0.788095 8.58866 114 101 110
-1.99885 0.953637 10.2836 255 235 226
-1.70022 0.849104 9.13595 252 208 199
-1.69032 0.849119 9.13356 221 177 168
-1.51761 0.790239 8.48596 230 177 173
-1.50313 0.787496 8.45413 251 194 185
-1.49394 0.78751 8.45192 241 184 175
-1.47409 0.791697 8.48971 205 147 136
-1.45307 0.79034 8.47041 206 146 135
-1.44639 0.79174 8.48304 213 154 140
-1.43967 0.793146 8.49571 214 155 141
-1.43042 0.79316 8.49348 206 147 133
-1.4151 0.800233 8.562 217 159 145
-1.40576 0.800248 8.55976 213 155 141
-1.40389 0.80454 8.60325 204 146 132
-1.39451 0.804555 8.60099 189 130 116
-1.39058 0.807736 8.63257 185 126 112
-1.39732 0.817205 8.73131 185 126 112
-1.38612 0.816235 8.71849 190 131 117
-1.36917 0.811847 8.66919 193 135 121
-1.37204 0.819226 8.74552 191 133 121
-1.36496 0.82073 8.75911 187 129 117
-1.35539 0.820745 8.75681 183 126 115
-1.34581 0.82076 8.7545 215 158 147
-1.33394 0.82529 8.79786 216 162 152
-1.33407 0.831382 8.86031 212 158 148
-1.31952 0.828348 8.82548 219 167 156
-1.33196 0.848613 9.03629 253 200 192
-1.32461 0.856692 9.11718 255 207 196
-1.31712 0.858336 9.13209 255 205 194
-1.25237 0.822405 8.74734 222 168 158
-1.3197 0.880127 9.356 221 164 155
-1.31714 0.885318 9.40853 255 196 188
-1.29396 0.883619 9.38516 219 156 149
-1.26305 0.883667 9.37771 223 153 151
-1.25275 0.883683 9.37523 215 147 144
-1.24245 0.883699 9.37275 252 184 181
-1.23054 0.882564 9.35806 253 188 184
-1.20447 0.878591 9.31066 208 149 141
-1.19423 0.878607 9.30819 222 162 154
-1.1863 0.880336 9.32386 247 183 174
-1.1635 0.878656 9.30079 194 123 117
-1.15701 0.881529 9.32856 157 84 77
-1.1408 0.876982 9.27781 171 101 93
-1.13058 0.876998 9.27535 244 176 165
-1.12036 0.877014 9.27289 255 193 181
-1.11591 0.881593 9.31866 235 173 160
-1.08548 0.87367 9.22967 250 194 177
-1.06511 0.873702 9.22476 255 201 184
-1.02211 0.880592 9.2843 238 176 163
-1.0158 0.884054 9.31814 212 150 137
-0.987471 0.877222 9.24087 214 148 136
-0.975986 0.876104 9.22647 203 137 125
-0.963909 0.874425 9.20616 215 147 134
-0.95372 0.874441 9.20371 223 155 142
-0.929147 0.870543 9.15746 230 160 148
-0.92137 0.8728 9.17858 208 138 126
-0.911201 0.872816 9.17613 218 148 138
-0.881828 0.873989 9.1806 223 155 144
-0.85128 0.874037 9.17324 245 169 156
-0.834141 0.877462 9.20392 249 173 160
-0.823919 0.877478 9.20146 241 163 151
-0.793252 0.877526 9.19407 243 167 154
-0.78303 0.877542 9.19161 244 170 159
-0.77582 0.880977 9.22496 235 163 151
-0.765558 0.880993 9.22249 236 166 154
-0.755296 0.88101 9.22001 245 175 163
-0.740544 0.887963 9.28746 216 148 135
-0.72877 0.886238 9.26677 231 162 146
-0.718448 0.886255 9.26428 228 159 143
-0.709517 0.888011 9.27998 221 152 136
-0.699174 0.888027 9.27749 229 160 144
-0.678489 0.88806 9.27251 236 167 151
-0.670781 0.891578 9.30657 217 148 132
-0.659099 0.88984 9.28576 211 142 126
-0.648736 0.889856 9.28326 231 162 147
-0.642164 0.895156 9.33588 208 141 125
-0.616434 0.888157 9.25755 228 160 147
-0.552721 0.902448 9.3876 250 184 172
-0.531705 0.902481 9.38253 236 173 158
-0.44199 0.958776 9.93622 222 149 134
-0.430829 0.958793 9.93353 234 166 147
-0.420262 0.960167 9.94489 212 141 123
-0.399605 0.964295 9.98187 254 187 170
-0.38728 0.96158 9.95089 246 183 166
-0.376087 0.961598 9.94819 247 181 167
-0.309811 0.964436 9.96024 233 165 152
-0.289833 0.972764 10.0404 252 184 165
-0.224808 0.985582 10.155 188 119 104
-0.210226 0.971217 10.0041 152 85 69
-0.194562 0.949933 9.78204 138 75 58
-0.183509 0.94995 9.77938 129 68 50
-0.161784 0.952233 9.79719 90 37 21
-0.149441 0.944269 9.71242 83 31 18
-0.138454 0.944286 9.70977 71 23 13
-0.128545 0.952285 9.78918 61 16 10
-0.117465 0.952302 9.78651 55 12 6
-0.10917 0.977248 10.0399 50 9 7
-0.0995197 0.994441 10.2136 47 7 7
-0.0841699 0.951715 9.77193 38 14 10
-0.0608041 0.933006 9.57425 31 6 2
-0.0514343 0.960744 9.85602 28 2 1
-0.0395031 0.942755 9.66866 29 3 2
0.0042417 0.916114 9.38449 56 21 19
0.0152795 0.939579 9.62205 115 75 73
0.0475409 0.929345 9.5089 168 118 111
0.0792539 0.921077 9.41605 161 104 93
0.127073 0.958619 9.78839 141 93 81
0.155849 0.930787 9.49585 204 156 142
0.166674 0.930804 9.49325 203 154 139
0.17369 0.910852 9.28703 180 131 116
0.184902 0.913932 9.31571 190 141 124
0.19553 0.913949 9.31314 181 130 113
0.256877 0.90552 9.21104 183 117 105
0.267228 0.904934 9.20237 193 126 117
0.27775 0.90495 9.19983 209 142 133
0.311388 0.911067 9.25385 253 189 180
0.353047 0.909304 9.22509 231 163 152
0.363617 0.909321 9.22254 214 146 133
0.383988 0.907532 9.19899 232 162 150
0.426187 0.907598 9.18882 217 147 137
0.436737 0.907615 9.18628 219 149 139
0.480862 0.911332 9.21302 227 157 145
0.503058 0.913202 9.22647 246 176 164
0.516796 0.918773 9.28002 255 194 181
0.529622 0.922531 9.31522 254 186 173
0.541446 0.92443 9.33164 229 161 148
0.557248 0.915129 9.23229 204 136 125
0.570186 0.918857 9.26716 219 151 140
0.580864 0.918874 9.26459 218 150 139
0.593951 0.922632 9.29972 236 168 157
0.60222 0.918907 9.25944 255 195 188
0.619599 0.928969 9.35806 255 201 190
0.630394 0.928986 9.35546 255 210 195
0.639441 0.926471 9.32737 253 204 189
0.660971 0.926505 9.32218 238 168 158
0.685304 0.930342 9.35524 255 186 175
0.696113 0.930359 9.35264 246 183 168
0.712775 0.938078 9.42743 215 163 142
0.731545 0.934245 9.38334 255 209 189
0.781403 0.942079 9.4508 233 171 150
0.792348 0.942096 9.44816 233 171 150
0.799967 0.938214 9.40643 232 168 156
0.814236 0.942131 9.44288 252 188 176
0.898845 0.974623 9.75402 224 168 155
0.926092 0.991695 9.92192 172 123 109
0.94173 0.99607 9.96273 148 106 92
0.95811 1.00111 10.0102 139 102 86
0.969738 1.00113 10.0074 133 100 85
0.981366 1.00115 10.0046 123 89 77
0.992994 1.00117 10.0018 134 98 86
0.981842 0.978486 9.77228 136 96 88
0.989411 0.974764 9.7322 121 74 68
1.00073 0.974782 9.72948 122 73 68
0.983853 0.947639 9.45573 101 61 51
1.00867 0.950321 9.47683 205 165 155
1.06122 0.989026 9.85987 194 151 142
1.05734 0.974871 9.71584 160 117 108
1.13962 0.958546 9.52745 165 113 100
1.15214 0.950546 9.44227 202 150 137
1.14165 0.932967 9.26487 255 208 193
1.16571 0.934924 9.27874 253 200 182
1.18062 0.938163 9.30809 255 220 199
1.19151 0.93818 9.30547 244 196 174
1.20075 0.936906 9.29004 185 137 114
1.20913 0.934992 9.26828 179 133 109
1.21998 0.935009 9.26566 254 208 184
1.23083 0.935026 9.26304 243 197 174
1.26486 0.952492 9.43325 251 204 186
1.22932 0.917721 9.08615 231 183 169
1.29241 0.932565 9.22201 216 168 168
1.29613 0.927498 9.16915 240 192 192
1.31406 0.932599 9.21679 248 202 189
1.40378 0.927666 9.14321 200 152 138
1.41375 0.920176 9.06391 176 127 112
1.43023 0.92394 9.09823 183 134 117
1.42739 0.915261 9.01005 214 165 148
1.46122 0.916543 9.01449 231 178 160
1.47185 0.91656 9.01193 215 162 144
1.50985 0.920327 9.04075 180 129 112
1.51745 0.918481 9.01989 175 126 109
1.52336 0.909314 8.92447 203 152 135
1.53829 0.905719 8.88379 239 186 172
1.61422 0.913105 8.93995 235 185 174
1.73534 0.975234 9.54534 225 175 164
1.74665 0.975252 9.54261 195 147 133
1.62422 0.901072 8.81411 179 131 117
1.65557 0.901121 8.80655 212 153 147
1.65508 0.895215 8.74617 229 168 163
1.71692 0.905998 8.84075 228 173 168
1.73435 0.909644 8.87363 239 186 180
1.7449 0.909661 8.87109 255 203 197
1.75897 0.911503 8.88635 255 213 205
1.766 0.909694 8.866 254 201 193
1.77655 0.90971 8.86346 225 170 163
1.7871 0.909727 8.86092 205 150 143
1.80126 0.911569 8.87616 243 175 174
1.8082 0.90976 8.85583 218 154 152
1.81875 0.909776 8.85329 196 138 134
1.82686 0.90858 8.83895 227 177 170
1.85471 0.917158 8.91968 211 167 158
1.86775 0.90804 8.82291 247 197 190
1.88709 0.912312 8.86171 222 167 164
1.90824 0.912345 8.85661 250 190 189
1.97703 0.924795 8.96649 237 207 197
1.98775 0.924812 8.9639 254 230 218
2.01329 0.926732 8.97701 246 226 237
2.03339 0.926136 8.96574 254 239 246
2.09472 0.944133 9.13436 225 213 217
2.10567 0.94415 9.13173 230 215 220
2.11875 0.940277 9.08868 243 226 232
2.12965 0.940294 9.08605 242 225 233
2.14499 0.942261 9.10226 231 214 224
2.18078 0.953149 9.20462 208 192 202
2.20698 0.950211 9.16779 165 157 170
2.21799 0.950229 9.16513 156 150 162
-4.50769 0.969416 10.9717 94 95 123
-4.49647 0.969433 10.969 106 107 135
-4.45503 0.965353 10.917 102 103 131
-4.44035 0.969521 10.9554 96 97 128
-4.42912 0.969539 10.9527 95 96 127
-4.36532 0.978034 11.0224 93 89 126
-4.354 0.978052 11.0196 87 83 120
-4.34268 0.97807 11.0169 84 80 117
-4.33136 0.978088 11.0142 93 89 126
-4.34808 0.984454 11.0829 126 122 159
-4.30458 0.982382 11.0508 109 105 142
